# .PCD v0.7 - Point Cloud Data file format
VERSION 0.7
FIELDS x y z
SIZE 4 4 4
TYPE F F F
COUNT 1 1 1
WIDTH 1498
HEIGHT 1
VIEWPOINT 0 0 0 1 0 0 0
POINTS 1498
DATA ascii
10.861455 -6.7473497 -1.8484588
11.188935 -6.2239695 -1.8509011
11.463486 -6.0193624 -1.8717501
12.137959 -6.0046391 -1.9576577
12.775048 -5.5700512 -2.0146959
12.912382 -5.2630625 -2.0157406
13.041953 -4.9525437 -2.016731
13.16372 -4.6387444 -2.0176668
13.277549 -4.321804 -2.0185473
13.481133 -3.6794195 -2.0201395
13.725137 -2.6977718 -2.0220969
13.846191 -2.0338311 -2.0231092
13.964375 -1.0280267 -2.0241807
13.986767 -0.69102418 -2.0244176
14.00252 0.32201171 -2.0247653
13.990635 0.65962034 -2.0247595
13.857734 2.0036402 -2.0241306
13.80329 2.3369031 -2.0238223
13.5896 3.3265979 -2.0225387
13.405732 3.9757593 -2.0213869
11.659697 5.3901329 -1.8569403
11.06247 6.4743152 -1.8529606
10.896924 6.7354016 -1.8519083
9.9708986 6.5005393 -1.7206857
9.4635744 6.5003271 -1.6597159
8.9907227 6.5001268 -1.6038189
8.5484076 6.4999399 -1.5524366
7.3737011 6.4994373 -1.4209325
6.693037 6.4991441 -1.3486573
6.288125 6.4077697 -1.297838
5.9915915 6.4076405 -1.2681713
5.7178516 6.4184408 -1.2426451
5.5077243 6.4912095 -1.2306485
4.9897752 6.4909801 -1.1835583
4.7451072 6.490869 -1.1623268
4.2805371 6.4906602 -1.1239754
3.8446679 6.4904599 -1.0905294
3.6360741 6.4903636 -1.0754614
3.4330468 6.4902697 -1.0614136
3.0419531 6.4900875 -1.0361606
2.8530858 6.4899974 -1.0248592
2.6681933 6.4899106 -1.0143857
2.4869335 6.4898243 -1.0047022
1.7922949 6.4894872 -0.97325009
1.2959082 6.489243 -0.95661628
1.1338769 6.489161 -0.95229536
0.80270505 6.401207 -0.93261319
0.34003904 6.4847484 -0.93873143
0.18336913 6.4846668 -0.93780637
0.026923828 6.4845862 -0.93742818
-0.12950195 6.4845042 -0.93759519
-0.28607422 6.4844198 -0.93830788
-0.60038084 6.4842539 -0.94138241
-0.91749018 6.4840832 -0.94668502
-1.238955 6.4839087 -0.95428067
-1.4018164 6.4838195 -0.9589653
-1.5663769 6.4837289 -0.96425992
-1.9015039 6.4835424 -0.97674721
-2.2462401 6.4833484 -0.99190032
-2.4228613 6.4832492 -1.0005358
-2.6026952 6.4831467 -1.0099156
-2.9732127 6.482933 -1.0310433
-3.5613279 6.482594 -1.0692372
-3.7675879 6.4824729 -1.0838937
-3.9796972 6.4823475 -1.0996064
-4.1475682 6.4040833 -1.102984
-4.366416 6.3983383 -1.1198097
-4.901875 6.4874158 -1.1754453
-5.4122458 6.4871082 -1.2213105
-5.6829977 6.4869456 -1.2467293
-5.9654198 6.4867725 -1.2739836
-6.5698924 6.4864049 -1.3346483
-7.2364354 6.4859948 -1.4048098
-7.5971484 6.4857726 -1.4440392
-8.3837643 6.4852843 -1.5322614
-9.5145655 6.9998546 -1.707577
-10.116167 6.0338197 -1.7027906
-10.507675 5.2775049 -1.6998403
-10.626269 5.0199046 -1.69894
-10.845283 4.4972215 -1.6972665
-11.42375 4.4173169 -1.7706043
-11.988671 4.3063707 -1.8415241
-12.254678 3.4244871 -1.839434
-12.329701 3.12692 -1.8388331
-12.45896 2.5272844 -1.8377776
-12.600732 1.6188635 -1.8365617
-12.660244 1.0090643 -1.8359981
-12.679487 0.70335937 -1.8357906
-12.696821 0.091109619 -1.8355252
-12.670005 -0.82703489 -1.8355016
-12.616997 -1.4372144 -1.8357351
-12.57998 -1.7412689 -1.8359267
-12.535972 -2.0444281 -1.8361678
-12.485 -2.3465416 -1.8364587
-12.42707 -2.6474533 -1.8367993
-12.362226 -2.9470036 -1.8371888
-12.290488 -3.2450664 -1.8376278
-12.211904 -3.5414772 -1.8381158
-11.935303 -4.4192972 -1.8398713
-11.598364 -5.2768607 -1.8420591
-11.472852 -5.5575299 -1.8428832
-11.3408 -5.8353672 -1.8437542
-10.488194 -6.0533619 -1.7506071
-9.8981295 -6.3680682 -1.7014489
-9.2619476 -7.3103123 -1.7057375
-8.3456249 -8.4021063 -1.7119762
-7.9435449 -8.8089132 -1.7147305
-7.3045554 -9.3841238 -1.7191244
-7.659121 -10.345007 -1.8607647
-7.407207 -10.526424 -1.8607124
-7.1513038 -10.702203 -1.8607452
-6.3609276 -11.194875 -1.8613545
-6.090332 -11.347291 -1.8617274
-5.816328 -11.4937 -1.8621851
-5.5065818 -11.565857 -1.8518132
-5.222578 -11.687517 -1.8505808
-4.9362402 -11.803021 -1.8494771
-4.6476855 -11.912351 -1.8485016
-4.3570509 -12.015469 -1.8476546
-3.7699316 -12.202949 -1.8463467
-3.4736719 -12.287241 -1.8458865
-3.1757519 -12.365222 -1.8455552
-2.6280859 -12.757814 -1.8830187
-2.3433886 -12.948761 -1.9023062
-1.0120507 -7.6933026 -1.1217433
-1.4085742 -13.153919 -1.9124285
-1.092207 -13.19945 -1.9146597
-0.77446288 -13.23744 -1.9169024
-0.45551756 -13.267841 -1.9191552
-0.13555664 -13.290612 -1.921417
0.50666016 -13.313107 -1.9259624
1.4730469 -13.288767 -1.9328158
1.7952539 -13.265069 -1.9351044
2.1171484 -13.233535 -1.9373926
3.3979785 -13.029111 -1.9465158
4.0316405 -12.879975 -1.9510406
4.3461132 -12.793733 -1.9532888
5.277627 -12.48857 -1.9599605
5.5835156 -12.371494 -1.9621552
6.1872263 -12.114573 -1.9664928
6.7788572 -11.827707 -1.9707518
7.0696483 -11.673165 -1.9728482
7.640234 -11.342331 -1.9769683
8.7320995 -10.595852 -1.9848787
8.9937105 -10.392113 -1.9867797
8.5181732 -9.3758469 -1.831243
8.7499123 -9.1761408 -1.8329316
7.6697655 -7.6644335 -1.5674729
9.1986322 -8.7591705 -1.8362081
9.4153223 -8.54214 -1.8377942
10.032949 -7.8584609 -1.8423296
10.775292 -6.875886 -1.8478184
11.109248 -6.3568363 -1.8503054
11.792129 -6.0122118 -1.9134696
12.497754 -5.9967141 -2.003912
12.7033 -5.7226415 -2.0141523
13.103613 -4.7965674 -2.0172043
13.331308 -4.1627545 -2.018965
13.526806 -3.5177441 -2.0205007
13.612305 -3.1915655 -2.0211823
13.689531 -2.863225 -2.021806
13.819004 -2.200942 -2.0228777
13.914784 -1.5326452 -2.0237119
13.949961 -1.1968108 -2.024039
13.976611 -0.86013854 -2.0243065
14.004257 -0.18523742 -2.0246594
13.997685 0.49030334 -2.02477
13.923594 1.5007812 -2.0244803
13.881855 1.8359491 -2.0242624
13.83165 2.1699114 -2.0239847
13.772988 2.5024431 -2.0236461
13.705947 2.8333306 -2.0232482
13.454912 3.8138683 -2.0216978
13.354854 4.1359339 -2.0210636
12.297559 4.4689965 -1.8915057
11.976913 4.6824608 -1.8590231
11.855439 4.9678259 -1.8582289
11.726846 5.2499108 -1.8573834
10.980488 6.6048045 -1.8523905
10.812304 6.8640881 -1.8514171
9.7134666 6.5004306 -1.6896226
8.7666988 6.5000315 -1.5776811
8.3383493 6.4998498 -1.5283672
7.9357324 6.49968 -1.4828799
7.1973243 6.4993625 -1.4018993
6.8571973 6.4992161 -1.3657901
6.1386228 6.4077048 -1.2827868
4.6263671 6.4908166 -1.152274
4.3941894 6.4907117 -1.1331096
4.1694336 6.4906101 -1.1152065
3.7399902 6.4904122 -1.0828892
3.3338084 6.4902244 -1.0547764
2.9473047 6.4900427 -1.0304217
1.8770899 6.4895287 -0.97659147
1.7085937 6.4894466 -0.97009343
1.3777539 6.4892821 -0.95900863
0.88150388 6.4012461 -0.93410498
0.56904298 6.4050951 -0.92957532
0.41876951 6.4847889 -0.93940151
0.26192382 6.4847083 -0.93820173
0.10538086 6.4846277 -0.93755066
-0.051035155 6.4845457 -0.93744284
-0.36421874 6.4843798 -0.93886769
-1.157832 6.4839535 -0.95215541
-1.4836035 6.4837742 -0.96152782
-1.6490917 6.4836826 -0.96713257
-1.9864453 6.4834948 -0.98026669
-2.1587694 6.4833984 -0.98783946
-2.6936035 6.4830942 -1.0148786
-2.8788183 6.4829884 -1.0254353
-3.068037 6.4828806 -1.0368248
-3.4599414 6.4826536 -1.0622661
-3.872539 6.4824119 -1.0915889
-5.0254688 6.4873409 -1.1862946
-5.2805371 6.4871883 -1.2092084
-5.8222361 6.4868612 -1.2600743
-6.1108689 6.4866858 -1.2883019
-7.0627637 6.4861021 -1.3862268
-7.7845945 6.4856553 -1.464744
-9.5942039 6.882246 -1.7068977
-9.7497559 6.6436462 -1.705562
-9.9004145 6.4022288 -1.7044052
-10.184873 5.9099765 -1.7022749
-10.567544 5.1494312 -1.6993862
-10.683129 4.8905406 -1.6985071
-11.051143 4.4276743 -1.7210293
-12.03707 4.1611071 -1.8411474
-12.214492 3.5731175 -1.8397534
-12.292925 3.2763824 -1.8391285
-12.364491 2.9780207 -1.838552
-12.486875 2.3770263 -1.8375448
-12.537626 2.0746992 -1.8371149
-12.618193 1.467141 -1.8364027
-12.647959 1.1622199 -1.8361207
-12.696748 -0.061511841 -1.8354902
-12.691342 -0.36770079 -1.8354572
-12.659424 -0.97930294 -1.835541
-12.632935 -1.2844183 -1.8356577
-12.558921 -1.8924878 -1.8360406
-12.511436 -2.1951416 -1.8363066
-12.327338 -3.0957718 -1.8374015
-12.081372 -3.9821911 -1.8389381
-11.985781 -4.2738185 -1.8395475
-9.9715528 -6.2460642 -1.7009569
-9.8237352 -6.4885111 -1.701948
-9.670249 -6.7276249 -1.7029798
-8.0462055 -8.7085867 -1.7140265
-7.4142919 -9.2909851 -1.7183685
-7.1945066 -9.4754524 -1.719883
-7.2801561 -10.614737 -1.8607181
-7.0223289 -10.787669 -1.8607935
-6.7606931 -10.954834 -1.8609539
-6.4953809 -11.116162 -1.8611993
-6.2265134 -11.271591 -1.8615295
-5.9541798 -11.421021 -1.861945
-5.6719728 -11.551038 -1.8602928
-5.3653321 -11.627248 -1.8511832
-5.0801368 -11.745858 -1.8500146
-3.9178612 -12.158277 -1.8466265
-3.6224706 -12.245753 -1.8461013
-3.0266893 -12.401709 -1.8454363
-2.7603514 -12.624997 -1.8682095
-2.4894629 -12.865605 -1.8943754
-1.5666991 -13.128274 -1.911314
-0.93399411 -13.21934 -1.915776
-0.61563474 -13.25355 -1.9180239
-0.2961621 -13.280149 -1.9202816
0.024238281 -13.299107 -1.9225472
0.66708982 -13.313909 -1.9270991
0.98913085 -13.309699 -1.929382
1.6336328 -13.277916 -1.9339563
1.9557031 -13.250328 -1.9362447
2.2773829 -13.214905 -1.9385324
2.5984862 -13.171648 -1.9408175
2.9188378 -13.120548 -1.9430994
3.238203 -13.061635 -1.9453763
3.556416 -12.994879 -1.9476465
4.1885939 -12.837962 -1.9521624
4.5021582 -12.747848 -1.9544053
4.8137693 -12.649981 -1.9566363
5.7349901 -12.310301 -1.9632428
6.0368848 -12.181855 -1.9654119
6.6316991 -11.902429 -1.9696916
8.8631048 -10.495132 -1.9858305
7.6737108 -7.8562346 -1.5875925
9.3072853 -8.6517096 -1.8370031
9.5213575 -8.4319086 -1.8385711
10.507978 -7.2537484 -1.8458364
11.02792 -6.4886327 -1.8496984
11.188457 -6.2248125 -1.8508977
12.135703 -6.0046897 -1.9573644
12.629667 -5.8743014 -2.0135953
12.77461 -5.5710387 -2.0146928
12.911963 -5.2640557 -2.0157375
13.041572 -4.9535589 -2.0167282
13.724921 -2.6988235 -2.022095
13.893945 -1.7007318 -2.023525
13.933389 -1.3653979 -2.0238824
13.964306 -1.0291138 -2.0241799
13.986718 -0.69211119 -2.0244172
14.000537 -0.35462219 -2.0245934
14.005839 -0.016862793 -2.0247097
14.002529 0.32093811 -2.024765
13.990712 0.65854859 -2.0247598
13.941338 1.3322955 -2.0245667
13.740624 2.6675689 -2.0234554
13.669404 2.9975438 -2.0230277
13.301933 4.2954736 -2.0207257
12.035146 4.5381641 -1.8594023
11.660117 5.3892393 -1.856943
11.521035 5.6660681 -1.8560219
11.222363 6.2083716 -1.8540318
11.063007 6.4734716 -1.8529643
9.4651461 6.5003271 -1.6599011
7.0255761 6.4992895 -1.3835636
6.6940622 6.4991455 -1.3487637
5.9925098 6.4076414 -1.2682605
5.7178612 6.4174633 -1.2425393
5.5085936 6.4912095 -1.2307305
5.2445312 6.4910922 -1.2063684
4.9905763 6.4909801 -1.1836288
4.7458887 6.49087 -1.1623935
4.5096774 6.4907641 -1.1425587
4.0600095 6.4905601 -1.1067311
3.8453417 6.4904599 -1.0905789
3.6367383 6.4903636 -1.0755079
3.4336815 6.4902706 -1.0614556
3.0425584 6.4900875 -1.0361969
2.3095508 6.4897385 -0.99580371
2.1346385 6.4896545 -0.98760086
1.792832 6.4894872 -0.97327131
1.4600292 6.4893236 -0.96155614
1.1343848 6.489161 -0.95230788
0.49150389 6.4050546 -0.92864531
0.3405371 6.4847484 -0.93873572
-0.12899414 6.4845042 -0.93759388
-0.28556639 6.4844213 -0.93830425
-0.4424707 6.4843383 -0.93956435
-1.401289 6.4838195 -0.95894897
-1.5658495 6.4837289 -0.96424276
-1.9009765 6.4835424 -0.97672623
-2.4222851 6.4832492 -1.0005075
-2.7854297 6.4830432 -1.0200402
-4.3656931 6.3983383 -1.1197506
-4.5956149 6.3982019 -1.1387967
-5.1513572 6.4872665 -1.1975164
-5.9644823 6.4867735 -1.273893
-6.2596579 6.4865942 -1.3031337
-6.5688767 6.4864063 -1.3345449
-6.8935642 6.486207 -1.3683224
-7.235322 6.4859958 -1.4046905
-7.9775438 6.4855371 -1.4862715
-8.3824368 6.4852843 -1.53211
-9.5140524 7.0005941 -1.7075814
-9.9734516 6.2807469 -1.7038593
-10.115718 6.0346179 -1.702794
-10.382686 5.5332689 -1.7007855
-10.738477 4.7605858 -1.6980847
-10.844936 4.4980578 -1.6972692
-12.083847 4.0152893 -1.8407819
-12.254457 3.4254222 -1.8394358
-12.329457 3.1278539 -1.8388351
-12.397583 2.8287702 -1.8382827
-12.458784 2.528255 -1.8377792
-12.560331 1.9236382 -1.836919
-12.633916 1.315257 -1.8362558
-12.679433 0.704328 -1.8357911
-12.691635 0.39829895 -1.8356335
-12.68602 -0.52025694 -1.8354596
-12.670063 -0.82607484 -1.8355013
-12.617109 -1.4362298 -1.8357345
-12.580107 -1.7402911 -1.8359258
-12.536133 -2.0434484 -1.836167
-12.485175 -2.3455703 -1.8364577
-12.427275 -2.646488 -1.8367981
-12.290737 -3.2441244 -1.8376263
-12.126772 -3.8351505 -1.8386505
-12.03458 -4.1278124 -1.8392357
-11.93563 -4.418375 -1.8398691
-11.59874 -5.2759752 -1.8420569
-10.490005 -6.0533252 -1.7508322
-10.04355 -6.1232285 -1.7004755
-9.8985939 -6.3673015 -1.7014457
-9.7479391 -6.608098 -1.7024572
-9.089736 -7.5360184 -1.7069051
-8.9116602 -7.7585435 -1.7081152
-8.7283449 -7.9770451 -1.7093632
-8.3462648 -8.4014339 -1.7119718
-7.3052878 -9.3835382 -1.7191194
-7.4080124 -10.525866 -1.8607124
-6.8923826 -10.871718 -1.8608627
-6.6289062 -11.035974 -1.8610656
-6.0912008 -11.346824 -1.861726
-4.9371676 -11.802658 -1.8494804
-4.648623 -11.912002 -1.8485045
-4.0653806 -12.112039 -1.8469385
-3.7708592 -12.202663 -1.8463486
-3.4745996 -12.286989 -1.8458877
-1.0932226 -13.199308 -1.9146525
-0.45655271 -13.267751 -1.9191478
0.18419921 -13.305675 -1.9236794
1.4720215 -13.288825 -1.9328085
1.794209 -13.265154 -1.9350969
2.4375196 -13.194328 -1.9396719
3.3969433 -13.029336 -1.9465084
4.0306349 -12.880246 -1.9510335
4.3451076 -12.794016 -1.9532818
5.2766504 -12.488923 -1.9599535
5.5825486 -12.371872 -1.9621484
5.8858399 -12.247229 -1.9643263
6.1862888 -12.115009 -1.966486
6.7779393 -11.828182 -1.9707451
7.0687399 -11.673676 -1.9728416
7.3559179 -11.511891 -1.9749142
7.9187694 -11.166758 -1.9789827
8.9928808 -10.392766 -1.986774
8.5176268 -9.3764772 -1.831239
9.1979589 -8.7598572 -1.8362032
9.6260738 -8.3203058 -1.8393389
9.8320112 -8.0923786 -1.8408512
10.032324 -7.85922 -1.8423251
10.415586 -7.3776212 -1.8451529
10.774746 -6.8766971 -1.8478143
10.944942 -6.6193643 -1.8490802
11.10874 -6.3576708 -1.8503017
12.49541 -5.9967661 -2.0036089
12.702861 -5.7236133 -2.0141487
12.844043 -5.4184704 -2.0152204
12.977519 -5.1097136 -2.016238
13.221084 -4.482173 -2.0181098
13.330967 -4.1637702 -2.0189626
13.432802 -3.842567 -2.0197589
13.526504 -3.518775 -2.020498
13.689306 -2.8642735 -2.0218041
13.758232 -2.5339942 -2.0223694
13.818828 -2.2020018 -2.022876
13.976523 -0.86121029 -2.0243056
13.994678 -0.52393556 -2.0245125
14.005283 0.15149719 -2.0247452
13.981591 0.82666016 -2.0247345
13.956914 1.1635638 -2.0246379
13.92372 1.4997113 -2.0244808
13.773193 2.5013897 -2.0236473
13.630791 3.161298 -2.0227921
13.547109 3.488225 -2.0222752
13.455235 3.8128479 -2.0216997
13.229765 4.4485044 -2.0177429
11.727265 5.2490244 -1.8573861
11.59168 5.5276585 -1.8564903
11.299785 6.0738282 -1.8545492
11.14376 6.3410153 -1.8535056
10.980996 6.603971 -1.8523935
9.7150784 6.500432 -1.689818
9.2253418 6.500227 -1.6314359
8.7680664 6.5000329 -1.5778381
7.1984372 6.4993625 -1.4020187
6.5349412 6.4990768 -1.3323494
6.1395702 6.4077048 -1.2828815
5.8564157 6.4149976 -1.2556924
5.3756542 6.4911509 -1.2183779
5.1167383 6.4910374 -1.1948386
4.6271191 6.4908166 -1.152337
4.3948927 6.4907117 -1.1331667
4.1701169 6.4906092 -1.1152599
3.9522362 6.4905114 -1.0985429
3.3344336 6.4902244 -1.0548183
2.9479101 6.4900427 -1.0304581
2.7610545 6.4899545 -1.0195727
2.5779979 6.4898682 -1.0094937
2.2220018 6.489696 -0.99162644
2.0485058 6.4896131 -0.98377663
1.5427442 6.4893637 -0.96425617
1.2154882 6.4892025 -0.95440185
1.0398926 6.4013257 -0.93751442
0.88200194 6.4012475 -0.93411559
0.72515625 6.4011655 -0.93127865
0.26242188 6.4847083 -0.93820524
-0.20700195 6.4844642 -0.93787944
-0.52084959 6.4842968 -0.94039744
-0.6785742 6.4842114 -0.94248515
-0.83709961 6.484127 -0.94513184
-0.9966113 6.4840403 -0.94834828
-1.3194042 6.4838648 -0.95652539
-1.4830761 6.4837742 -0.9615109
-1.8160839 6.4835901 -0.97335148
-2.1582227 6.4833984 -0.98781353
-2.5115039 6.4831982 -1.0050863
-2.6930273 6.4830942 -1.0148468
-3.2609668 6.4827685 -1.0490441
-4.0870409 6.482285 -1.1077973
-4.2569337 6.4040184 -1.1116496
-4.7131639 6.3981309 -1.1487851
-5.0246778 6.4873424 -1.1862236
-5.279707 6.4871874 -1.2091335
-5.8213377 6.4868612 -1.2599884
-7.0616503 6.4861035 -1.386107
-7.4125829 6.4858861 -1.4238638
-8.1762543 6.4854136 -1.5086572
-8.5937405 6.4851537 -1.556371
-9.5936956 6.8829942 -1.7069021
-9.8999605 6.4030042 -1.7044085
-10.184463 5.9107728 -1.7022781
-10.317959 5.66009 -1.7012738
-10.682758 4.8913865 -1.6985099
-11.048857 4.4277368 -1.7207272
-11.813145 4.4064503 -1.8226745
-12.036772 4.1620288 -1.8411497
-12.128911 3.8690088 -1.8404286
-12.214213 3.5740552 -1.8397555
-12.292705 3.277329 -1.8391304
-12.486709 2.3779907 -1.8375463
-12.618095 1.4681103 -1.8364035
-12.67065 0.85773373 -1.8358891
-12.695097 0.24570495 -1.8355734
-12.696753 -0.060534667 -1.8354903
-12.691372 -0.36672729 -1.8354572
-12.678955 -0.67271119 -1.835474
-12.659502 -0.97833496 -1.8355408
-12.633022 -1.2834479 -1.8356574
-12.559057 -1.8915234 -1.8360399
-12.457119 -2.4957438 -1.8366216
-12.395835 -2.7959857 -1.8369859
-12.327582 -3.0948024 -1.8374
-12.252441 -3.3920619 -1.8378631
-11.883823 -4.5623569 -1.8402027
-11.774838 -4.8494897 -1.8409082
-10.779092 -6.0475302 -1.7867432
-9.9720116 -6.245286 -1.700954
-9.6707668 -6.72685 -1.7029763
-9.0016651 -7.6474223 -1.7075033
-8.6350241 -8.0843849 -1.7099996
-8.4439745 -8.2966194 -1.7113038
-8.2479 -8.5045099 -1.7126448
-7.8409472 -8.9068213 -1.7154348
-7.4149804 -9.2904043 -1.7183638
-7.1951022 -9.4748526 -1.7198788
-7.5348825 -10.435553 -1.8607281
-7.0231543 -10.787136 -1.860793
-6.2273731 -11.271096 -1.8615286
-5.9550486 -11.420545 -1.8619436
-5.0810351 -11.745485 -1.8500184
-4.7935934 -11.857938 -1.8489779
-4.5040431 -11.964187 -1.8480661
-4.2123828 -12.064224 -1.8472826
-3.9188182 -12.157986 -1.8466284
-2.4904101 -12.865008 -1.8943167
-1.5676855 -13.1281 -1.9113072
-0.93500972 -13.219216 -1.9157689
-0.29717773 -13.280075 -1.9202743
0.023203125 -13.299055 -1.9225399
1.3103613 -13.297766 -1.9316609
2.2763281 -13.215032 -1.9385247
2.9177928 -13.120725 -1.943092
3.2371972 -13.061829 -1.9453691
4.1875682 -12.838248 -1.9521551
4.5011716 -12.748142 -1.9543982
5.1222363 -12.544773 -1.9588464
5.4294238 -12.431547 -1.9610494
6.9232712 -11.752099 -1.9717926
7.2123337 -11.593947 -1.9738775
7.4976559 -11.428569 -1.975938
8.0564356 -11.076339 -1.9799792
8.3295698 -10.889663 -1.9819582
8.8622169 -10.495815 -1.985824
8.3995209 -9.4743938 -1.8303792
8.6335354 -9.2777195 -1.8320832
7.9166112 -7.7243958 -1.5989561
9.5206833 -8.4326458 -1.8385661
10.507402 -7.254539 -1.845832
-4.1481638 6.4039307 -1.2790357
-4.3670216 6.3981833 -1.2985488
-4.5969825 6.3980441 -1.3206465
-4.9025388 6.4872532 -1.3630753
-5.1528611 6.4870996 -1.3887593
-5.6837301 6.4867725 -1.4457479
-6.5707226 6.4862204 -1.5477172
-7.8013182 6.6590257 -1.7193805
-7.9542379 6.4645433 -1.7182097
-8.1026516 6.2668247 -1.7171121
-8.3851509 5.8616552 -1.7150161
-8.648159 5.4442735 -1.7130554
-8.8911572 5.0155773 -1.7112337
-9.0050097 4.7972813 -1.7103763
-9.1137886 4.5765052 -1.7095541
-9.3786278 4.4296227 -1.7386955
-9.9556198 4.4117432 -1.8254176
-10.217041 4.2357969 -1.8540611
-10.40143 3.7353332 -1.852638
-10.484809 3.4821668 -1.8519883
-10.633774 2.9706511 -1.8508139
-10.699297 2.7125597 -1.8502895
-10.859663 1.9305731 -1.848971
-10.965288 1.1398388 -1.8480386
-11.005078 0.60962462 -1.8476334
-11.015761 0.34400818 -1.8474957
-11.020283 0.078229979 -1.8474017
-11.010899 -0.45324707 -1.8473446
-10.996987 -0.71868348 -1.8473814
-10.976938 -0.98373532 -1.8474618
-10.950747 -1.2482623 -1.8475857
-10.835567 -2.0373893 -1.8482182
-10.665811 -2.8169787 -1.8492397
-10.597197 -3.0740979 -1.849666
-10.442167 -3.5834177 -1.850646
-10.35581 -3.8353524 -1.8511992
-10.165586 -4.3331389 -1.8524313
-9.4582033 -5.7683868 -1.8571097
-8.9118061 -6.0433135 -1.8050073
-7.7231588 -6.7259049 -1.716777
-7.5634813 -6.9145823 -1.7178645
-7.3993554 -7.0996137 -1.7189844
-7.2308154 -7.2808795 -1.7201365
-6.6996775 -7.8010645 -1.723779
-6.5144043 -7.9662571 -1.7250533
-6.3251562 -8.1271896 -1.7263567
-5.7345605 -8.5834312 -1.7304355
-5.5304003 -8.7263536 -1.7318488
-5.1117477 -8.9979486 -1.7347522
-4.8974414 -9.1264381 -1.7362409
-4.4594531 -9.368392 -1.7392879
-4.3355861 -10.369062 -1.8840139
-3.8192382 -10.534864 -1.8784499
-3.3047361 -10.70013 -1.8772851
-2.8220508 -10.99153 -1.902292
-2.559453 -11.070727 -1.9047586
-0.94172847 -11.391815 -1.9161466
-0.39212888 -11.447115 -1.9200281
0.99293941 -11.469443 -1.9298373
1.2705566 -11.453855 -1.9318081
1.8250879 -11.402471 -1.9357493
2.1016796 -11.366688 -1.9377176
2.6527245 -11.274922 -1.9416435
3.1997266 -11.156279 -1.945547
4.0098047 -10.928209 -1.9513403
4.5409374 -10.743046 -1.9551468
5.1345701 -9.4798431 -1.8072433
5.8223634 -9.1087646 -1.8122033
6.0457129 -8.9736881 -1.8138174
6.4826756 -8.6868467 -1.8169802
6.6959958 -8.5352373 -1.8185272
6.905664 -8.3782701 -1.8200493
7.1115623 -8.2160358 -1.821546
7.3135448 -8.048624 -1.8230162
7.8945994 -7.5162802 -1.8272574
8.0795698 -7.3291197 -1.8286116
8.2599316 -7.1372952 -1.8299342
8.4356146 -6.9408984 -1.8312249
8.9332027 -6.3255396 -1.8348937
9.0888577 -6.1120887 -1.8360465
10.487676 -5.6688557 -1.9984652
10.626924 -5.4171124 -1.9995104
10.759883 -5.1618242 -2.0005121
10.886445 -4.9031658 -2.0014691
11.006533 -4.641305 -2.0023808
11.227002 -4.1086249 -2.0040669
11.507109 -3.2897854 -2.0062425
11.783525 -2.168422 -2.0084622
11.834931 -1.8840039 -2.0088925
11.879189 -1.5983361 -2.0092728
11.916221 -1.3115937 -2.0096016
11.946054 -1.0239642 -2.0098801
11.968642 -0.73564208 -2.0101073
11.991962 -0.15768249 -2.010407
11.972353 0.70971859 -2.0104702
11.951269 0.99821472 -2.0103879
11.887353 1.5730975 -2.0100687
11.737461 2.4273407 -2.0092056
11.673262 2.7091839 -2.0088162
11.523701 3.2674103 -2.0078864
11.346367 3.817136 -2.0067577
11.247412 4.0883656 -2.0061197
9.8098927 4.9737449 -1.8437359
9.2668457 5.883956 -1.8400997
8.8021584 6.5273461 -1.8369571
8.637187 6.73384 -1.8358974
8.4675093 6.9362864 -1.8348653
7.5547361 6.4993162 -1.6705663
7.1959958 6.4991674 -1.6254346
6.5327439 6.4988928 -1.5446894
5.8544531 6.4148231 -1.4558346
5.6432323 6.4910984 -1.4418287
4.8658204 6.4907627 -1.3598425
4.6255078 6.4906564 -1.3360552
3.7392285 6.4902625 -1.2556173
3.5334959 6.4901695 -1.2387464
2.3972266 6.4896421 -1.159714
2.2208593 6.4895592 -1.1497914
1.7080274 6.4893126 -1.1248602
1.5416698 6.4892306 -1.1180743
1.3771973 6.48915 -1.1120117
1.2144238 6.4890695 -1.1066568
0.56852537 6.4049668 -1.0778936
0.41826171 6.4846592 -1.0892903
0.26141602 6.4845777 -1.0879008
0.10488281 6.4844971 -1.0871465
-0.051533204 6.4844165 -1.0870249
-0.36470702 6.4842505 -1.0886804
-0.67957032 6.4840817 -1.0928881
-1.1583301 6.4838204 -1.1040983
-1.4841015 6.4836426 -1.1149712
-2.3344042 6.4831629 -1.1550862
-2.8793554 6.4828467 -1.189095
-3.0685644 6.4827366 -1.2023027
-3.2621582 6.4826231 -1.216524
-3.4604979 6.4825058 -1.2318106
-3.6639843 6.4823837 -1.2482197
-4.4806738 6.3981137 -1.3093779
-4.7145605 6.3979712 -1.3322332
-5.0261426 6.4871774 -1.3756561
-5.2812304 6.4870214 -1.4022329
-5.5465231 6.4868579 -1.4307047
-5.8229785 6.4866858 -1.4612249
-6.7305565 6.4861193 -1.5668869
-7.7231054 6.7554736 -1.720029
-8.1748438 6.1670432 -1.7165774
-8.5840521 5.5500488 -1.7135342
-8.7105951 5.3384628 -1.7125883
-9.6592722 4.4209509 -1.7807406
-10.167158 4.3599916 -1.8544434
-10.265181 4.1118531 -1.8536912
-10.44373 3.609381 -1.8523091
-10.667177 2.8422039 -1.8505472
-10.786206 2.323302 -1.849583
-10.83665 2.0620232 -1.8491647
-10.881005 1.7997051 -1.8487893
-10.919287 1.5364844 -1.8484569
-10.95145 1.2725085 -1.8481675
-10.977505 1.0078784 -1.8479213
-11.011176 0.47726685 -1.8475592
-11.020254 -0.054243773 -1.8473712
-10.987763 -0.8508386 -1.847416
-10.935415 -1.3798687 -1.8476639
-10.900073 -1.643374 -1.8478529
-10.858638 -1.9060192 -1.8480854
-10.811113 -2.1676669 -1.8483611
-10.757553 -2.4281814 -1.84868
-10.697954 -2.6874466 -1.8490421
-10.632359 -2.9453139 -1.8494468
-10.560781 -3.2016528 -1.8498942
-10.483291 -3.4563406 -1.8503841
-10.215468 -4.2090921 -1.8521066
-10.00793 -4.7002335 -1.8534629
-9.7776661 -5.181602 -1.8549824
-9.5250292 -5.6521811 -1.856663
-9.1404543 -6.0382347 -1.8363885
-8.2723627 -6.0572715 -1.7187186
-8.1025095 -6.2385759 -1.7142025
-7.8015332 -6.6299186 -1.716244
-7.3158932 -7.1904321 -1.7195547
-7.145205 -7.3697791 -1.7207224
-6.7910838 -7.7166247 -1.7231508
-6.607832 -7.8839273 -1.7244104
-6.4205956 -8.0470009 -1.7256993
-6.2293844 -8.2057676 -1.7270172
-6.0343652 -8.3601255 -1.728363
-5.217988 -8.9316511 -1.7340147
-5.0053415 -9.0625982 -1.735491
-4.7894626 -9.1886196 -1.7369914
-4.3484569 -9.4255085 -1.740061
-4.20083 -10.396164 -1.8796262
-3.9471581 -10.489912 -1.8788143
-3.6916797 -10.578127 -1.8781168
-3.1755273 -10.737836 -1.8770678
-2.9448242 -10.919597 -1.8958706
-2.691875 -11.033561 -1.9038289
-2.4273534 -11.106103 -1.9056863
-2.1609278 -11.17238 -1.9075587
-1.1088672 -7.7111707 -1.3059354
-1.0789551 -11.37383 -1.9151785
-0.80514646 -11.408051 -1.9171107
-0.25461912 -11.456805 -1.9210001
0.85366207 -11.474736 -1.9288491
1.4088573 -11.443564 -1.9327905
1.9630468 -11.385478 -1.9367307
3.0629981 -11.188548 -1.9445705
4.14291 -10.884517 -1.9522935
5.1920996 -10.475077 -1.9598231
5.4483204 -10.356542 -1.9616662
5.4812498 -9.3009663 -1.8097415
5.934072 -9.0421505 -1.8130102
6.1558495 -8.9042721 -1.8146137
6.8009667 -8.4576616 -1.8192888
7.0087695 -8.2980566 -1.8207986
7.2127147 -8.1332397 -1.8222821
7.4126949 -7.9632854 -1.8237387
7.8001366 -7.6083627 -1.8265667
8.1700392 -7.2340837 -1.8292749
8.3480959 -7.0399685 -1.8305817
9.0114546 -6.2196565 -1.8354729
9.681015 -6.0140381 -1.9104936
10.693994 -5.2903061 -2.0000153
10.947128 -4.7730417 -2.0019293
11.063965 -4.5096469 -2.0028186
11.277773 -3.9741542 -2.0044582
11.692968 -2.5927169 -2.0077217
11.810048 -2.02684 -2.008683
11.932002 -1.1683367 -2.009747
11.993261 -0.013519287 -2.0104499
11.990361 0.27573973 -2.0104966
11.980195 0.56483334 -2.0104918
11.962753 0.85357541 -2.0104353
11.938046 1.1417773 -2.0103273
11.906094 1.4292462 -2.0101678
11.866923 1.7157941 -2.0099571
11.638584 2.8490131 -2.0086031
11.48207 3.4052598 -2.0076234
11.393417 3.6801512 -2.0070593
11.297871 3.9526329 -2.0064456
11.195576 4.2225633 -2.0057836
10.981846 4.4473424 -1.9861338
10.302744 4.4644837 -1.8822428
9.8715334 4.8557787 -1.8441452
9.6170607 5.3212423 -1.8424505
9.4812498 5.5488939 -1.8415411
9.3398342 5.7729602 -1.8405912
7.742363 6.4993944 -1.6945422
6.6928515 6.4989586 -1.5638391
5.5075779 6.4910398 -1.427006
5.2435546 6.4909263 -1.3987646
4.9896483 6.4908166 -1.372402
4.5088181 6.4906063 -1.324791
4.0592189 6.4904051 -1.2832578
3.6359961 6.4902158 -1.2470614
3.4329686 6.4901242 -1.2307725
3.2350781 6.4900327 -1.2156007
2.6681347 6.4897704 -1.1762412
1.9618945 6.4894347 -1.1364585
1.6248535 6.4892721 -1.1213858
1.4594824 6.4891906 -1.1149629
1.2958789 6.48911 -1.1092559
1.1338574 6.4890308 -1.1042448
0.6463086 6.4009986 -1.0784626
0.18337891 6.4845386 -1.0874455
-0.12950195 6.484375 -1.0872005
-0.44296873 6.4842091 -1.0894892
-0.60037106 6.4841247 -1.0915914
-0.75847656 6.4840393 -1.0943387
-0.91747069 6.4839535 -1.0977393
-1.0775585 6.4838657 -1.1018058
-1.2389355 6.483778 -1.106548
-1.4017773 6.4836874 -1.1119813
-1.9014648 6.483408 -1.1325985
-2.0725 6.4833117 -1.1409844
-2.4228125 6.4831104 -1.1601826
-2.7859666 6.4829016 -1.1828367
-2.9731348 6.4827914 -1.1955556
-3.56125 6.4824471 -1.2398442
-3.7674901 6.4823227 -1.2568389
-4.5962305 6.3980441 -1.3205748
-4.9017577 6.4872546 -1.3629968
-5.1520505 6.4870996 -1.3886746
-5.6828513 6.4867735 -1.4456512
-5.9652538 6.4865975 -1.4772537
-6.2604589 6.4864144 -1.5111678
-6.5697069 6.4862204 -1.5475949
-6.8944235 6.4860168 -1.5867686
-7.6437254 6.8510337 -1.7206851
-7.8008347 6.659647 -1.7193844
-7.9537549 6.4651647 -1.7182134
-8.1021967 6.2674522 -1.7171154
-8.2458544 6.0664659 -1.7160509
-8.3847218 5.862318 -1.7150193
-8.5187111 5.6551037 -1.7140216
-8.7717962 5.2319603 -1.71213
-8.8907909 5.0162668 -1.7112365
-9.004673 4.7979822 -1.7103789
-9.3768702 4.4296775 -1.7384317
-9.9537201 4.4118042 -1.8251239
-10.216733 4.2365818 -1.8540635
-10.311865 3.9873791 -1.8533314
-10.401157 3.7361279 -1.8526402
-10.484555 3.4829712 -1.8519903
-10.56204 3.22804 -1.8513819
-10.633564 2.9714763 -1.8508154
-10.812099 2.1932178 -1.8493692
-10.859521 1.9314055 -1.8489723
-10.936084 1.4049963 -1.8483071
-11.010932 -0.45240721 -1.8473446
-10.78518 -2.2976661 -1.8485147
-10.728599 -2.5575669 -1.8488553
-10.597436 -3.0732806 -1.8496646
-10.522885 -3.3288057 -1.8501332
-10.356098 -3.8345623 -1.8511974
-10.263891 -4.0845151 -1.8517926
-10.165908 -4.3323483 -1.8524292
-10.062158 -4.5779328 -1.8531071
-9.9526758 -4.8211508 -1.8538263
-9.7167721 -5.2999244 -1.8553865
-9.5904732 -5.5352392 -1.8562266
-9.4586916 -5.7676568 -1.8571063
-8.9132423 -6.0432825 -1.8052016
-8.1750679 -6.1383395 -1.7137115
-7.8787694 -6.5330572 -1.7157192
-7.5640039 -6.9139886 -1.7178609
-7.3998923 -7.0990162 -1.7189808
-7.2313523 -7.2803044 -1.7201328
-6.5149999 -7.9657402 -1.7250493
-6.3257713 -8.1266794 -1.7263527
-6.1326756 -8.2832546 -1.7276845
-5.935791 -8.4353848 -1.729044
-5.7351856 -8.5829659 -1.7304311
-5.5310645 -8.7259111 -1.7318443
-5.3234177 -8.8641262 -1.7332834
-5.1124315 -8.9975309 -1.7347474
-4.8981442 -9.1260347 -1.736236
-4.4603028 -9.3680239 -1.7392819
-4.3363767 -10.368714 -1.884012
-3.820039 -10.534577 -1.8784523
-3.5636523 -10.620013 -1.8778123
-3.3055663 -10.699881 -1.8772868
-2.560293 -11.070491 -1.9047527
-2.2948046 -11.139918 -1.9066176
-1.7584277 -11.259851 -1.9103904
-0.94261718 -11.391702 -1.9161404
-0.66828126 -11.422656 -1.918077
-0.39299804 -11.447044 -1.9200219
-0.11693359 -11.464845 -1.9219739
0.43692383 -11.480513 -1.9258949
0.99205077 -11.469478 -1.9298309
1.2696582 -11.453911 -1.9318017
1.5470996 -11.431606 -1.9337728
1.8242188 -11.402575 -1.9357431
2.6518457 -11.275092 -1.9416373
2.9259472 -11.219142 -1.9435924
3.1988573 -11.156479 -1.9455408
4.2755175 -10.839211 -1.9532436
4.8025098 -10.640986 -1.9570239
5.0625587 -10.532106 -1.958892
5.3201466 -10.416789 -1.960744
5.3658981 -9.3622894 -1.8089099
5.5951953 -9.2386017 -1.8105633
6.2651658 -8.8334808 -1.8154049
6.4819822 -8.6873226 -1.8169752
7.5108299 -7.8766923 -1.8244542
8.0789747 -7.3297286 -1.8286071
8.2593746 -7.1379266 -1.8299302
8.4350491 -6.9415441 -1.8312206
8.6059084 -6.7407203 -1.8324782
8.7718258 -6.535573 -1.8337015
8.9326954 -6.3262177 -1.8348901
9.4339447 -6.0199399 -1.8759692
10.341865 -5.9177146 -1.9973741
10.487266 -5.6696582 -1.9984621
10.626504 -5.4179168 -1.9995074
10.759473 -5.1626434 -2.000509
10.886065 -4.9039984 -2.001466
11.119746 -4.3772712 -2.0032446
11.326865 -3.8390341 -2.0048375
11.586523 -3.0131552 -2.0068696
11.65918 -2.7336311 -2.0074494
11.724814 -2.4522943 -2.0079801
11.783369 -2.1693306 -2.0084608
11.834785 -1.8849182 -2.0088913
11.879052 -1.5992461 -2.0092714
11.916113 -1.312503 -2.0096009
11.945967 -1.0248816 -2.0098791
11.968554 -0.73655945 -2.0101066
11.983887 -0.44776243 -2.0102823
11.991953 -0.15861998 -2.0104067
11.992695 0.13064636 -2.0104795
11.986211 0.41984558 -2.0105007
11.951338 0.99728394 -2.0103879
11.923027 1.2851446 -2.0102544
11.794745 2.1430144 -2.0095453
11.737656 2.4264398 -2.0092065
11.673476 2.7082911 -2.0088174
11.43876 3.5425267 -2.0073483
11.346669 3.816251 -2.0067596
9.9317083 4.7370138 -1.8445438
9.6830568 5.2057505 -1.8428912
9.5500679 5.4351416 -1.8420023
9.2673044 5.8832579 -1.8401029
8.8026857 6.52667 -1.8369606
8.4680662 6.9356394 -1.8348689
7.5559373 6.4993176 -1.6707187
6.5337596 6.4988928 -1.5448103
6.1384568 6.4075294 -1.4874616
5.3746777 6.4909825 -1.4126865
4.6262598 6.4906578 -1.336128
4.1693358 6.4904566 -1.2931482
3.9514647 6.4903574 -1.2737653
3.7399023 6.4902625 -1.255674
3.5341504 6.4901695 -1.2388
2.7604101 6.4898143 -1.1822166
2.5773633 6.4897275 -1.1705338
2.221416 6.4895592 -1.149822
1.8770508 6.4893932 -1.1324173
1.5421972 6.4892306 -1.1180948
1.2149316 6.4890695 -1.1066723
0.8814941 6.4011168 -1.083153
0.56902343 6.4049668 -1.0779017
0.41876951 6.4846606 -1.0892953
0.26191404 6.4845786 -1.0879049
0.10538086 6.4844971 -1.0871475
-0.051035155 6.4844151 -1.0870247
-0.2075 6.4843335 -1.0875336
-0.36420897 6.4842491 -1.0886763
-0.67907226 6.4840817 -1.0928799
-1.3198828 6.4837327 -1.1091676
-1.4835644 6.4836426 -1.1149498
-1.8165917 6.4834571 -1.1286848
-2.1587305 6.4832616 -1.1454606
-2.3338475 6.4831629 -1.1550537
-2.5120118 6.4830604 -1.1654927
-2.8787596 6.4828467 -1.1890562
-3.0679686 6.4827366 -1.2022601
-3.8724413 6.4822607 -1.2657609
-4.0876465 6.482131 -1.2846175
-4.4799414 6.3981152 -1.309305
-5.0253415 6.4871774 -1.3755748
-5.2804003 6.4870224 -1.4021456
-5.5456638 6.4868579 -1.4306132
-5.8220801 6.4866867 -1.4611249
-6.4127536 6.4863181 -1.5289968
-7.5632029 6.9456639 -1.7213483
-7.7225976 6.7560949 -1.7200332
-8.0283155 6.3670521 -1.7176623
-8.583642 5.550725 -1.7135375
-9.0594969 4.6882434 -1.7099648
-9.1656199 4.46629 -1.709161
-9.6574507 4.4210072 -1.7804699
-10.264873 4.1126537 -1.8536935
-10.443457 3.610194 -1.8523113
-10.598417 3.1003656 -1.8510945
-10.78603 2.3241339 -1.8495845
-10.836499 2.0628583 -1.8491659
-10.880874 1.8005432 -1.8487905
-10.91918 1.537326 -1.8484579
-10.951357 1.273335 -1.8481685
-10.997349 0.74358886 -1.8477192
-11.011137 0.47812682 -1.8475598
-11.020264 -0.053391114 -1.8473713
-11.015595 -0.31915161 -1.8473425
-11.00478 -0.5847345 -1.8473573
-10.987822 -0.84999329 -1.8474157
-10.935527 -1.3790313 -1.8476633
-10.900195 -1.6425384 -1.8478521
-10.811275 -2.1668355 -1.8483603
-10.698159 -2.6866336 -1.8490407
-10.56103 -3.2008307 -1.8498927
-10.400142 -3.7084179 -1.8509146
-10.215791 -4.2083054 -1.8521045
-10.114912 -4.4550395 -1.852762
-10.008291 -4.6994596 -1.8534606
-9.6545162 -5.4175525 -1.8558002
-9.5254784 -5.651444 -1.8566601
-9.3909473 -5.88238 -1.8575594
-9.1419134 -6.0382023 -1.836589
-8.6935444 -6.0481205 -1.7752972
-8.2736664 -6.0572433 -1.7188939
-8.1029835 -6.2379375 -1.7141992
-7.954834 -6.4353147 -1.715203
-7.6446533 -6.8197966 -1.7173114
-6.9708104 -7.5446563 -1.7219174
-6.7916503 -7.7160897 -1.7231469
-6.421113 -8.0464907 -1.7256957
-5.6339059 -8.6547947 -1.7311321
-5.4280076 -8.795393 -1.7325583
-5.2186813 -8.9312086 -1.7340099
-5.0060449 -9.0621958 -1.7354861
-4.3491697 -9.425149 -1.7400562
-3.9479785 -10.489624 -1.8788168
-3.4352343 -10.660529 -1.8775357
-3.1763279 -10.737603 -1.877069
-2.9455957 -10.919017 -1.8958099
-2.6927147 -11.03333 -1.9038229
-1.8935839 -11.232161 -1.9094391
-1.0798242 -11.373715 -1.9151723
-0.53118163 -11.435637 -1.9190456
0.020917969 -11.471234 -1.9229493
0.5752148 -11.480278 -1.9268748
1.4079688 -11.443645 -1.9327841
1.6852636 -11.417974 -1.9347548
1.9621387 -11.385596 -1.9367242
2.7885938 -11.248038 -1.9426125
3.334414 -11.122754 -1.946509
3.6052637 -11.050081 -1.9484454
4.1420603 -10.884806 -1.9522874
4.6711621 -10.693161 -1.9560812
4.9324217 -10.587542 -1.9579568
5.1912694 -10.475442 -1.9598172
5.4475098 -10.356932 -1.9616604
5.4805079 -9.3013582 -1.8097361
5.9333496 -9.0425777 -1.813005
6.3736815 -8.7613068 -1.8161905
6.5887594 -8.6124363 -1.8177493
7.4120603 -7.9638438 -1.823734
7.6079297 -7.7888646 -1.8251626
7.799541 -7.6089482 -1.8265623
7.9867477 -7.4241934 -1.8279318
8.1694632 -7.2347064 -1.8292706
8.5208302 -6.8419929 -1.8318516
9.6794338 -6.0140758 -1.9102715
10.200019 -6.0015001 -1.9838586
10.415097 -5.7945428 -1.9979217
10.557461 -5.5446563 -1.9989886
10.693564 -5.2911286 -2.0000119
10.946738 -4.7738948 -2.0019262
11.063583 -4.5104995 -2.0028157
11.173857 -4.2441506 -2.003659
11.623603 -2.8740628 -2.0071645
11.931885 -1.1692626 -2.0097458
11.988818 -0.30366698 -2.0103507
11.980225 0.56391478 -2.0104918
11.938134 1.1408623 -2.0103278
11.638818 2.848109 -2.0086043
11.564082 3.1272552 -2.0081398
11.195918 4.2217088 -2.0057857
10.304785 4.4644337 -1.8825552
9.6174803 5.3205185 -1.8424532
9.1934271 5.9926023 -1.8396049
9.0411816 6.2091126 -1.8385764
8.7209377 6.6300106 -1.8364035
8.5537891 6.8346424 -1.8353912
7.7435641 6.4993954 -1.6946968
7.374619 6.4992428 -1.647787
6.6938767 6.49896 -1.5639616
6.2889256 6.4075913 -1.5050279
5.5084372 6.4910412 -1.427099
5.2443943 6.4909263 -1.3988518
4.7457614 6.4907103 -1.3478606
3.2356932 6.4900327 -1.215647
2.8536131 6.4898572 -1.1884255
1.9624511 6.4894357 -1.136485
1.6253905 6.4892721 -1.1214075
1.4600097 6.4891906 -1.1149833
1.2963965 6.48911 -1.1092722
1.1343652 6.4890308 -1.10426
0.9605273 6.4011559 -1.085047
0.80319333 6.4010777 -1.0814345
0.49149412 6.4049268 -1.0768219
0.3405371 6.4846201 -1.0885222
0.18387695 6.4845386 -1.0874478
0.027421875 6.4844565 -1.0870068
-0.28556639 6.484292 -1.0880239
-0.59986329 6.4841247 -1.0915835
-0.75795895 6.4840393 -1.0943284
-0.91696286 6.4839525 -1.0977291
-1.0770508 6.4838657 -1.1017923
-1.4012598 6.4836864 -1.1119621
-2.0719628 6.4833117 -1.1409568
-2.4222362 6.4831104 -1.160149
-2.9725292 6.4827929 -1.1955124
-3.1638672 6.4826803 -1.2092156
-3.7668359 6.4823241 -1.2567831
-3.9789159 6.4821973 -1.2749984
-4.1467676 6.4039316 -1.2789068
-4.9009862 6.4872546 -1.3629193
-5.1512303 6.4871006 -1.3885882
-5.681963 6.4867735 -1.4455534
-6.2594824 6.4864144 -1.5110534
-6.5686817 6.4862218 -1.5474747
-7.8003268 6.6602635 -1.7193887
-8.1017237 6.2680893 -1.7171191
-8.5182905 5.6557603 -1.7140248
-8.7714062 5.232655 -1.7121328
-8.8904152 5.0169687 -1.7112393
-9.1131392 4.5779295 -1.709559
-9.3751173 4.4297314 -1.7381718
-10.216426 4.2373743 -1.8540658
-10.400874 3.7369347 -1.8526423
-10.561791 3.2288518 -1.8513839
-10.698901 2.7141986 -1.8502926
-10.811938 2.1940625 -1.8493705
-10.900723 1.6694641 -1.8486193
-10.965112 1.1415271 -1.8480402
-11.004985 0.61131835 -1.8476342
-11.015708 0.3457019 -1.8474964
-10.918681 -1.5104517 -1.847752
-10.880322 -1.7735467 -1.8479626
-10.785341 -2.2968254 -1.8485137
-10.728788 -2.5567436 -1.8488541
-10.666221 -2.8153341 -1.8492372
-10.597661 -3.0724649 -1.849663
-10.44271 -3.5818093 -1.8506426
-10.356372 -3.8337624 -1.8511957
-10.264199 -4.0837293 -1.8517904
-9.9530315 -4.820365 -1.8538238
-9.4591017 -5.7669096 -1.8571036
-8.9146872 -6.0432506 -1.8053976
-8.4808979 -6.0527611 -1.746609
-8.1754932 -6.1377044 -1.7137088
-7.7241502 -6.7246952 -1.7167703
-7.5645118 -6.9134021 -1.7178575
-7.0590916 -7.45715 -1.7213122
-6.882031 -7.6306005 -1.7225266
-6.5155859 -7.9652147 -1.7250451
-6.3263769 -8.1261768 -1.7263484
-6.1332812 -8.2827644 -1.7276802
-5.7358398 -8.58251 -1.7304265
-5.3240724 -8.8636942 -1.7332788
-4.4608884 -9.3676443 -1.739278
-3.8208592 -10.534294 -1.8784546
-3.0572753 -10.811254 -1.8833832
-2.5611424 -11.070264 -1.9047467
-2.0283008 -11.202868 -1.9084914
-1.7592773 -11.259687 -1.9103845
-1.0126075 -7.6930337 -1.3007144
-1.2167382 -11.354095 -1.9142069
-0.94349605 -11.39159 -1.9161342
-0.6691699 -11.42257 -1.9180708
-0.39389649 -11.44698 -1.9200157
-0.11783203 -11.464795 -1.9219677
0.15885742 -11.475976 -1.9239256
0.4360449 -11.480521 -1.9258887
0.71352535 -11.478367 -1.9278554
0.99116206 -11.469525 -1.9298248
1.2687891 -11.453967 -1.9317955
1.5462109 -11.431695 -1.9337665
2.0999413 -11.366935 -1.937705
2.6509569 -11.275256 -1.9416308
2.9250684 -11.219328 -1.9435861
3.4695897 -11.08737 -1.9474752
3.7396679 -11.01138 -1.9494067
5.061738 -10.532471 -1.958886
5.1333103 -9.4805727 -1.8072342
5.3650684 -9.3626709 -1.8089038
7.1102633 -8.2170877 -1.8215365
7.3122559 -8.0497103 -1.8230069
7.5102148 -7.8772459 -1.8244495
7.8933983 -7.5174541 -1.8272485
8.0783987 -7.330327 -1.828603
8.2588081 -7.1385179 -1.8299261
8.7713184 -6.5362329 -1.8336978
8.9321871 -6.326889 -1.8348863
9.0878706 -6.1134663 -1.8360391
9.4323921 -6.0199761 -1.875755
10.486826 -5.6704564 -1.9984589
10.759062 -5.1634588 -2.0005059
10.885664 -4.9048219 -2.0014632
11.119385 -4.3780971 -2.0032418
11.326562 -3.8398983 -2.0048351
11.506592 -3.2915587 -2.0062385
11.658964 -2.7345243 -2.0074477
11.834648 -1.8858255 -2.0088899
11.916005 -1.3134173 -2.0095999
11.968495 -0.73747802 -2.0101058
11.991904 -0.15951233 -2.0104063
11.992715 0.12972717 -2.0104795
11.98623 0.41892639 -2.0105007
11.673681 2.7073967 -2.0088186
11.602461 2.9874945 -2.0083792
10.047568 4.4972019 -1.8453091
9.9320698 4.7362547 -1.8445464
9.6834669 5.2050195 -1.8428938
9.4119139 5.6603122 -1.8410757
8.6382513 6.7325439 -1.8359039
7.5571094 6.4993186 -1.670867
7.1982322 6.4991684 -1.625713
6.1394043 6.4075279 -1.4875753
5.1166015 6.4908714 -1.3854824
4.8673825 6.4907641 -1.3600003
4.6270118 6.4906578 -1.3362014
4.3947754 6.4905553 -1.3139715
3.9521387 6.4903574 -1.2738237
3.7405663 6.4902635 -1.2557288
3.5347948 6.490171 -1.2388508
2.9478514 6.4899011 -1.1948785
2.5779395 6.4897289 -1.1705686
2.2219727 6.4895592 -1.1498522
1.8775878 6.4893956 -1.132442
1.7090918 6.4893126 -1.1249062
1.5427246 6.4892321 -1.1181159
0.72514647 6.4010372 -1.0798775
0.41926757 6.4846606 -1.0893005
0.2624121 6.48458 -1.0879077
0.1058789 6.484498 -1.0871488
-0.050537109 6.4844165 -1.0870239
-0.52083981 6.4841671 -1.0904499
-0.6785742 6.4840817 -1.0928695
-0.83708006 6.4839964 -1.0959398
-0.99659175 6.4839096 -1.0996704
-1.1572949 6.4838219 -1.1040686
-1.4830469 6.4836426 -1.1149321
-1.8160547 6.4834571 -1.1286613
-1.9858496 6.4833593 -1.1366533
-2.1581738 6.4832616 -1.1454322
-2.3332813 6.4831629 -1.1550219
-2.6929686 6.482954 -1.1767771
-2.8781641 6.4828467 -1.1890149
-3.459209 6.4825058 -1.2317083
-3.6626756 6.4823852 -1.2481111
-4.0869532 6.482131 -1.2845554
-5.0245409 6.4871788 -1.3754928
-5.2795801 6.4870224 -1.4020584
-5.8211813 6.4866867 -1.4610244
-6.1097655 6.4865074 -1.4937479
-6.4117675 6.4863195 -1.5288807
-6.7284665 6.4861217 -1.5666342
-7.8770456 6.5636911 -1.7187799
-8.0278273 6.3676805 -1.7176658
-8.1739302 6.1683335 -1.7165841
-8.3152294 5.9657569 -1.7155359
-8.451704 5.760078 -1.7145209
-8.5832319 5.5513864 -1.7135403
-8.7098141 5.3398156 -1.7125943
-8.8313618 5.1254759 -1.711683
-8.9478121 4.9084811 -1.7108074
-9.0591497 4.6889515 -1.7099673
-9.6555805 4.4210658 -1.7801878
-10.443178 3.611001 -1.8523134
-10.666762 2.8438385 -1.8505505
-10.729316 2.5850623 -1.850047
-10.785854 2.3249598 -1.8495859
-10.836348 2.0636933 -1.8491672
-10.880766 1.8013824 -1.8487915
-10.919072 1.5381628 -1.8484588
-10.951264 1.2741754 -1.8481692
-10.977353 1.0095727 -1.8479228
-11.011099 0.47897217 -1.8475603
-11.020259 -0.052542724 -1.8473715
-10.964809 -1.1139667 -1.8475174
-10.81144 -2.1660123 -1.8483593
-10.698355 -2.6857898 -1.8490396
-10.400414 -3.7076159 -1.8509127
-10.311176 -3.9585931 -1.8514868
-9.8963671 -4.9406805 -1.8541975
-9.6549168 -5.41681 -1.8557975
-9.5258446 -5.6507049 -1.8566576
-9.1434278 -6.0381689 -1.836797
-7.955317 -6.4346929 -1.7151997
-7.3169723 -7.1892791 -1.7195474
-7.1463037 -7.3686466 -1.7207148
-6.608984 -7.8828745 -1.7244024
-6.0356345 -8.3591528 -1.7283543
-5.836904 -8.5090485 -1.7297276
-5.4286618 -8.7949505 -1.7325537
-5.2193651 -8.9307957 -1.7340051
-5.0066991 -9.0617819 -1.7354815
-4.4615135 -10.313369 -1.8836864
-4.2024217 -10.395552 -1.8796318
-3.6933007 -10.577593 -1.8781208
-3.4360838 -10.660262 -1.8775375
-3.1772168 -10.737361 -1.8770703
-2.693584 -11.033081 -1.9038168
-2.4290526 -11.105664 -1.9056743
-1.3533105 -11.332842 -1.913244
-1.0807129 -11.373591 -1.9151661
-0.53208005 -11.435549 -1.9190392
0.020009765 -11.471196 -1.9229429
0.85184568 -11.474797 -1.9288363
1.1295117 -11.462613 -1.9308065
1.4070605 -11.443715 -1.9327776
1.9612402 -11.38571 -1.936718
2.7877245 -11.248225 -1.9426063
5.4466796 -10.357334 -1.9616543
5.2491894 -9.4225426 -1.8080688
5.9326267 -9.0430136 -1.8129998
6.1544333 -8.9051647 -1.8146037
6.3729587 -8.761795 -1.8161852
6.5880957 -8.6129169 -1.8177446
7.2114158 -8.1343098 -1.8222727
7.6073046 -7.789422 -1.825158
7.7989254 -7.6095433 -1.8265578
8.5202637 -6.8426409 -1.8318475
9.1940327 -6.0256248 -1.8427169
-4.1480665 6.4037781 -1.4563584
-4.5968652 6.3978868 -1.5037367
-4.902422 6.4870896 -1.5520488
-5.1527343 6.4869332 -1.581293
-5.8193359 6.973927 -1.7337303
-6.1397653 6.6753221 -1.7311676
-6.2946582 6.5208435 -1.7299824
-6.7369432 6.0373459 -1.7267359
-6.8764939 5.8696156 -1.725708
-7.2705517 5.3480725 -1.7227944
-7.5121384 4.9860654 -1.7209983
-7.875669 4.4428053 -1.7260053
-8.7299118 4.3837733 -1.8646331
-8.9240675 3.9545848 -1.8631575
-9.0135403 3.7368383 -1.8624728
-9.0978661 3.5171435 -1.8618242
-9.3831005 2.6212621 -1.8595943
-9.5414743 1.9347094 -1.8583125
-9.6514988 1.2392114 -1.857371
-9.6977386 0.77218688 -1.8569347
-9.7126999 0.53803098 -1.8567741
-9.7222118 0.30361387 -1.8566521
-9.7248678 -0.16554138 -1.8565241
-9.7057123 -0.63429624 -1.8565507
-9.6879683 -0.86822021 -1.856622
-9.6647854 -1.1016803 -1.856732
-9.6361666 -1.3345544 -1.8568804
-9.4677877 -2.257777 -1.8578587
-9.3515081 -2.7127419 -1.8585768
-9.2854586 -2.9381418 -1.8589922
-9.0558987 -3.6045983 -1.8604639
-8.8771191 -4.0396156 -1.8616295
-8.5711231 -4.6758924 -1.8636496
-8.2209425 -5.2899389 -1.8659878
-7.6431737 -6.0335784 -1.8586954
-7.2854638 -6.0420189 -1.8066264
-6.9468555 -6.0498419 -1.758343
-6.6677051 -6.0956473 -1.7244024
-6.3734274 -6.4175434 -1.7264128
-6.0639844 -6.7256584 -1.7285336
-5.5727439 -7.1604381 -1.7319132
-5.4021192 -7.2977133 -1.7330903
-5.2281637 -7.4310179 -1.7342918
-5.0510058 -7.5602822 -1.735517
-4.5010743 -7.9230323 -1.7393295
-4.3119235 -8.0353479 -1.7406436
-3.9255078 -8.2466469 -1.7433325
-3.7284179 -8.3454866 -1.7447059
-3.1228709 -8.6140232 -1.7489343
-2.2862206 -8.9045286 -1.7547948
-2.0725684 -8.9647303 -1.7562948
-1.8573437 -9.0198679 -1.757807
-1.6407031 -9.0698996 -1.7593305
-1.4227148 -9.1147623 -1.7608647
-1.0114746 -7.6934943 -1.4811448
-0.53999025 -9.2419853 -1.7670898
-0.31721678 -9.2605629 -1.7686639
0.1299414 -9.2816591 -1.7718277
0.57837892 -9.2812099 -1.7750053
1.0270898 -9.2591133 -1.7781898
1.4750195 -9.2152815 -1.7813742
1.6983398 -9.1852217 -1.7829634
1.9210742 -9.1497259 -1.78455
2.143086 -9.1088018 -1.7861325
2.3642089 -9.0624628 -1.7877102
2.8033788 -8.9536076 -1.7908474
3.8767674 -8.5880451 -1.7985384
4.498662 -8.3059006 -1.8030105
4.9018359 -8.092329 -1.8059171
5.2946386 -7.8588824 -1.8087548
5.6761036 -7.6060266 -1.8115166
6.0451951 -7.3343029 -1.8141952
6.2247949 -7.1915441 -1.8155011
6.4009471 -7.0443015 -1.8167834
6.5735154 -6.8926554 -1.8180417
6.7424121 -6.7366767 -1.8192745
7.3788671 -6.0713882 -1.8239394
7.6907711 -6.0229344 -1.8645784
8.0721092 -6.0132523 -1.9213061
8.4773731 -6.0027747 -1.9827228
8.6307812 -5.8040409 -1.9852761
8.9099216 -5.386734 -1.9873512
9.0417185 -5.1728411 -1.9883349
9.2892866 -4.7352438 -1.990191
9.5149803 -4.2854638 -1.9918948
9.6193848 -4.0563622 -1.9926881
9.7180958 -3.8246357 -1.9934415
9.8980761 -3.3539064 -1.9948263
9.9792385 -3.115206 -1.9954568
10.243681 -2.1416826 -1.9975573
10.294521 -1.8944122 -1.9979751
10.33915 -1.6458899 -1.9983493
10.377548 -1.3962909 -1.9986793
10.468389 -0.39031798 -1.9995571
10.475918 0.11494385 -1.9997281
10.470185 0.36755797 -1.9997463
10.415107 1.1234301 -1.9995319
9.9937496 3.0958741 -1.9970055
9.9136324 3.335139 -1.9964935
9.8275776 3.5722692 -1.995939
9.5344524 4.2693019 -1.994024
8.3471584 4.7513976 -1.8333195
8.2265139 4.9491444 -1.8325106
8.1010447 5.1437316 -1.8316669
7.9708004 5.3350534 -1.8307885
7.6964645 5.7074084 -1.8289313
7.4042282 6.0652905 -1.8269439
7.2516599 6.2385459 -1.8259032
7.0949216 6.4078574 -1.824832
6.6014256 6.8918161 -1.8216075
5.643086 6.4909253 -1.6417189
5.1148634 6.4907041 -1.5773703
4.8657031 6.4905992 -1.5483687
4.3932223 6.4903979 -1.4959826
4.1685252 6.4903002 -1.472353
3.9506738 6.4902048 -1.4502902
3.1375291 6.4898448 -1.3759265
2.3971777 6.4895043 -1.3204999
1.7079883 6.4891772 -1.2808145
1.2143945 6.4889364 -1.2600863
1.0388379 6.4010653 -1.2377956
0.88095701 6.4009876 -1.2333109
0.72412109 6.400908 -1.2295732
0.26141602 6.4844494 -1.2387303
0.10488281 6.4843664 -1.2378715
-0.20799804 6.4842038 -1.238315
-0.52182615 6.4840355 -1.2416489
-0.83808589 6.4838648 -1.2479098
-0.99760741 6.483778 -1.2521604
-1.1583008 6.4836888 -1.2571743
-1.3203906 6.4835997 -1.2629664
-1.4840722 6.4835072 -1.2695526
-1.8170898 6.4833202 -1.2851965
-1.9869043 6.4832225 -1.2943031
-2.6940722 6.4828148 -1.3400112
-3.26208 6.4824753 -1.3851837
-3.4604199 6.4823585 -1.4025881
-3.6639061 6.4822364 -1.4212728
-5.0260153 6.4870129 -1.5663741
-6.3705368 6.4426246 -1.7294265
-6.5199313 6.2831287 -1.7283309
-6.6654296 6.1202731 -1.7272619
