# .PCD v0.7 - Point Cloud Data file format
VERSION 0.7
FIELDS x y z
SIZE 4 4 4
TYPE F F F
COUNT 1 1 1
WIDTH 1489
HEIGHT 1
VIEWPOINT 0 0 0 1 0 0 0
POINTS 1489
DATA ascii
-18.47583 6.4710922 -1.4907914
-20.509579 6.0897141 -1.6292591
-20.637573 5.5895333 -1.6282368
-22.845819 3.8738549 -1.7646121
-22.923807 3.3201721 -1.7639313
-23.042904 2.2089417 -1.7628295
-23.083998 1.6518847 -1.762409
-23.129204 0.53607237 -1.7618295
-23.13327 -0.022197265 -1.7616708
-23.125072 -0.58037716 -1.7615988
-23.071737 -1.6955103 -1.7617167
-23.026577 -2.2519846 -1.7619069
-22.96911 -2.8073962 -1.7621844
-22.616997 -5.0137095 -1.7641629
-20.169991 -7.1079288 -1.6285908
-20.005522 -7.5974607 -1.6296409
-19.44663 -9.0446663 -1.6332597
-20.655083 -10.848129 -1.7766908
-20.145781 -11.854453 -1.7800611
-19.874062 -12.349705 -1.7818691
-19.591034 -12.839233 -1.7837584
-19.29681 -13.322922 -1.7857281
-18.99144 -13.800481 -1.7877783
-18.573032 -14.193665 -1.7801205
-17.526337 -14.786163 -1.7462209
-16.374067 -15.979206 -1.7423016
-15.974326 -16.36005 -1.7412755
-13.767436 -18.005007 -1.7260407
-12.631328 -18.284363 -1.6923591
-12.163008 -18.548077 -1.6891016
-10.734824 -19.281094 -1.6805463
-10.251474 -19.506084 -1.6780978
-9.764761 -19.721352 -1.6758505
-8.7814112 -20.122637 -1.6719611
-7.2840428 -20.651558 -1.6676339
-6.7793555 -20.808296 -1.6665912
-6.2720895 -20.955229 -1.6657484
-4.2197556 -21.444483 -1.6643764
-3.701416 -21.542057 -1.664533
-3.1811914 -21.629742 -1.6648889
-2.6592286 -21.70746 -1.6654445
-1.6432519 -22.276735 -1.7010494
-1.0812891 -21.826948 -1.6642261
-0.56135744 -22.124828 -1.685415
-0.027666016 -22.411058 -1.70667
1.5521777 -21.775028 -1.6624404
2.0670702 -21.625935 -1.6543838
4.1948829 -21.599556 -1.6756021
4.733994 -21.579304 -1.6824059
5.8373828 -21.576368 -1.7021754
7.5504489 -21.576748 -1.7408324
8.1394234 -21.575258 -1.7560499
8.7391596 -21.573744 -1.7725817
9.9749804 -21.570614 -1.8097982
10.615371 -21.573103 -1.830976
11.773583 -21.270277 -1.8513812
14.4429 -19.96755 -1.876672
15.17955 -19.953703 -1.9092512
17.577812 -19.931326 -2.0237708
7.3477831 -7.9370108 -0.82366914
19.28997 -18.918058 -2.0575311
20.248817 -18.026419 -2.0645251
20.711796 -17.561314 -2.0679102
21.602978 -16.593843 -2.0744431
22.445263 -15.578705 -2.0806406
24.318563 -12.848938 -2.0945346
25.556854 -10.491754 -2.1038475
24.018339 -8.5308514 -1.941011
24.238281 -7.9557395 -1.9427017
24.632704 -6.7877641 -1.945765
26.639843 -5.9745665 -2.0790918
27.403662 -4.770534 -2.1182504
27.626406 -3.4459112 -2.1201351
27.711416 -2.7792895 -2.120892
27.859785 -0.76809508 -2.1224103
27.873583 -0.095616452 -2.1226645
27.869413 0.57704526 -2.1227918
27.847372 1.249356 -2.122792
27.674179 3.2592242 -2.1220338
27.580889 3.9251244 -2.1215286
25.043016 5.4362755 -1.9515142
24.892754 6.0361242 -1.9505905
20.291122 6.5063391 -1.6227237
18.7225 6.5056176 -1.5093919
17.357948 6.5049901 -1.4116337
15.055508 6.4867759 -1.2484103
12.481435 6.4855857 -1.071156
10.988222 6.4011045 -0.9684152
10.566211 6.5017138 -0.94477588
9.5052443 6.5012169 -0.87696654
7.7740331 6.5004039 -0.77170426
7.4032125 6.5002294 -0.75025159
6.7192478 6.4999061 -0.71192503
6.1004004 6.4996119 -0.67882705
5.7301464 6.4082322 -0.65465134
5.4638767 6.4155197 -0.64173025
5.2639356 6.4917941 -0.63646626
5.0091209 6.491672 -0.62441838
4.5266795 6.4914389 -0.60266286
4.2975779 6.4913278 -0.59284931
4.0757031 6.4912195 -0.58368558
3.8604491 6.4911141 -0.57512993
3.6513085 6.4910116 -0.56714612
3.2493846 6.4908142 -0.55277061
2.6811914 6.4905343 -0.53478295
2.4995606 6.4904428 -0.52964914
2.3212988 6.4903541 -0.52491766
1.9736522 6.4901805 -0.51659155
1.6361035 6.4900098 -0.50969297
1.4704785 6.4899254 -0.50675178
1.3066602 6.4898424 -0.50413591
1.1444434 6.4897604 -0.50183755
0.9835937 6.4896774 -0.49984899
0.82393551 6.4895959 -0.49816695
0.65624022 6.4017162 -0.49006149
0.34530273 6.401556 -0.4882032
0.19066405 6.4054832 -0.48800963
0.036484376 6.4851794 -0.49387047
-0.12003906 6.4850974 -0.49394119
-0.27669922 6.4850159 -0.49429983
-0.43366209 6.4849339 -0.4949469
-1.7237695 6.4842453 -0.51094252
-1.8923925 6.4841552 -0.51438481
-2.4136231 6.4838719 -0.52686417
-2.5933886 6.4837742 -0.53178823
-2.9637401 6.4835706 -0.54288083
-3.1549902 6.4834652 -0.54908836
-3.3507812 6.483357 -0.55576622
-3.9695799 6.4830136 -0.57889497
-4.1878614 6.4828916 -0.58773881
-5.0701365 6.398612 -0.62169826
-6.5568457 6.4871726 -0.70240718
-6.8811035 6.4869871 -0.72016037
-7.2224021 6.486793 -0.73927504
-7.963501 6.4863696 -0.78215241
-8.7979441 6.4858899 -0.83236867
-9.2572021 6.4856262 -0.86075753
-9.7492132 6.485343 -0.89169234
-10.133008 6.3934045 -0.91241425
-10.836016 6.4767847 -0.96136111
-13.675776 6.4751377 -1.1522866
-15.3708 6.3891172 -1.2676275
-16.69622 6.4721322 -1.3636491
-20.822866 4.7661085 -1.6267337
-22.896854 3.5217786 -1.764169
-22.967041 2.9671941 -1.763543
-23.024881 2.4113884 -1.7630043
-23.070454 1.8546411 -1.7625521
-23.103691 1.297138 -1.7621871
-23.133247 0.18090209 -1.7617182
-23.129473 -0.37733153 -1.7616149
-23.113447 -0.935332 -1.7615985
-23.044394 -2.0496511 -1.7618278
-22.926201 -3.1600766 -1.762406
-22.848734 -3.7132666 -1.7628255
-22.758989 -4.2648163 -1.7633321
-22.543013 -5.3616967 -1.7646055
-20.227114 -6.929029 -1.6282281
-20.06662 -7.4197516 -1.6292498
-18.293348 -7.7867346 -1.5140452
-19.31562 -9.3470526 -1.6341166
-20.498051 -11.170464 -1.7777271
-20.24185 -11.672974 -1.7794235
-19.974203 -12.170145 -1.7812021
-19.405117 -13.147634 -1.7850024
-17.661192 -14.636458 -1.7467816
-16.906782 -15.446184 -1.743926
-16.517607 -15.838568 -1.7427092
-15.303984 -16.964512 -1.7399008
-14.457988 -17.671247 -1.7387326
-12.800727 -18.186056 -1.6935939
-12.333858 -18.453272 -1.6902629
-10.909781 -19.196865 -1.6814865
-9.9421434 -19.644154 -1.6766453
-9.4533052 -19.853207 -1.6745263
-7.9679489 -20.422016 -1.669378
-7.4669967 -20.592113 -1.6680627
-5.9480762 -21.043564 -1.6653169
-4.4078221 -21.406504 -1.6643693
-1.3932226 -7.7026262 -0.5960964
-3.3706639 -21.598993 -1.6647363
-2.8493261 -21.680342 -1.6652191
-2.3263183 -21.751694 -1.665902
-1.8397266 -22.27301 -1.7019318
-1.2718457 -21.798769 -1.6628637
-0.75207031 -22.016737 -1.6776204
-0.22345702 -22.31436 -1.6993883
0.31876951 -22.577402 -1.7195076
0.85320312 -22.295444 -1.6991057
2.3981738 -21.585636 -1.6539221
2.9243944 -21.566044 -1.6573491
3.9983494 -21.599072 -1.6727747
5.0822167 -21.578379 -1.688219
5.634707 -21.576908 -1.698249
7.923945 -21.575806 -1.7503684
8.5196676 -21.574297 -1.7664102
9.1267576 -21.572763 -1.7838033
11.577578 -21.356602 -1.8499737
12.114756 -21.114925 -1.853832
12.646807 -20.859438 -1.8576571
13.693809 -20.307049 -1.865196
14.208017 -20.010422 -1.8689047
14.906591 -19.956127 -1.896885
19.111034 -19.074564 -2.0562284
19.599628 -18.640131 -2.0597875
20.077618 -18.192507 -2.0632749
21.00042 -17.258884 -2.0700233
21.444443 -16.77347 -2.0732791
21.876337 -16.275969 -2.0764518
22.29582 -15.766818 -2.0795391
23.095957 -14.714435 -2.0854471
23.475996 -14.171965 -2.0882633
24.194111 -13.05614 -2.0936055
24.854374 -11.901729 -2.0985472
25.162012 -11.31097 -2.1008623
25.454443 -10.711782 -2.1030715
24.565517 -7.0018735 -1.9452395
24.745195 -6.4117131 -1.9466487
25.641142 -5.9874978 -2.005177
27.211708 -5.6655054 -2.1166837
27.482128 -4.3506227 -2.1189034
27.591143 -3.6878068 -2.1198294
27.756269 -2.3539786 -2.1213086
27.812294 -1.6839825 -2.121861
27.850342 -1.0125721 -2.1222866
27.870674 -0.34032652 -2.122587
27.872978 0.33233032 -2.1227598
27.85745 1.0048351 -2.1228065
27.8241 1.676687 -2.1227267
27.703711 3.016372 -2.1221864
27.512383 4.3472972 -2.1211421
24.788954 6.4154553 -1.9499441
22.830624 6.5003209 -1.8077149
20.92205 6.506628 -1.6685426
19.267187 6.5058689 -1.5486398
17.833437 6.5052099 -1.4456005
16.320332 6.403573 -1.3350699
13.554824 6.486084 -1.1443291
12.026103 6.4853759 -1.0405029
11.360518 6.4850645 -0.99616975
10.609981 6.400929 -0.94363296
10.211308 6.5015478 -0.92186004
9.6867962 6.5013022 -0.88841659
7.5356932 6.5002918 -0.7578662
7.1777635 6.500123 -0.73743343
6.8384471 6.4999619 -0.71847898
5.5554004 6.4081478 -0.64584714
4.6119337 6.4914804 -0.60640275
3.9380271 6.4911523 -0.57817382
3.5212011 6.4909482 -0.56235039
3.3209765 6.4908504 -0.55523604
3.125664 6.4907541 -0.54861367
2.7481444 6.4905677 -0.536753
2.5652442 6.4904761 -0.53147066
2.2094922 6.4902978 -0.5221079
2.0360742 6.490211 -0.51799619
1.8652831 6.4901257 -0.51424652
1.6968261 6.4900413 -0.51084584
1.5305078 6.4899559 -0.50778306
1.3660742 6.4898715 -0.50504965
1.2032909 6.48979 -0.50263727
1.0419629 6.4897079 -0.50053656
0.55707031 6.4016662 -0.48934507
0.40170896 6.4015841 -0.48845586
0.092275389 6.4054317 -0.48783958
-0.063085936 6.485127 -0.49388167
-0.37649414 6.4849634 -0.49467742
-0.85036129 6.4847131 -0.49805593
-1.0100683 6.4846277 -0.49977547
-1.497207 6.4843688 -0.50679326
-1.662959 6.4842782 -0.50977486
-1.830791 6.4841881 -0.5130915
-2.0008984 6.4840965 -0.51675588
-2.1735644 6.4840035 -0.5207777
-2.3490429 6.4839072 -0.52517122
-2.5275977 6.4838095 -0.5299505
-3.0849121 6.4835033 -0.54677612
-3.6819921 6.4831738 -0.56777763
-4.1076856 6.4829369 -0.58445138
-4.5205274 6.4262633 -0.59833103
-4.9793653 6.398663 -0.61743498
-5.3050194 6.4878821 -0.63821167
-5.5714645 6.4877305 -0.65123636
-5.8491697 6.4875731 -0.66519898
-6.4427829 6.4872384 -0.69626069
-6.7612696 6.4870567 -0.71354908
-7.0961523 6.4868641 -0.73215514
-7.449194 6.4866638 -0.75220793
-7.8223433 6.4864502 -0.77385145
-9.0865526 6.4857235 -0.85015225
-10.62331 6.4769092 -0.94749755
-11.223393 6.4765611 -0.98678952
-16.271532 6.4723802 -1.3335556
-20.265215 6.9485779 -1.6314539
-20.545557 5.9537363 -1.6289729
-20.784283 4.9496899 -1.6270496
-20.886854 4.4444127 -1.626206
-23.005274 2.6137316 -1.7631903
-23.093031 1.5000213 -1.7623098
-23.131552 0.38400513 -1.7617774
-23.132299 -0.17424498 -1.7616421
-23.096827 -1.2900811 -1.7616335
-22.951357 -2.9584758 -1.7622747
-22.878321 -3.5122094 -1.7626628
-22.793051 -4.0643029 -1.7631378
-22.695585 -4.6146135 -1.7636997
-22.464106 -5.7086835 -1.7650833
-20.42828 -6.254837 -1.6269614
-19.958788 -7.7302084 -1.6299407
-19.78039 -8.2153492 -1.6310905
-19.391045 -9.1743402 -1.633623
-20.82896 -10.477027 -1.7755466
-20.588436 -10.986386 -1.7771302
-20.336372 -11.490746 -1.7787968
-20.07288 -11.98989 -1.7805456
-19.79809 -12.48361 -1.7823756
-19.214731 -13.453603 -1.7862786
-18.906425 -13.929437 -1.7883499
-18.156801 -14.065608 -1.7490504
-16.660131 -15.696797 -1.7431353
-16.265957 -16.083822 -1.7420077
-15.864131 -16.462305 -1.7410204
-15.45477 -16.832129 -1.7401739
-15.037997 -17.193188 -1.7394681
-12.969526 -18.086409 -1.6948569
-12.034721 -18.618204 -1.6882501
-11.561381 -18.869637 -1.6852502
-9.6316061 -19.77828 -1.6752735
-9.1406298 -19.981165 -1.6732827
-7.1468163 -20.695217 -1.6673303
-5.6231446 -21.127966 -1.6649653
-5.1104879 -21.252529 -1.664577
-4.5956836 -21.367241 -1.6643879
-3.5598924 -21.566963 -1.6646097
-2.0293262 -22.192226 -1.6970555
-0.94104493 -21.908867 -1.6699628
-0.41738281 -22.205908 -1.6913421
0.66319335 -22.49715 -1.7139659
2.2072754 -21.593325 -1.6529622
2.7325585 -21.572168 -1.6559091
3.8024316 -21.598593 -1.6700839
4.3424802 -21.599916 -1.6778146
4.8828025 -21.578905 -1.6848429
5.4329295 -21.577446 -1.6944712
7.7098727 -21.576347 -1.7448516
8.9045019 -21.573324 -1.7773185
10.147412 -21.570181 -1.815328
12.453857 -20.953999 -1.8562695
12.982392 -20.689671 -1.8600718
13.505156 -20.411633 -1.8638366
14.026084 -20.126236 -1.8681488
15.386191 -19.951851 -1.9187069
16.162968 -19.944756 -1.9549717
17.810068 -19.92906 -2.0353851
7.3451657 -7.8303061 -0.81759018
19.423037 -18.799673 -2.0585005
19.904942 -18.356821 -2.0620143
20.835918 -17.432468 -2.0688188
21.284227 -16.95149 -2.0721037
22.144648 -15.953409 -2.0784256
22.556034 -15.436901 -2.0814576
22.954325 -14.909161 -2.0843995
23.339306 -14.370562 -2.0872495
23.710518 -13.821399 -2.0900047
24.410536 -12.692967 -2.0952218
25.051855 -11.526929 -2.1000323
24.496269 -7.2152781 -1.9447
24.681631 -6.6270118 -1.9461486
27.15497 -5.9028997 -2.1162267
27.438095 -4.5909052 -2.1185358
27.553524 -3.9292903 -2.1195068
27.651308 -3.2645679 -2.1203537
27.731464 -2.5972774 -2.1210763
27.793983 -1.927897 -2.1216748
27.838545 -1.2569995 -2.1221464
27.874258 0.087596431 -2.1227119
27.730917 2.7731993 -2.1223223
27.55245 4.1060424 -2.1213696
25.142324 4.9972816 -1.9521149
25.003653 5.6001024 -1.9512738
24.849121 6.1987367 -1.9503195
24.679688 6.7930698 -1.9493245
19.840996 6.5061326 -1.5901089
17.016298 6.5048327 -1.387295
15.814345 6.4869237 -1.3016844
14.786983 6.4866529 -1.2296536
13.866474 6.486228 -1.1657875
13.036406 6.4858432 -1.1088384
10.823857 6.4010291 -0.95760959
9.8731737 6.5013905 -0.90023869
9.372344 6.5011544 -0.8686285
8.9052534 6.500936 -0.83963752
5.3914938 6.4154859 -0.63817298
5.1935644 6.4917612 -0.63310307
4.9413571 6.4916406 -0.62127829
4.236455 6.4912972 -0.59029084
4.0164256 6.4911914 -0.58129632
3.3932323 6.4908848 -0.55776513
2.8156152 6.4906015 -0.53877896
2.4506934 6.4904184 -0.52832234
1.5907812 6.4899864 -0.50885892
1.4256836 6.489902 -0.50600731
1.2623242 6.4898205 -0.50347841
0.78062499 6.4895725 -0.49775907
0.30312499 6.4015331 -0.48803893
0.14854492 6.4054613 -0.4879238
-0.16268554 6.4850755 -0.49401054
-0.3194043 6.4849939 -0.49444738
-0.79252928 6.4847436 -0.49750364
-0.95184571 6.4846582 -0.49911344
-1.1122851 6.4845738 -0.50102818
-1.274043 6.4844871 -0.50325173
-1.6024317 6.4843102 -0.50865126
-2.1104393 6.4840369 -0.51927316
-2.2848632 6.4839416 -0.52352941
-2.6429491 6.4837461 -0.53320026
-2.8272264 6.4836459 -0.53864515
-3.2078514 6.4834361 -0.55085897
-3.4049511 6.4833274 -0.55766964
-3.6070995 6.4832163 -0.56498551
-3.8147459 6.4831004 -0.57283187
-4.028379 6.4829807 -0.58124417
-5.4732809 6.4877868 -0.64639282
-6.032197 6.4874706 -0.67460579
-6.3307128 6.4873009 -0.69027686
-6.9722948 6.4869361 -0.72522473
-7.3185349 6.4867368 -0.74473554
-8.0712109 6.4863071 -0.78852642
-8.9200096 6.4858189 -0.83986753
-9.3878222 6.485549 -0.86892104
-9.7663717 6.404542 -0.88939011
-10.29477 6.4012389 -0.92317319
-13.077729 6.4754844 -1.1113071
-13.911157 6.4749999 -1.1685078
-17.027025 6.4719396 -1.3871626
-18.346205 6.471168 -1.4814798
-20.357557 6.6327624 -1.6304989
-20.49729 6.1353025 -1.6293569
-20.850849 4.6284642 -1.6265037
-22.838066 3.9244053 -1.7646787
-22.917177 3.3708677 -1.7639898
-23.110634 1.1451825 -1.7621026
-23.128187 0.58710021 -1.7618486
-23.133436 0.028829345 -1.7616814
-23.075224 -1.6446056 -1.761704
-23.031197 -2.2011459 -1.761886
-22.974897 -2.7566533 -1.7621551
-22.906319 -3.3109119 -1.7625116
-22.825497 -3.8636432 -1.7629548
-22.73246 -4.414629 -1.7634852
-22.50979 -5.5103574 -1.7648062
-20.496244 -6.0793457 -1.6280622
-20.184492 -7.0630302 -1.6284987
-20.020971 -7.5528574 -1.6295419
-19.661224 -8.5221167 -1.6318624
-19.258163 -9.4759769 -1.6344932
-20.170078 -11.808913 -1.7798998
-19.899349 -12.304615 -1.7817006
-19.019829 -13.757091 -1.7875875
-17.560341 -14.748671 -1.7463597
-17.18499 -15.155393 -1.7449002
-16.801577 -15.553889 -1.7435807
-16.01123 -16.325623 -1.7413629
-14.769062 -17.418234 -1.7390928
-14.340547 -17.764704 -1.7386175
-13.137813 -17.985525 -1.6961459
-12.205986 -18.524382 -1.6893907
-10.295835 -19.485909 -1.6783134
-9.3196039 -19.90848 -1.6739839
-8.8266945 -20.105171 -1.6721203
-8.3307667 -20.292109 -1.6704587
-7.3300486 -20.636747 -1.6677393
-6.8255758 -20.79438 -1.6666781
-5.2972851 -21.208349 -1.6646953
-4.2670603 -21.435078 -1.6643717
-3.7489061 -21.533562 -1.6645101
-3.2288573 -21.622135 -1.664848
-2.707041 -21.700756 -1.6653856
-2.2040918 -21.973995 -1.6817812
-0.60946286 -22.097668 -1.6834418
-0.07702148 -22.386971 -1.7048454
0.99361324 -22.151947 -1.6886326
1.5055859 -21.800007 -1.664089
6.3478317 -21.575012 -1.7126367
6.9172168 -21.573498 -1.7252636
8.0851269 -21.575397 -1.7546068
8.6838284 -21.573881 -1.7710114
9.294219 -21.572338 -1.7887813
9.9173145 -21.570761 -1.8079709
10.556348 -21.573223 -1.8290027
11.18373 -21.523672 -1.8471475
11.724394 -21.292131 -1.851028
14.377695 -19.969959 -1.8739153
15.110644 -19.954317 -1.906114
15.877031 -19.947393 -1.9414916
16.672754 -19.939989 -1.9793661
17.50042 -19.932076 -2.0199239
7.3486619 -7.9731865 -0.82573932
19.245127 -18.957548 -2.0572045
19.730879 -18.519478 -2.0607445
20.66997 -17.604357 -2.0676041
23.577099 -14.022407 -2.0890138
24.28746 -12.901114 -2.0943024
15.884521 -7.952251 -1.3527722
24.939707 -11.741664 -2.0991886
23.761318 -9.1511526 -1.9390475
24.218788 -8.0085421 -1.9425514
24.42499 -7.4279552 -1.9441459
24.615995 -6.8416491 -1.9456341
26.381962 -5.9779081 -2.059993
27.513594 -4.1703954 -2.1191683
27.617783 -3.5067346 -2.12006
27.824385 -1.5011926 -2.121989
27.857695 -0.82951045 -2.1223812
27.873016 -0.15713806 -2.1226461
27.870575 0.51552856 -2.1227853
27.850176 1.1879059 -2.1227977
27.811893 1.8594897 -2.122683
27.755772 2.5297649 -2.1224418
27.590204 3.8643663 -2.1215804
27.178661 4.4778819 -2.0976341
24.907158 5.9814844 -1.9506798
22.272655 6.5000658 -1.7668815
18.856815 6.5056796 -1.5190612
16.009697 6.403429 -1.3130983
15.1475 6.4868212 -1.2548504
14.190098 6.4863782 -1.1881613
13.328847 6.4859791 -1.1288269
12.549082 6.4856176 -1.0757309
10.064541 6.5014791 -0.91244811
9.5504389 6.5012388 -0.87980992
8.6238861 6.5008044 -0.82242137
8.2040138 6.500608 -0.79711229
7.8089938 6.500421 -0.77375013
7.0835838 6.5000782 -0.73212922
6.7489939 6.4999194 -0.71355587
6.1274219 6.4996238 -0.68023741
5.4883494 6.4155321 -0.6429404
4.7857032 6.4915648 -0.61416692
4.3182225 6.4913378 -0.59371978
3.879873 6.4911242 -0.57588774
3.6701758 6.4910216 -0.56785315
3.4661522 6.4909201 -0.5603624
3.2673144 6.4908228 -0.5533843
3.073252 6.4907284 -0.546893
2.883584 6.4906344 -0.54086226
2.5160351 6.4904513 -0.53010261
2.3374803 6.4903622 -0.52533406
1.9893163 6.4901876 -0.51694024
1.8191797 6.4901023 -0.51328558
1.6513281 6.4900169 -0.50997901
1.3215722 6.489851 -0.50436223
0.99825191 6.4896851 -0.5000183
0.83848631 6.489603 -0.49830794
0.67051756 6.4017248 -0.49017408
0.35948241 6.4015622 -0.48826262
0.20481445 6.4054904 -0.48804381
0.050791014 6.4851866 -0.49387825
-0.10572265 6.485106 -0.49392256
-0.26235351 6.485023 -0.49425444
-0.41928709 6.4849401 -0.49487579
-0.57670897 6.4848571 -0.4957872
-0.73479491 6.4847751 -0.49699265
-0.89375973 6.4846897 -0.4984934
-1.0537695 6.4846044 -0.50029641
-1.215039 6.484519 -0.50240648
-1.3777734 6.4844308 -0.50482911
-1.5421581 6.4843445 -0.50757194
-3.1373241 6.4834752 -0.54850072
-3.7385547 6.4831433 -0.5699141
-3.9499316 6.4830246 -0.57811505
-4.392168 6.4827781 -0.59631771
-5.0472069 6.3986254 -0.62061673
-5.645957 6.487689 -0.65494305
-5.9268942 6.4875302 -0.66917431
-6.8508005 6.4870043 -0.71848202
-9.2139158 6.4856491 -0.85806364
-9.7027683 6.4853687 -0.88875073
-10.083686 6.3934326 -0.90924954
-10.781987 6.4768162 -0.95783186
-11.395615 6.4764609 -0.9981665
-12.063603 6.4760742 -1.0426822
-12.794409 6.4756494 -1.0920182
-13.598262 6.4751816 -1.1469547
-15.275732 6.3891735 -1.2609546
-16.587681 6.4721961 -1.3559496
-17.845995 6.4714608 -1.4456195
-20.447622 6.3165565 -1.6297505
-20.813324 4.8122449 -1.626812
-21.399746 4.4067111 -1.663847
-22.889818 3.5723851 -1.7642305
-23.066807 1.905578 -1.7625898
-23.130356 -0.32630187 -1.7616204
-23.088179 -1.4419049 -1.7616595
-23.048641 -1.9987787 -1.7618097
-22.996786 -2.5547245 -1.7620473
-22.932686 -3.1094446 -1.7623718
-22.856274 -3.6627846 -1.7627838
-22.76771 -4.2144012 -1.7632823
-22.666908 -4.7641382 -1.7638677
-22.553925 -5.3117151 -1.76454
-22.428837 -5.8569169 -1.7652984
-19.911283 -7.8627234 -1.6302463
-19.334736 -9.303731 -1.6339914
-20.764595 -10.616232 -1.7759695
-19.432095 -13.103461 -1.7848217
-16.941963 -15.409907 -1.7440444
-16.553514 -15.803087 -1.7428139
-16.157261 -16.187748 -1.7417251
-15.753379 -16.563885 -1.7407761
-15.341991 -16.931345 -1.7399676
-14.923207 -17.289959 -1.7393008
-14.497271 -17.639715 -1.7387738
-14.064272 -17.980392 -1.7383887
-13.349365 -17.942293 -1.703053
-11.906206 -18.687677 -1.6874123
-11.431767 -18.936419 -1.6844687
-9.986743 -19.62455 -1.6768488
-9.006382 -20.034725 -1.6727754
-8.0136232 -20.405985 -1.6695079
-7.5128026 -20.576962 -1.6681753
-7.0094237 -20.738146 -1.6670413
-5.9947166 -21.031137 -1.6653734
-5.4837208 -21.162842 -1.6648403
-4.9704685 -21.284756 -1.6645057
-4.455039 -21.396772 -1.6643713
-3.4182615 -21.591049 -1.6647021
-2.8970604 -21.673325 -1.6651664
-2.3742089 -21.745581 -1.6658312
-1.8875293 -22.253334 -1.7007415
-0.27234375 -22.287094 -1.6973529
0.26869139 -22.554422 -1.7177056
1.8333105 -21.693623 -1.6579226
3.9490428 -21.598951 -1.6720914
5.5839257 -21.577044 -1.6972837
6.7091012 -21.574053 -1.7205338
7.2839942 -21.572523 -1.7339292
9.0707712 -21.572905 -1.7821563
9.6890717 -21.571341 -1.8008221
10.320879 -21.56974 -1.8209454
11.528233 -21.378002 -1.8496195
12.598389 -20.883387 -1.8573089
13.646474 -20.333492 -1.8648551
14.161279 -20.038082 -1.8685673
14.838593 -19.956726 -1.8938257
16.379745 -19.942739 -1.9652898
17.19541 -19.935015 -2.0048463
18.04497 -19.926754 -2.0472176
7.3440819 -7.7267528 -0.81179881
19.06583 -19.113634 -2.0558994
20.034346 -18.233946 -2.0629587
20.959219 -17.302641 -2.0697217
21.404375 -16.818352 -2.0729849
21.837372 -16.32196 -2.0761652
22.257988 -15.813795 -2.0792606
23.060575 -14.763491 -2.0851853
23.441776 -14.222012 -2.0880094
24.162519 -13.108037 -2.09337
24.501368 -12.536313 -2.0959013
24.825478 -11.95528 -2.0983303
25.134569 -11.365352 -2.1006556
24.548319 -7.0555491 -1.9451054
24.729433 -6.4658923 -1.9465246
25.401123 -5.990603 -1.9874352
27.343143 -5.0701094 -2.1177523
27.471289 -4.4110417 -2.1188128
27.581884 -3.7485304 -2.1197498
27.847569 -1.0739983 -2.1222527
27.873495 0.27086669 -2.1227493
27.827881 1.6152776 -2.1227393
27.778252 2.2860901 -2.1225443
25.106161 5.1618552 -1.9518975
24.963163 5.7635922 -1.9510254
24.804237 6.3610559 -1.9500396
17.956621 6.5052662 -1.454415
16.427002 6.4036217 -1.3426455
15.523125 6.4869943 -1.2811987
14.526416 6.4865332 -1.2115052
13.632051 6.4861193 -1.1496367
12.82415 6.4857459 -1.0943885
10.663144 6.4009542 -0.9470973
9.7331448 6.5013242 -0.89135039
9.2419233 6.5010934 -0.86048442
8.7833595 6.5008788 -0.83215427
7.5694332 6.5003076 -0.75981492
7.2097068 6.5001378 -0.73923707
6.5447559 6.4998226 -0.70242995
6.2361622 6.4996753 -0.68594682
5.5802245 6.4081602 -0.64708495
5.3317285 6.4297214 -0.63608921
5.1238966 6.4917283 -0.62980068
4.8742676 6.4916077 -0.61819512
4.6335254 6.4914904 -0.60735798
4.4009471 6.4913778 -0.59723461
4.175869 6.4912682 -0.58778
3.9576561 6.4911618 -0.57895046
3.7458007 6.4910583 -0.57071149
2.9521191 6.4906688 -0.54300421
2.7650585 6.4905748 -0.53725648
2.4020507 6.4903941 -0.52702338
2.225498 6.4903064 -0.52250326
2.0518262 6.4902196 -0.51835728
1.5456445 6.4899631 -0.50805014
1.3810351 6.4898791 -0.50528657
1.0566504 6.4897156 -0.50071645
0.57129884 6.4016733 -0.48944077
-0.20534179 6.4850535 -0.49410078
-0.36214843 6.4849706 -0.49461669
-0.67719728 6.4848046 -0.49651954
-1.3183887 6.4844627 -0.50391155
-1.4821582 6.484376 -0.50653708
-1.9852442 6.4841037 -0.5164063
-2.3328612 6.4839158 -0.52475417
-2.6927733 6.4837193 -0.53464109
-3.0673926 6.4835129 -0.54620522
-3.459502 6.4832969 -0.55961198
-4.0876756 6.4829478 -0.58363801
-4.3096581 6.4828258 -0.59281796
-5.2812009 6.4878955 -0.63706452
-5.5466599 6.4877453 -0.65000832
-5.8232908 6.4875879 -0.66388172
-7.0648241 6.4868822 -0.73039609
-8.5986814 6.4860058 -0.82020825
-9.0443068 6.4857483 -0.84753692
-9.8907614 6.3935447 -0.89687574
-11.813788 6.4762192 -1.0259656
-12.520654 6.4758091 -1.073465
-13.296601 6.4753561 -1.126265
-14.153383 6.4748583 -1.1852512
-15.012602 6.4345236 -1.2438377
-16.167681 6.4724412 -1.3262128
-20.251534 6.9938903 -1.6315939
-20.396381 6.4974399 -1.6301553
-20.774336 4.9957786 -1.6271307
-23.051229 2.1082075 -1.7627472
-23.132759 -0.12320861 -1.7616508
-23.12229 -0.68134767 -1.761595
-23.017046 -2.3525689 -1.761951
-22.957426 -2.9077895 -1.7622436
-22.885523 -3.4616559 -1.7626235
-22.47578 -5.6588669 -1.7650121
-20.141048 -7.1967492 -1.628775
-19.797176 -8.1711645 -1.630982
-19.409815 -9.130868 -1.6335003
-20.09746 -11.944456 -1.7803822
-18.935043 -13.886211 -1.7881575
-17.081333 -15.264794 -1.7445266
-15.076401 -17.160498 -1.7395272
-14.653042 -17.513487 -1.7389495
-14.222607 -17.857491 -1.7385126
-12.546894 -18.332806 -1.6917545
-12.077856 -18.594782 -1.6885334
-11.604815 -18.84704 -1.6855164
-11.128022 -19.089607 -1.6827017
-10.647636 -19.322554 -1.6800876
-10.163652 -19.545763 -1.6776762
-9.1856928 -19.96302 -1.6734562
-8.6918554 -20.157063 -1.6716479
-7.1929297 -20.680641 -1.6674304
-6.6877441 -20.835606 -1.6664239
-6.180068 -20.980757 -1.6656173
-5.6698923 -21.116098 -1.6650107
-5.1574802 -21.241524 -1.6646048
-3.0868945 -21.64456 -1.6649742
-2.5646582 -21.720469 -1.6655657
-0.46586913 -22.178646 -1.689343
0.61487305 -22.548447 -1.7177688
1.1345605 -22.055061 -1.6817763
2.6844335 -21.574106 -1.6556023
4.2929392 -21.599794 -1.6770631
4.8327928 -21.579041 -1.684014
5.382422 -21.577579 -1.6935487
5.9385448 -21.576101 -1.7041845
7.0737891 -21.57308 -1.7289157
10.089384 -21.570326 -1.8134478
11.331416 -21.461992 -1.848207
12.934345 -20.714399 -1.8597261
16.090801 -19.945425 -1.9515569
16.894882 -19.937887 -1.9901369
18.885263 -19.267933 -2.0545855
20.333447 -17.943214 -2.0651433
21.6812 -16.503958 -2.0750175
22.918535 -14.957864 -2.0841348
25.323233 -10.985571 -2.1020792
23.82707 -8.9970961 -1.9395489
24.478573 -7.2688155 -1.9445622
24.665312 -6.6809821 -1.9460207
27.292196 -5.3089423 -2.117336
27.643164 -3.3254328 -2.1202817
27.724882 -2.6584094 -2.1210153
27.835234 -1.3183672 -2.1221085
27.87418 0.02612976 -2.1226971
27.866768 0.69870663 -2.1228011
27.841503 1.3709784 -2.1227787
27.562138 4.045383 -2.121424
25.154179 4.942009 -1.9521862
25.017021 5.5451403 -1.9513558
24.863895 6.1441574 -1.9504114
21.458984 6.4159021 -1.7056412
18.461805 6.5054989 -1.4906526
14.876171 6.4866929 -1.2358774
13.946679 6.4862657 -1.1713235
11.656279 6.4852037 -1.0157982
10.878623 6.4010544 -0.96120632
10.463525 6.5016651 -0.93812329
9.9207611 6.5014133 -0.90326917
8.94664 6.5009556 -0.8421852
8.5068941 6.5007496 -0.815323
8.0940428 6.500555 -0.79056144
7.7053709 6.5003719 -0.76769924
6.6607323 6.4998779 -0.70872748
5.6799607 6.4082079 -0.65210325
5.4157224 6.4154978 -0.63936204
4.9640331 6.4916501 -0.62232596
4.4846582 6.4914184 -0.60083729
4.2569041 6.4913082 -0.59114385
3.2140038 6.490797 -0.55156827
3.0212011 6.4907017 -0.54520637
2.6480663 6.4905176 -0.53382337
2.4670606 6.490427 -0.52876526
1.9427344 6.4901648 -0.51590973
1.6059766 6.489995 -0.50913662
1.1152246 6.4897447 -0.50145483
0.95461911 6.4896631 -0.49952269
0.62799805 6.4017029 -0.48984581
0.47237304 6.4016209 -0.48882559
0.16267578 6.4054685 -0.48794973
0.0081445314 6.4851646 -0.49386251
-0.30506834 6.4850025 -0.4943952
-0.46210936 6.4849191 -0.49509513
-0.61970699 6.4848337 -0.49608573
-0.93723631 6.4846668 -0.49895409
-1.7541308 6.4842281 -0.5115397
-2.2687793 6.4839511 -0.52312368
-2.4459276 6.4838538 -0.52772588
-2.8102343 6.4836559 -0.53813094
-2.9980273 6.483552 -0.54396963
-3.1900878 6.4834461 -0.55026114
-3.3867285 6.4833374 -0.55702704
-3.5883887 6.4832263 -0.56429398
-4.008574 6.4829931 -0.58045
-4.2280955 6.4828696 -0.58940506
-4.4545994 6.4827428 -0.59899384
-4.8674903 6.3987255 -0.61224174
-5.1157908 6.3985863 -0.6238625
-5.7213182 6.4876475 -0.65872288
-6.0055566 6.4874854 -0.67322737
-6.3028026 6.4873166 -0.68879515
-6.6143551 6.4871397 -0.70552313
-8.0348873 6.4863281 -0.78637284
-8.8788185 6.4858432 -0.83733183
-9.3436909 6.4855762 -0.86615896
-9.7663965 6.4354029 -0.89068478
-10.231635 6.3933473 -0.91876835
-10.944209 6.4767237 -0.96843863
-11.571836 6.4763598 -1.0098509
-13.005615 6.4755259 -1.1063888
-13.831382 6.4750462 -1.1630058
-14.746938 6.474514 -1.2264881
-16.914785 6.4720044 -1.3791806
-20.34457 6.6782017 -1.6306341
-20.484945 6.180902 -1.6294547
-22.910473 3.4215112 -1.7640492
-22.978388 2.8667376 -1.7634393
-23.108412 1.1961547 -1.7621303
-23.127113 0.63815731 -1.761868
-23.13348 0.079836421 -1.7616929
-22.913065 -3.2602541 -1.7624755
-22.833368 -3.8132265 -1.7629111
-22.741468 -4.3643169 -1.763433
-22.637333 -4.9135504 -1.7640424
-22.521074 -5.4604621 -1.7647378
-22.39266 -6.0050144 -1.76552
-20.657148 -6.0774975 -1.6397741
-20.350351 -6.5248208 -1.6274499
-19.277569 -9.4327221 -1.6343659
-19.048096 -13.713659 -1.7873974
-18.694496 -14.156235 -1.7857537
-9.6616602 -7.6900034 -0.94037044
-17.594263 -14.711056 -1.7465004
-17.219673 -15.118539 -1.7450278
-15.64207 -16.664833 -1.7405418
-14.380019 -17.733454 -1.7386546
-13.17998 -17.959991 -1.696474
-11.301953 -19.00246 -1.6837025
-10.822812 -19.238924 -1.6810153
-10.340156 -19.465647 -1.6785307
-9.8539209 -19.68269 -1.6762472
-9.3645315 -19.889997 -1.6741644
-8.8718748 -20.08758 -1.6722828
-8.3761864 -20.275398 -1.6706027
-7.3760204 -20.621811 -1.6678468
-6.3650293 -20.929081 -1.6658877
-5.8557129 -21.067997 -1.6652086
-4.8303318 -21.316225 -1.6644496
-4.3143163 -21.425541 -1.6643698
-3.2764549 -21.614452 -1.6648089
-2.2457323 -21.902779 -1.6767056
-1.1750391 -21.775398 -1.6606723
-0.6574316 -22.070498 -1.6814783
-0.12623046 -22.362907 -1.7030276
0.41823241 -22.621933 -1.7230203
0.94647461 -22.196449 -1.6918581
1.9732715 -21.653097 -1.6557772
3.0209081 -21.57021 -1.658666
4.0960059 -21.599312 -1.6741681
4.6343751 -21.579571 -1.6808169
5.1817088 -21.578112 -1.689953
5.7354493 -21.576641 -1.700184
6.2961521 -21.575151 -1.711543
7.4421582 -21.572104 -1.7377905
9.2378607 -21.572479 -1.7870973
9.8598337 -21.570908 -1.8061496
10.497451 -21.573345 -1.8270456
11.134091 -21.544128 -1.8467914
12.211493 -21.069727 -1.8545272
10.360742 6.5013766 -1.2090558
9.3279781 6.5009117 -1.1238685
8.8637886 6.5007019 -1.0865301
8.4292088 6.500504 -1.0521834
8.0210152 6.5003185 -1.0205191
6.6020212 6.4996676 -0.91576886
6.2907615 6.4995251 -0.89409566
5.9095993 6.4081469 -0.86165655
5.6294923 6.4080162 -0.84311455
5.3672266 6.4153099 -0.82679474
4.6763573 6.4913549 -0.79080749
4.4423532 6.4912438 -0.77750486
4.2159572 6.4911366 -0.7650798
3.9965625 6.4910312 -0.753479
3.3749511 6.4907336 -0.72313237
3.1783299 6.4906397 -0.71436614
2.9863379 6.4905453 -0.70621735
2.6146483 6.4903622 -0.69164944
2.4342871 6.4902744 -0.68517941
2.257158 6.4901867 -0.67921996
2.082998 6.4900999 -0.67375332
1.9115233 6.4900155 -0.66876054
1.575586 6.4898486 -0.66013151
1.4106543 6.4897656 -0.65646887
0.92537105 6.4895191 -0.64795274
0.28896484 6.401401 -0.63339764
-0.33374023 6.484858 -0.64185154
-0.64856446 6.4846921 -0.64418548
-0.80703121 6.4846091 -0.64592403
-1.6175878 6.4841723 -0.66057891
-1.9542871 6.4839892 -0.66939664
-2.1262305 6.4838939 -0.6744886
-2.3009081 6.4837985 -0.68005764
-2.4785936 6.4836998 -0.6861223
-2.8441894 6.4834986 -0.69982255
-3.4231443 6.4831738 -0.72468191
-3.6257811 6.4830604 -0.73423797
-3.833955 6.4829416 -0.74448884
-4.0481348 6.482821 -0.75547528
-4.4967284 6.4825644 -0.77984726
-6.6727734 6.4869251 -0.91988713
-7.0030174 6.4867306 -0.94355571
-7.718359 6.4863119 -0.99656284
-9.4318895 6.4853001 -1.1314356
-9.7963963 6.3933678 -1.156314
-10.345146 6.4009714 -1.2025027
-11.692012 6.4760275 -1.3211533
-12.387378 6.4756112 -1.3816627
-13.149961 6.4751534 -1.4488672
-15.4554 6.7043591 -1.6652598
-15.601347 6.3248801 -1.6640528
-15.988984 5.1704259 -1.6610407
-16.100555 4.7805772 -1.6601602
-17.697845 4.3377914 -1.8011558
-18.007549 2.6081269 -1.7985612
-18.060463 2.1722651 -1.7980853
-18.160078 0.8597064 -1.7970747
-18.173531 0.42120606 -1.7968774
-18.177109 -0.017439574 -1.7967499
-18.17083 -0.45603943 -1.7966924
-18.154663 -0.89437741 -1.7967048
-18.09272 -1.7694561 -1.7969395
-17.926085 -3.0750363 -1.7978151
-17.850912 -3.5075326 -1.7982464
-17.766035 -3.9383523 -1.7987469
-17.567123 -4.7941217 -1.7999554
-17.329659 -5.6407347 -1.8014392
-15.973808 -6.0663543 -1.6889902
-15.564028 -6.3445511 -1.661368
-15.415351 -6.7221737 -1.6623324
-15.092241 -7.4675503 -1.6644459
-14.344824 -8.9138336 -1.6693993
-15.052583 -10.392621 -1.8080769
-14.508149 -11.087251 -1.804902
-9.595561 -7.7067657 -1.2165333
-13.935298 -11.756565 -1.8021836
-13.638559 -12.081436 -1.8009962
-13.335136 -12.399629 -1.7999234
-12.056924 -13.603373 -1.7967849
-11.721913 -13.886516 -1.796289
-11.034346 -14.430705 -1.7956448
-10.682041 -14.691547 -1.7954955
-9.049262 -15.36893 -1.762949
-8.6647606 -15.563025 -1.7607086
-7.4919872 -16.096701 -1.7550049
-7.0950489 -16.258291 -1.753443
-5.8881149 -16.693907 -1.7497724
-5.4808006 -16.822617 -1.7488883
-4.245615 -17.158945 -1.7472519
-3.4123437 -17.341373 -1.7470087
-2.6067383 -17.723877 -1.7707919
-1.833955 -18.699318 -1.8572341
-1.4050391 -19.04759 -1.8879055
-0.95522457 -19.282152 -1.9083139
-0.49202147 -19.391588 -1.9174101
-0.023984374 -19.431231 -1.9207134
1.3887793 -19.482836 -1.9307007
1.8617187 -19.47736 -1.9340491
3.2827442 -19.392206 -1.9441265
3.7561913 -19.340752 -1.9474896
4.2290916 -19.27771 -1.9508514
4.7011132 -19.203028 -1.9542096
6.1090331 -18.909285 -1.9642425
6.5746484 -18.788111 -1.9675661
7.0379004 -18.655289 -1.970876
8.4105759 -18.187569 -1.9807004
8.861455 -18.008684 -1.9839331
9.7512598 -17.616728 -1.9903219
10.189658 -17.403822 -1.9934744
11.051748 -16.944567 -1.9996829
11.474893 -16.698393 -2.0027351
13.107724 -15.606212 -2.0145459
13.499482 -15.306949 -2.0173883
7.3273435 -7.9149303 -1.0661517
15.345448 -13.661203 -2.0308368
15.690068 -13.303434 -2.0333591
16.025888 -12.936606 -2.0358212
16.352646 -12.560922 -2.0382214
17.275908 -11.383091 -2.0450301
16.675283 -9.3320293 -1.8888526
16.911377 -8.9352722 -1.8906159
15.865546 -7.8990197 -1.7518305
17.753143 -7.288125 -1.896957
18.110107 -6.432354 -1.8996828
18.306894 -6.0088682 -1.9045564
19.834257 -5.9840579 -2.0478368
20.296581 -5.0692992 -2.067879
20.536659 -4.0879731 -2.0698068
20.637568 -3.5926688 -2.0706363
20.862978 -2.0924354 -2.0725808
20.912069 -1.5887469 -2.0730455
20.948105 -1.0838745 -2.0734179
20.970966 -0.57816952 -2.0736976
20.980713 -0.071972653 -2.0738842
20.888115 1.9503088 -2.0736997
20.832148 2.4534326 -2.0734208
20.763153 2.9548717 -2.0730491
20.586288 3.9512353 -2.0720291
20.478563 4.4454355 -2.0713818
18.74667 4.5457883 -1.9067434
18.187403 6.3196459 -1.9031982
18.019922 6.7530189 -1.9021759
15.949492 6.4202161 -1.6994814
13.253789 6.4856544 -1.4585389
12.480918 6.4853101 -1.3903046
11.776738 6.4849949 -1.3289138
10.987793 6.4008541 -1.2569568
10.565801 6.5014696 -1.2262764
10.015615 6.5012217 -1.1802889
9.5049114 6.5009899 -1.1382645
9.0290432 6.5007763 -1.0997497
8.5840912 6.5005736 -1.0643533
7.7737889 6.500205 -1.0016434
7.0520701 6.4998755 -0.9479987
6.7190623 6.4997215 -0.92405391
6.4022655 6.4995751 -0.90180087
5.2637987 6.4916306 -0.82611388
4.5265722 6.4912839 -0.78223944
4.2974806 6.4911752 -0.7695024
3.8603613 6.4909678 -0.74650222
3.2493162 6.4906726 -0.71748275
3.0556738 6.4905796 -0.70911193
2.6811328 6.4903965 -0.69413406
1.9736133 6.4900475 -0.67052281
1.8037012 6.4899621 -0.66582227
1.6360546 6.4898791 -0.66156888
1.3066308 6.4897132 -0.65435714
0.82391602 6.4894662 -0.64660811
0.50047851 6.4015098 -0.63469547
0.036474608 6.4850521 -0.64103246
-0.12002929 6.484972 -0.64112425
-0.27667969 6.4848876 -0.64158905
-1.0684375 6.4844675 -0.64960748
-1.8923534 6.4840231 -0.66765916
-2.063369 6.4839292 -0.67258114
-2.2370214 6.4838343 -0.677975
-3.1549315 6.4833241 -0.71270138
-3.757539 6.4829845 -0.74067622
-4.5896778 6.4043446 -0.77882612
-5.4005857 6.4876623 -0.83439499
-5.6709962 6.4875059 -0.85173315
-6.880918 6.4868031 -0.93474227
-7.5822897 6.4863915 -0.98630923
-8.367485 6.485929 -1.0464762
-8.7976513 6.4856749 -1.080381
-9.7488718 6.4851122 -1.1573777
-10.132631 6.3931689 -1.184279
-11.453847 6.4761682 -1.3006172
-12.127149 6.4757667 -1.3589287
-12.864077 6.475327 -1.4235774
-13.675156 6.4748402 -1.4956013
-15.946196 5.3116879 -1.6613764
-16.060991 4.9226866 -1.6604733
-16.166914 4.5313988 -1.6596326
-17.757553 4.0644922 -1.8006697
-17.91955 3.2006316 -1.799322
-17.985859 2.7664142 -1.7987515
-18.042353 2.3309593 -1.7982504
-18.125792 1.4571381 -1.7974565
-18.1527 1.019165 -1.797164
-18.176949 0.14214844 -1.7967883
-18.106909 -1.6104919 -1.7968761
-18.06477 -2.0471511 -1.7970728
-18.012764 -2.4828262 -1.7973393
-17.950981 -2.9173028 -1.7976755
-17.706947 -4.2114682 -1.7991015
-17.606195 -4.6390872 -1.7997149
-17.246078 -5.9078503 -1.8019685
-16.389849 -6.0602422 -1.7272867
-15.615976 -6.2064123 -1.6610326
-15.316279 -6.9607267 -1.6629782
-15.153544 -7.3329763 -1.6640432
-14.982328 -7.7017117 -1.6651694
-14.614643 -8.4279013 -1.6676025
-14.21373 -9.1377792 -1.670275
-14.00104 -9.4861774 -1.6716992
-14.882548 -10.616277 -1.8070174
-14.609297 -10.962736 -1.8054461
-14.041553 -11.636734 -1.8026443
-11.161133 -14.333933 -1.7957275
-10.81083 -14.597501 -1.7955366
-10.455024 -14.853503 -1.7954614
-9.1883297 -15.296327 -1.7638059
-8.4184132 -15.682287 -1.7593719
-8.0285835 -15.86314 -1.7574089
-7.6356592 -16.035873 -1.7556154
-7.2397752 -16.200447 -1.7539916
-6.4396873 -16.505068 -1.7512517
-5.6292381 -16.776745 -1.7491904
-5.2204685 -16.900194 -1.7484138
-4.8094625 -17.015339 -1.7478067
-4.3963962 -17.122139 -1.7473693
-3.5644727 -17.310682 -1.7470024
-2.7359862 -17.531981 -1.7539539
-1.9831933 -18.543402 -1.8434074
-1.5640723 -18.935806 -1.8781161
-1.1209472 -19.212593 -1.9023312
-0.19444336 -19.418104 -1.91951
1.6896093 -19.480677 -1.9328303
3.1104295 -19.408051 -1.9429034
5.0008302 -19.1495 -1.9563431
8.2456732 -18.249834 -1.9795184
8.6978512 -18.075075 -1.9827595
9.1462984 -17.88891 -1.9859768
10.030684 -17.482592 -1.9923309
10.466074 -17.262541 -1.9954637
11.741113 -16.53611 -2.004657
12.154853 -16.272224 -2.0076468
12.963437 -15.712526 -2.0135
13.357754 -15.417003 -2.0163598
13.745058 -15.111252 -2.0191722
14.861679 -14.13413 -2.0273025
15.565683 -13.434646 -2.0324481
15.904756 -13.071094 -2.0349326
16.234833 -12.698598 -2.0373554
16.555702 -12.317419 -2.0397153
16.867031 -11.927766 -2.0420094
17.168642 -11.529863 -2.0442369
17.74169 -10.710298 -2.0484831
17.683594 -7.441638 -1.8964291
17.871426 -7.0180445 -1.8978572
18.214384 -6.1561723 -1.9004852
19.252743 -5.9935269 -1.9931494
20.104042 -5.7302256 -2.0663626
20.24749 -5.2463121 -2.0674906
20.378466 -4.7586031 -2.068531
20.695137 -3.2761891 -2.0711172
20.841885 -2.2753072 -2.0723889
20.936504 -1.2676666 -2.0732932
20.96419 -0.76220763 -2.0736065
20.97871 -0.25617066 -2.0738273
20.968281 0.75633788 -2.0739892
20.854023 2.2705822 -2.0735331
20.789795 2.7726593 -2.0731952
20.712528 3.272835 -2.0727649
20.622353 3.7707324 -2.0722425
18.669981 4.8318491 -1.9062674
18.398594 5.7218103 -1.9045537
18.081387 6.5956116 -1.9024786
16.319462 6.4032273 -1.7328478
15.426435 6.4866199 -1.654171
14.439941 6.4861827 -1.5647217
12.753593 6.4854307 -1.4142835
12.025605 6.4851074 -1.3505205
10.60958 6.4006858 -1.2247859
9.6864548 6.5010738 -1.1531272
8.3155174 6.5004525 -1.0433041
7.9140234 6.5002708 -1.0123215
7.1775684 6.4999328 -0.95716107
6.8382516 6.4997764 -0.93256193
5.8320799 6.4081101 -0.85647881
5.555254 6.4079809 -0.83829403
5.3303514 6.4569907 -0.82763124
5.1005759 6.4915538 -0.81604278
4.8517871 6.4914379 -0.80107331
4.6118259 6.4913244 -0.78709263
4.379951 6.4912143 -0.77403533
3.9379296 6.4910045 -0.75045317
3.7266405 6.4909019 -0.73982769
3.3209081 6.4907079 -0.72068173
3.1256053 6.4906125 -0.71208662
2.9347851 6.49052 -0.70410055
2.748086 6.4904284 -0.69669175
2.0360351 6.490078 -0.67234677
1.5304883 6.4898252 -0.65909117
1.3660351 6.4897423 -0.65554243
1.2032715 6.4896593 -0.65241134
1.0419433 6.4895802 -0.64968479
0.88187498 6.4894967 -0.64735806
0.71307617 6.4016199 -0.63668972
0.55706054 6.4015379 -0.6351589
0.40169922 6.4014597 -0.63400418
0.24696289 6.4053869 -0.63361835
-0.53376955 6.4847531 -0.6431607
-1.0100487 6.4844995 -0.6486975
-1.1709472 6.4844112 -0.65132695
-1.4971777 6.4842358 -0.65780473
-2.0008593 6.4839621 -0.67073709
-2.348994 6.4837718 -0.68165982
-2.5275488 6.4836731 -0.68786228
-2.709502 6.4835715 -0.6945889
-2.8951561 6.483469 -0.70185852
-3.0848436 6.4833641 -0.70970196
-3.2789257 6.4832544 -0.71814358
-3.4778223 6.4831419 -0.72721875
-3.8916698 6.4829102 -0.74740535
-4.7359471 6.3986449 -0.78688091
-4.979238 6.3985047 -0.80140728
-5.3048825 6.4877172 -0.82837975
-5.5713181 6.4875622 -0.845285
-5.8490233 6.4874034 -0.86340714
-6.1390328 6.4872351 -0.88284832
-6.7610741 6.4868722 -0.92616242
-7.0959373 6.4866772 -0.95031112
-7.4489694 6.4864697 -0.97633678
-7.8220992 6.4862509 -1.0044332
-9.0862446 6.4855042 -1.1034646
-9.565835 6.4852209 -1.1423653
-11.222954 6.476306 -1.2808055
-12.588022 6.475492 -1.3992645
-13.370747 6.4750233 -1.4684718
-15.344975 6.9791002 -1.6663104
-15.77541 5.8381991 -1.6627077
-15.902236 5.4525952 -1.6617203
-17.813339 3.7904162 -1.800211
-17.892982 3.3582361 -1.7995467
-17.962881 2.9245288 -1.798951
-18.02294 2.4895196 -1.7984246
-18.073168 2.0533686 -1.7979677
-18.175484 0.30172423 -1.7968358
-18.119799 -1.451408 -1.7968218
-18.032818 -2.3244646 -1.7972343
-17.97459 -2.759388 -1.7975451
-17.906557 -3.1929889 -1.7979257
-17.828783 -3.6250601 -1.7983756
-17.643959 -4.4837708 -1.7994839
-15.674179 -6.0707417 -1.661491
-15.52438 -6.4477115 -1.6616247
-15.213725 -7.1979599 -1.6636488
-14.490673 -8.6555424 -1.6684271
-14.289091 -9.0099401 -1.6697712
-14.980146 -10.488669 -1.8076178
-14.709556 -10.837412 -1.8060044
-14.431777 -11.179902 -1.8045051
-9.5193453 -7.7490396 -1.2133037
-13.251318 -12.485103 -1.7996515
-12.939526 -12.794648 -1.7987249
-12.29687 -13.392803 -1.7972184
-11.96626 -13.681215 -1.7966385
-11.629634 -13.962376 -1.7961742
-11.287144 -14.23616 -1.7958257
-10.938945 -14.502504 -1.7955927
-10.200869 -14.975704 -1.7910906
-9.7054195 -15.01468 -1.767218
-9.3269043 -15.222658 -1.7646852
-8.9448633 -15.422605 -1.7623217
-8.559453 -15.614482 -1.760128
-8.1707668 -15.79829 -1.7581033
-7.778955 -15.973961 -1.7562485
-7.3841553 -16.141531 -1.7545624
-6.986455 -16.300894 -1.7530465
-6.5860057 -16.452097 -1.7516998
-6.1829686 -16.595051 -1.7505227
-5.369463 -16.856249 -1.7486764
-3.7163379 -17.278891 -1.7470186
-1.4595703 -7.683691 -0.77308792
-2.8786817 -17.43996 -1.7472055
-2.5080371 -17.867826 -1.783489
-0.83013672 -19.327053 -1.9121791
0.10377929 -19.440067 -1.9216158
0.5738281 -19.465527 -1.9249367
1.045205 -19.479664 -1.9282696
2.4642577 -19.453913 -1.9383192
2.9380372 -19.422375 -1.9416798
3.8850877 -19.324711 -1.9484056
4.3577733 -19.258509 -1.9517664
5.2999706 -19.091225 -1.9584739
5.7689352 -18.990147 -1.9618167
6.2360644 -18.877405 -1.9651492
6.7010741 -18.753084 -1.9684691
7.1636424 -18.61713 -1.9717748
7.6234665 -18.469616 -1.9750637
9.8711424 -17.559845 -1.9911838
10.308251 -17.343904 -1.9943277
11.167548 -16.878599 -2.0005178
11.58916 -16.629465 -2.0035598
12.414834 -16.098793 -2.0095272
13.215088 -15.525701 -2.0153246
13.60498 -15.223677 -2.0181544
15.440146 -13.56469 -2.0315294
15.782412 -13.204418 -2.0340357
16.754852 -12.0705 -2.0411823
17.060049 -11.675565 -2.0434341
17.915312 -10.443251 -2.0497744
16.740547 -9.2245884 -1.8893396
17.612568 -7.5944281 -1.895891
17.804325 -7.1727276 -1.8973461
17.985302 -6.7459226 -1.8987266
18.155293 -6.314342 -1.9000301
20.196709 -5.422832 -2.06709
20.332266 -4.9364567 -2.0681624
20.455185 -4.4465098 -2.0691466
20.565399 -3.9533391 -2.0700414
20.66287 -3.4572825 -2.0708468
20.819061 -2.4579384 -2.072185
20.923174 -1.4513128 -2.0731561
20.955614 -0.94621456 -2.073503
20.981073 0.065934449 -2.0739188
20.974081 0.57221067 -2.0739875
20.814697 2.5902131 -2.073329
20.742147 3.0911267 -2.072932
20.558241 4.0861535 -2.0718622
19.955557 4.4694748 -2.0214071
18.714424 4.6684046 -1.9065439
18.302694 6.0016589 -1.9039401
17.97291 6.8704758 -1.9019418
15.811602 6.4857993 -1.6892995
13.865829 6.4859276 -1.5131232
11.595508 6.4849143 -1.3132466
10.823438 6.4007812 -1.2429401
9.8728218 6.5011573 -1.1684713
8.9049511 6.50072 -1.0898141
8.467803 6.5005212 -1.0552093
7.6707029 6.5001583 -0.99384606
7.3055172 6.49999 -0.96657711
6.9596481 6.4998326 -0.94129926
6.6312203 6.4996815 -0.91783005
6.3185935 6.499537 -0.89601332
5.391367 6.4153209 -0.82832474
4.9412403 6.4914794 -0.80640179
4.698154 6.4913645 -0.79206926
3.3931541 6.4907422 -0.72396427
3.1961033 6.4906468 -0.71514106
2.8155663 6.4904613 -0.69932181
2.6313086 6.4903708 -0.69226778
2.4506445 6.4902821 -0.68575042
2.0988085 6.4901085 -0.67423379
1.9270898 6.4900241 -0.66919738
1.7578223 6.4899402 -0.66462094
1.4256543 6.4897714 -0.65678525
1.2622949 6.4896898 -0.65350378
1.1004785 6.4896078 -0.65063053
0.78061521 6.4894443 -0.64608192
0.61373043 6.4015684 -0.63567191
0.45815429 6.4014878 -0.63438094
0.30311522 6.4014087 -0.63346344
0.14853515 6.4053354 -0.63331312
-0.3194043 6.4848657 -0.64178091
-0.63413084 6.4846997 -0.64404553
-1.1122558 6.4844446 -0.65032363
-1.9386914 6.4839964 -0.66895461
-2.4622169 6.4837093 -0.6855467
-3.0153418 6.4834018 -0.7067799
-4.0282812 6.482832 -0.75443828
-4.2483888 6.4827061 -0.76613504
-4.8896875 6.3985572 -0.79600745
-5.1387987 6.3984132 -0.81118131
-5.7466211 6.4874606 -0.85666668
-6.3305273 6.487124 -0.89595628
-6.9720898 6.4867492 -0.94131839
-7.3183203 6.4865465 -0.96663922
-8.4819632 6.4858618 -1.055439
-9.7682467 6.4057775 -1.1546581
-11.631479 6.4760633 -1.3159279
-12.321137 6.4756503 -1.3758671
-13.077153 6.4751987 -1.4424145
-15.441772 6.7389779 -1.6653901
-15.588301 6.3596778 -1.6641532
-15.72707 5.9778271 -1.6630822
-15.857114 5.5931969 -1.6620724
-17.688965 4.3770008 -1.8012278
-17.781929 3.9472253 -1.8004698
-17.938599 3.0825 -1.7991596
-18.002211 2.6479266 -1.7986082
-18.100004 1.775418 -1.7977129
-18.134092 1.3378875 -1.79737
-18.158335 0.89978206 -1.7970964
-18.177197 0.022655029 -1.7967587
-18.156513 -0.85432553 -1.796701
-18.131416 -1.2922589 -1.7967767
-18.09642 -1.729538 -1.7969226
-17.996908 -2.60129 -1.797424
-17.858189 -3.4680431 -1.7982042
-17.774195 -3.8990405 -1.7986982
-17.680498 -4.328155 -1.7992615
-17.57707 -4.755188 -1.7998942
-17.464014 -5.1799655 -1.8005955
-17.341362 -5.6022582 -1.8013654
-16.076586 -6.0648465 -1.6984375
-15.577197 -6.3098941 -1.6612829
-15.272802 -7.0624542 -1.6632621
-15.107759 -7.4337659 -1.6643438
-14.934237 -7.8015122 -1.6654865
-14.561962 -8.5255518 -1.6679527
-14.533642 -11.056046 -1.8050374
-9.6212158 -7.6925311 -1.2176321
-13.962085 -11.726545 -1.8022979
-13.665986 -12.051987 -1.8011001
-13.363164 -12.370811 -1.8000166
-12.415639 -13.28609 -1.7974582
-11.752788 -13.860923 -1.7963297
-11.412397 -14.137407 -1.7959393
-11.066259 -14.406474 -1.7956643
-9.8487253 -14.946904 -1.7693489
-9.4650192 -15.147934 -1.7655869
-9.0842819 -15.350783 -1.7631621
-5.9252243 -16.68173 -1.7498618
-4.6971579 -17.045256 -1.7476709
-3.8679881 -17.245955 -1.7470578
-3.4506152 -17.333763 -1.747005
-3.0315526 -17.413145 -1.7471218
-2.6394823 -17.675402 -1.7665286
-2.2703612 -18.200245 -1.8129783
-1.8718262 -18.661455 -1.8538792
-0.99708003 -19.266964 -1.907022
-0.53468746 -19.387405 -1.917109
0.40268552 -19.457561 -1.9237273
0.87360352 -19.475813 -1.927056
1.3455762 -19.482765 -1.9303949
1.8184472 -19.478333 -1.9337426
2.291914 -19.462521 -1.9370974
3.7129588 -19.345943 -1.9471823
4.1858888 -19.283953 -1.9505441
5.1289845 -19.125126 -1.9572558
7.4564939 -18.524626 -1.973869
8.3691597 -18.203373 -1.9804034
9.2677441 -17.836241 -1.9868487
10.149776 -17.42375 -1.9931875
10.583828 -17.200684 -1.9963115
11.012852 -16.966516 -1.9994025
11.436445 -16.721334 -2.0024576
11.854414 -16.465288 -2.0054755
13.463955 -15.334748 -2.0171306
7.3281641 -7.9509497 -1.0688237
14.597343 -14.379198 -2.0253747
15.995556 -12.970495 -2.0355988
16.323183 -12.595644 -2.0380046
17.249052 -11.420074 -2.0448313
17.53793 -11.012029 -2.0469708
17.816553 -10.59634 -2.0490398
16.890196 -8.9718056 -1.8904575
15.879833 -7.9499063 -1.755385
17.540127 -7.7465329 -1.8953428
18.094717 -6.4718671 -1.8995647
18.257685 -6.0373502 -1.9008193
19.685106 -5.9864902 -2.0337923
20.144316 -5.5988202 -2.066678
20.718153 -3.1403701 -2.071312
20.857841 -2.1383965 -2.0725338
20.908144 -1.6348419 -2.0730071
20.945351 -1.1300524 -2.0733876
20.969442 -0.62440187 -2.0736759
20.962763 0.89413452 -2.0739822
