# .PCD v0.7 - Point Cloud Data file format
VERSION 0.7
FIELDS x y z
SIZE 4 4 4
TYPE F F F
COUNT 1 1 1
WIDTH 1498
HEIGHT 1
VIEWPOINT 0 0 0 1 0 0 0
POINTS 1498
DATA ascii
-9.4644871 -5.7533865 -1.8566957
-9.3276024 -5.9829392 -1.8576171
-8.4986324 -6.0488229 -1.7486453
-8.1816893 -6.1258116 -1.713342
-8.0362206 -6.3250046 -1.7143317
-7.886035 -6.5208745 -1.715356
-7.7312207 -6.7133117 -1.7164139
-7.5718846 -6.902204 -1.7175047
-7.2398434 -7.2689395 -1.7197844
-7.0673046 -7.4465737 -1.7209719
-6.8905272 -7.6202435 -1.7221906
-6.7095995 -7.7898717 -1.7234399
-6.1428123 -8.2733583 -1.7273643
-5.9461813 -8.4257679 -1.7287294
-5.7458787 -8.5736217 -1.7301217
-5.5419431 -8.7168465 -1.7315408
-5.3345604 -8.8553591 -1.7329859
-4.9097166 -9.1178818 -1.7359506
-4.6924706 -9.2417164 -1.7374692
-4.472168 -9.3604908 -1.7390107
-4.2489548 -9.4741373 -1.740574
-4.3686719 -10.406254 -1.8919084
-3.0084081 -7.6799998 -1.3826635
-3.8689549 -10.624485 -1.8954169
-3.6149902 -10.724791 -1.8972024
-3.3584764 -10.819146 -1.8990076
-2.8383105 -10.989677 -1.9026726
-2.3095996 -11.135561 -1.9064047
-2.0423632 -11.199117 -1.9082932
-1.5029492 -11.307139 -1.9121101
-0.40836912 -11.445623 -1.9198742
-0.13235351 -11.463856 -1.9218359
0.42147461 -11.480397 -1.9257766
0.69896483 -11.478653 -1.9277536
0.97660154 -11.470221 -1.9297333
1.2542382 -11.455082 -1.9317142
1.5317187 -11.433214 -1.9336957
2.636709 -11.278424 -1.9416021
3.4556444 -11.091744 -1.9474784
3.7258399 -11.016158 -1.9494206
3.9943945 -10.933908 -1.9513526
4.2611232 -10.845063 -1.9532729
4.7884569 -10.647658 -1.9570751
5.3064551 -10.424253 -1.9608166
5.5615625 -10.302931 -1.9626619
5.353457 -9.3698559 -1.8089929
6.8944626 -8.3886223 -1.8201975
7.6951852 -7.7102027 -1.8260585
7.884912 -7.5281219 -1.8274521
8.2509279 -7.1496634 -1.8301471
8.5981054 -6.7529302 -1.8327125
8.7643747 -6.5480003 -1.8339443
9.0815821 -6.1256089 -1.8363022
9.4024801 -6.0173101 -1.8712902
10.335645 -5.9322248 -1.9976834
10.621152 -5.4327631 -1.999833
10.754462 -5.1776447 -2.0008419
10.881454 -4.9191194 -2.0018065
11.223281 -4.1249514 -2.0044262
11.417744 -3.5816412 -2.0059378
11.504726 -3.3063605 -2.0066214
11.723916 -2.4680927 -2.0083776
11.834706 -1.9007604 -2.009299
11.916865 -1.3283166 -2.0100174
11.947109 -1.0406713 -2.0102997
11.970117 -0.75232112 -2.0105307
11.98584 -0.46343076 -2.0107098
11.994307 -0.17424498 -2.0108376
11.99544 0.11508606 -2.0109129
11.975918 0.69340515 -2.0109084
11.892118 1.5570959 -2.0105126
11.849707 1.8432592 -2.010277
11.800117 2.1282048 -2.0099902
11.608643 2.9740307 -2.0088234
11.530723 3.2523444 -2.008333
11.445829 3.5285382 -2.0077927
11.354082 3.8024395 -2.0072031
11.150136 4.3426642 -2.0058761
10.055176 4.4859843 -1.8457066
9.818779 4.9614248 -1.8441336
9.6917868 5.1943889 -1.8432832
9.4206829 5.6501212 -1.8414584
9.1274414 6.0912371 -1.8394723
8.8128119 6.5166764 -1.8373305
8.4785452 6.926115 -1.8352212
7.5766797 6.5003095 -1.6734658
6.8756151 6.500021 -1.586085
6.5514841 6.4998856 -1.5470352
6.242754 6.4997578 -1.5107214
5.6659961 6.4995136 -1.4454018
5.1358886 6.4992876 -1.3885933
4.127666 6.4076529 -1.2776958
3.916748 6.4149747 -1.2599486
3.7514551 6.4912653 -1.2567892
2.9576268 6.4909077 -1.1957111
2.2309375 6.4905682 -1.1504992
2.0572753 6.4904861 -1.1413554
1.5510839 6.490242 -1.1186062
1.3865039 6.4901628 -1.1125031
1.2236133 6.4900823 -1.1071074
0.90205073 6.4899235 -1.0983723
0.74297851 6.4898429 -1.0950063
-0.51353514 6.4891934 -1.0911916
-0.67136717 6.4891105 -1.0935832
-1.1347754 6.4010735 -1.0897497
-1.2947071 6.4009867 -1.0947343
-1.8081542 6.4844804 -1.1284689
-2.3250878 6.4841886 -1.1547199
-2.5031347 6.4840884 -1.1651163
-3.058584 6.4837666 -1.2017442
-3.2519629 6.483654 -1.2159104
-3.4500585 6.4835391 -1.2311398
-3.8621581 6.483294 -1.2650272
-4.0770702 6.4831681 -1.2838196
-4.5273242 6.4828973 -1.3255033
-4.763906 6.4827557 -1.3485829
-5.0089746 6.4826069 -1.3732895
-5.803535 6.4821196 -1.4584789
-6.076201 6.4658661 -1.4873693
-6.3098536 6.3980255 -1.5063432
-7.7132125 6.7646694 -1.719797
-8.0192776 6.375988 -1.7174087
-8.3070412 5.9743986 -1.7152656
-8.4436913 5.7688861 -1.7142445
-8.5754299 5.5603595 -1.7132577
-9.1584911 4.4767108 -1.7088525
-9.635273 4.4251399 -1.7773775
-10.257919 4.1244206 -1.8533435
-10.350395 3.8743122 -1.8526266
-10.437007 3.6222332 -1.8519511
-10.592525 3.1126873 -1.8507247
-10.661343 2.8554418 -1.8501748
-10.831704 2.0756292 -1.8487797
-10.876396 1.8133972 -1.8484004
-10.914966 1.5502752 -1.8480644
-10.994042 0.75677979 -1.8473165
-11.00814 0.49136838 -1.8471544
-11.016069 0.22572388 -1.8470361
-11.013515 -0.30575317 -1.8469305
-10.963598 -1.1012872 -1.8471007
-10.934697 -1.3655145 -1.8472451
-10.899693 -1.6289996 -1.8474333
-10.858599 -1.8916333 -1.8476647
-10.81143 -2.1532855 -1.8479398
-10.698955 -2.6731217 -1.8486199
-10.633696 -2.9310133 -1.8490248
-10.562485 -3.187387 -1.8494723
-10.485297 -3.4421396 -1.8499627
-10.402222 -3.6950817 -1.8504956
-10.3133 -3.9461052 -1.8510705
-10.117978 -4.4419055 -1.8523463
-9.6588764 -5.4048047 -1.8553922
-9.1597948 -6.0342417 -1.8387179
-8.7101173 -6.0442009 -1.7772058
-8.2890921 -6.0533619 -1.720598
-7.9608493 -6.4244757 -1.7148454
-7.6512008 -6.8092957 -1.7169614
-7.4895992 -6.9963446 -1.718069
-7.1531153 -7.3592529 -1.7203811
-6.9784179 -7.5349059 -1.7215844
-6.4295406 -8.0373764 -1.725377
-6.2385936 -8.1963949 -1.7266999
-6.0438375 -8.350997 -1.7280513
-5.8453417 -8.5011044 -1.7294301
-5.6432028 -8.6466389 -1.7308358
-4.8002539 -9.1811171 -1.7367157
-4.3596778 -9.4186134 -1.7397984
-4.4904099 -10.348762 -1.8910546
-3.9934666 -10.572727 -1.8945421
-3.7408299 -10.675961 -1.8963174
-2.9676952 -10.949808 -1.9017605
-2.7053905 -11.028923 -1.9036103
-2.4409862 -11.101841 -1.9054767
-1.9065624 -11.228838 -1.9092535
-1.3656055 -11.330393 -1.9130828
-1.0930469 -11.371506 -1.9150147
-0.81929684 -11.406117 -1.9169564
0.28443357 -11.478774 -1.924801
0.56176758 -11.480344 -1.9267761
1.3945996 -11.444868 -1.9327164
1.671914 -11.419595 -1.9346974
2.5008006 -11.303376 -1.9406283
2.7754881 -11.251182 -1.942597
3.8618748 -10.975389 -1.9503992
4.3952537 -10.797631 -1.9542395
5.1793747 -10.481866 -1.959898
5.23915 -9.4286995 -1.808165
5.470078 -9.3081942 -1.8098379
5.6981931 -9.1819477 -1.811492
5.9233298 -9.0500097 -1.8131263
6.1453028 -8.9124393 -1.8147393
5.8334961 -7.6434307 -1.6118118
6.9992089 -8.3074036 -1.8209623
7.4037008 -7.9731584 -1.823921
7.5997949 -7.7984095 -1.8253585
7.9791894 -7.4341936 -1.8281455
8.340517 -7.0510354 -1.8308084
8.8465137 -6.4427319 -1.834554
9.1685247 -6.0228486 -1.838887
9.650547 -6.0113921 -1.9059223
10.169024 -5.9988809 -1.9791614
10.552891 -5.557579 -1.9993178
10.689345 -5.3041606 -2.0003488
10.943203 -4.7871552 -2.0022771
11.546094 -3.1662817 -2.0069485
11.692158 -2.6073549 -2.0081191
11.754609 -2.3252068 -2.0086296
11.809999 -2.0414782 -2.0090902
11.858212 -1.7564209 -2.0094998
11.899219 -1.47018 -2.0098586
11.933066 -1.1829541 -2.0101664
11.993281 0.26141357 -2.0109315
11.966387 0.83940977 -2.0108745
11.910419 1.4153008 -2.0106099
11.871572 1.7019591 -2.0104001
11.772324 2.2717853 -2.0098257
11.570117 3.1150286 -2.0085819
11.488662 3.3922906 -2.0080659
11.305058 3.9400396 -2.006886
11.025478 4.4497395 -1.9930677
10.342216 4.4669952 -1.8884844
9.9974995 4.6073613 -1.845324
9.8794041 4.8450751 -1.8445382
9.2019234 5.9836321 -1.8399779
7.7621484 6.5003848 -1.6971923
6.7096872 6.4999528 -1.5659819
6.3935251 6.4998212 -1.5283453
6.0920215 6.4996939 -1.4933212
5.2630076 6.4993424 -1.4019104
4.2366405 6.4077005 -1.2876867
3.8100781 6.414927 -1.2507153
3.6465428 6.4912186 -1.2480742
3.2450585 6.4910378 -1.2165003
2.8625195 6.4908648 -1.1891812
2.6774218 6.490777 -1.1769903
2.1427636 6.4905267 -1.1457735
1.1418066 6.4900432 -1.1046414
0.82148433 6.489882 -1.096588
0.3478418 6.4896441 -1.0894279
0.19103515 6.489562 -1.0883242
-0.43577147 6.489234 -1.0902479
-0.89824218 6.4012017 -1.0835537
-1.0562207 6.4011164 -1.0875363
-1.2154785 6.4010282 -1.0921867
-1.377041 6.4049492 -1.0982033
-1.5587012 6.4846196 -1.1179858
-1.8936719 6.4844317 -1.1323974
-2.0646386 6.4843364 -1.1407474
-2.4147265 6.4841385 -1.1598696
-2.777627 6.4839301 -1.1824433
-2.9646289 6.4838223 -1.1951171
-3.1558106 6.4837103 -1.2087789
-3.3515234 6.4835968 -1.2234752
-3.5521679 6.4834781 -1.239264
-3.7582128 6.483356 -1.2562063
-3.9700584 6.4832315 -1.2743685
-4.188242 6.4831009 -1.2938268
-4.4133396 6.4829669 -1.3146652
-4.645947 6.4828253 -1.3369775
-4.8867283 6.4826798 -1.3608651
-5.1363964 6.4825287 -1.3864424
-5.6658397 6.4822049 -1.4431964
-6.1666017 6.4037285 -1.4902655
-6.4655662 6.3979287 -1.5247778
-6.8799024 6.4870672 -1.5851167
-7.9452438 6.4732108 -1.7179587
-8.0938673 6.2756658 -1.7168542
-8.2377052 6.0748382 -1.7157829
-8.3767576 5.8708525 -1.714745
-8.5108986 5.6638031 -1.7137413
-8.7643948 5.2409601 -1.7118374
-8.883584 5.0254202 -1.7109383
-8.9976416 4.8072772 -1.710075
-9.3581152 4.4336982 -1.7358804
-10.628071 2.9827759 -1.8504413
-10.693862 2.7248046 -1.8499126
-10.753633 2.4654565 -1.8494265
-10.807387 2.2048614 -1.8489832
-10.932173 1.4169134 -1.8479109
-10.961548 1.1526746 -1.84764
-11.001933 0.62259763 -1.847229
-11.016436 -0.17442687 -1.8469403
-11.008969 -0.44006103 -1.8469316
-10.995371 -0.70545286 -1.8469666
-10.97562 -0.9704687 -1.8470457
-10.949756 -1.235 -1.8471683
-10.917759 -1.4988537 -1.8473349
-10.879678 -1.7619275 -1.8475448
-10.835498 -2.0240872 -1.8477985
-10.785274 -2.2852094 -1.8480953
-10.598423 -3.0608644 -1.8492459
-10.524194 -3.3164465 -1.8497149
-10.444043 -3.5702803 -1.8502269
-9.9557667 -4.8091321 -1.8534162
-9.7204781 -5.2880688 -1.8549807
-9.3260155 -5.9855418 -1.8576279
-8.4938278 -6.0489283 -1.7479974
-8.1800489 -6.1280994 -1.7133533
-6.8884864 -7.6222162 -1.7222047
-6.5224805 -7.9571862 -1.7247337
-6.1405859 -8.275136 -1.7273797
-5.7435641 -8.5752754 -1.7301377
-4.9072556 -9.1193066 -1.7359679
-4.6899705 -9.2431011 -1.7374867
-3.3555467 -10.8202 -1.8990282
-2.8353026 -10.990585 -1.9026939
-2.3065526 -11.136328 -1.9064261
-0.40522459 -11.445874 -1.9198965
-0.12919922 -11.464011 -1.9218583
0.42465818 -11.480401 -1.9257994
0.70211911 -11.478594 -1.9277761
0.97974604 -11.470099 -1.9297556
1.2574121 -11.454877 -1.9317367
1.5348828 -11.432929 -1.9337182
1.8120117 -11.404254 -1.9356989
2.0886621 -11.368842 -1.9376776
2.3646972 -11.326695 -1.9396533
2.6398339 -11.277822 -1.9416244
3.1870215 -11.159931 -1.9455492
3.4587598 -11.090925 -1.9475008
3.7289257 -11.015255 -1.9494427
3.9974608 -10.932938 -1.9513748
4.2641602 -10.844015 -1.953295
5.3093748 -10.422909 -1.9608377
5.3564353 -9.3684778 -1.8090144
6.0359669 -8.9811411 -1.8139447
6.2563572 -8.8407507 -1.8155471
7.1029782 -8.224823 -1.8217207
7.5033884 -7.8854132 -1.8246515
7.6973629 -7.7081628 -1.8260745
8.0722952 -7.3390698 -1.8288308
8.2529593 -7.14745 -1.8301623
8.4289064 -6.9512582 -1.8314612
8.6000586 -6.7506008 -1.832727
8.7662497 -6.5456295 -1.8339584
8.9273634 -6.3364334 -1.8351547
9.0833588 -6.1231546 -1.8363153
9.4080172 -6.0171781 -1.8720603
9.9078808 -6.0052052 -1.9421352
10.337334 -5.9294219 -1.9976959
10.755938 -5.1746964 -2.0008533
10.88288 -4.9161525 -2.0018175
11.00331 -4.654387 -2.0027361
11.117216 -4.3895569 -2.0036092
11.224463 -4.1218643 -2.0044353
11.585654 -3.0256891 -2.0072632
11.783525 -2.1818993 -2.0088689
11.835254 -1.8974838 -2.0093036
11.879853 -1.6118023 -2.0096877
11.970342 -0.74901181 -2.0105331
11.994355 -0.17094544 -2.0108385
11.99544 0.11840698 -2.0109136
11.989228 0.40767637 -2.0109367
11.975742 0.69669616 -2.0109079
11.954961 0.98527706 -2.0108271
11.849179 1.8465154 -2.0102742
11.799521 2.1314459 -2.0099869
11.678779 2.6969934 -2.0092583
11.607783 2.977216 -2.0088179
11.529814 3.2555065 -2.0083272
11.352988 3.8055682 -2.0071959
11.254316 4.0769649 -2.0065563
10.670839 4.4587212 -1.9386448
9.9385738 4.7279596 -1.8449326
9.8173733 4.9640961 -1.8441241
9.6903028 5.1970234 -1.8432733
9.2751169 5.8750849 -1.8404739
8.9709272 6.3084269 -1.8384081
8.6461029 6.72575 -1.836246
8.4765921 6.9283991 -1.8352091
7.5724216 6.500308 -1.6729252
6.5478711 6.4998846 -1.5466058
6.2392969 6.4997549 -1.5103185
5.3926072 6.4993973 -1.4156924
4.3473339 6.4077497 -1.29802
4.1251559 6.4076519 -1.2774676
3.9143066 6.4149737 -1.2597361
3.543076 6.4911723 -1.2396641
3.3424022 6.4910822 -1.2238892
3.1466699 6.490994 -1.2092072
2.9554687 6.4909062 -1.195562
2.7684374 6.4908185 -1.1829002
2.5852051 6.4907341 -1.1711763
2.4054785 6.4906497 -1.1603526
2.2289355 6.4905667 -1.1503896
1.7156738 6.4903226 -1.125351
0.58297849 6.4897614 -1.0922662
0.42548826 6.4896817 -1.0902091
0.1118457 6.4895205 -1.0880078
-0.35810545 6.4892764 -1.0894611
-0.67318356 6.4891081 -1.0936149
-0.82979488 6.4734039 -1.094025
-1.6425977 6.4845719 -1.1213486
-1.8100781 6.4844804 -1.1285565
-1.9798242 6.484385 -1.1365224
-2.1520801 6.4842863 -1.1452715
-2.5051856 6.4840875 -1.16524
-2.8716893 6.4838772 -1.1887326
-3.0607715 6.4837666 -1.2018998
-3.2541895 6.4836526 -1.216078
-3.4523339 6.4835367 -1.2313188
-4.0795507 6.4831657 -1.2840415
-4.3011718 6.4830341 -1.3041883
-4.7666306 6.4827533 -1.3488536
-6.3133106 6.3980231 -1.5067564
-6.625205 6.3978291 -1.5439023
-7.5554786 6.9519243 -1.7211039
-7.7150097 6.7624931 -1.7197822
-7.8699412 6.5695095 -1.7184898
-8.0209866 6.3737202 -1.717396
-8.1672068 6.1745095 -1.7163082
-8.4452143 5.7665277 -1.714233
-8.7036133 5.3465104 -1.7122949
-8.8252926 5.1322927 -1.7113783
-8.9418993 4.9154205 -1.7104973
-9.6418304 4.4249344 -1.778362
-10.160732 4.3695903 -1.8540928
-10.593335 3.1097393 -1.8507181
-10.662094 2.8525019 -1.8501687
-10.724849 2.5938251 -1.8496615
-10.781568 2.3338225 -1.8491969
-10.83226 2.072624 -1.8487751
-10.915385 1.5472741 -1.8480607
-10.947788 1.283371 -1.8477685
-11.016123 0.22269531 -1.8470348
-11.017841 -0.043070067 -1.8469607
-11.013433 -0.3087799 -1.8469304
-11.002856 -0.57430786 -1.846944
-10.986147 -0.83952999 -1.8470012
-10.963296 -1.1043243 -1.8471023
-10.899258 -1.631997 -1.8474356
-10.85811 -1.8946261 -1.8476677
-10.757539 -2.4167998 -1.8482623
-10.63291 -2.9339457 -1.8490297
-10.484385 -3.4450338 -1.8499687
-10.401255 -3.697953 -1.8505018
-10.217422 -4.1979074 -1.8516949
-10.010444 -4.6891775 -1.8530548
-9.6574411 -5.4074888 -1.8554019
-9.5286522 -5.6414533 -1.8562647
-9.3943701 -5.8724704 -1.8571674
-9.154521 -6.0343604 -1.8379867
-8.7051268 -6.0443101 -1.7765301
-8.2844429 -6.0534616 -1.7199796
-8.1070604 -6.2292223 -1.7138495
-7.6493945 -6.8114462 -1.7169737
-7.4877243 -6.998455 -1.7180818
-7.1511521 -7.3612919 -1.7203946
-6.9764156 -7.5368829 -1.7215983
-6.0415916 -8.3527327 -1.7280668
-5.8430567 -8.5027952 -1.7294459
-5.6408496 -8.6482725 -1.7308524
-5.4351268 -8.7890692 -1.732285
-5.2259765 -8.9251032 -1.733743
-5.0134764 -9.0562811 -1.7352259
-4.3570409 -9.4199057 -1.7398169
-4.2405372 -10.464917 -1.8928072
-3.9906347 -10.573924 -1.8945619
-3.7379394 -10.677104 -1.8963379
-3.4826758 -10.774326 -1.8981332
-3.2248731 -10.865574 -1.8999482
-2.9647264 -10.950746 -1.9017813
-2.4379687 -11.102629 -1.9054979
-1.9035058 -11.229487 -1.9092752
-1.0899316 -11.371941 -1.9150367
-0.81617188 -11.406479 -1.9169787
-7.001123 5.7104278 -1.7245058
-7.1327634 5.5367742 -1.7235278
-7.3834567 5.1807599 -1.7216592
-7.5023727 4.9985929 -1.7207699
-7.6169333 4.8137932 -1.7199109
-7.8548141 4.4491324 -1.7231045
-8.9157324 3.9696014 -1.8628674
-9.0055466 3.7520268 -1.8621771
-9.0902243 3.5324981 -1.8615228
-9.1697216 3.3111358 -1.8609051
-9.2440281 3.0880558 -1.8603238
-9.3130951 2.8633721 -1.8597796
-9.3768892 2.6372156 -1.8592726
-9.4353809 2.409682 -1.858803
-9.4885492 2.1809118 -1.8583711
-9.5788088 1.7201269 -1.857621
-9.6158495 1.4883459 -1.8573031
-9.6475 1.2558081 -1.8570236
-9.6737299 1.0226367 -1.8567824
-9.6945162 0.78894407 -1.85658
-9.7098827 0.55485231 -1.8564161
-9.7232227 -0.14858276 -1.8561573
-9.6365137 -1.3175433 -1.8565029
-9.6029005 -1.549729 -1.8566881
-9.5194874 -2.0115235 -1.8571748
-9.4697409 -2.2408931 -1.8574759
-9.4146576 -2.4690828 -1.857815
-9.2886038 -2.9214466 -1.8586076
-9.1415625 -3.3676682 -1.8595511
-8.9737988 -3.8068078 -1.8606437
-8.8822556 -4.023428 -1.8612454
-8.785635 -4.2379341 -1.8618836
-8.5774508 -4.6601286 -1.8632683
-8.4659271 -4.8675904 -1.8640143
-8.3495703 -5.0724826 -1.8647953
-6.6768847 -6.0829926 -1.7240701
-6.532002 -6.2458515 -1.7250642
-6.3832421 -6.4053693 -1.7260867
-6.2306933 -6.5614448 -1.7271369
-6.0744138 -6.7139912 -1.7282144
-5.9144921 -6.8629293 -1.7293189
-5.7509961 -7.0081558 -1.7304497
-5.584043 -7.1495914 -1.7316058
-5.4136815 -7.2871604 -1.7327871
-5.2399998 -7.4207678 -1.7339932
-4.8830271 -7.6757941 -1.7364764
-4.5138865 -7.9140396 -1.7390503
-4.3249903 -8.0266933 -1.7403693
-3.9390037 -8.2386837 -1.7430694
-3.5427732 -8.4324579 -1.7458465
-2.9310546 -8.6878586 -1.750144
-2.7229493 -8.7633486 -1.7516087
-2.0875683 -8.9601326 -1.7560885
-1.8724804 -9.015666 -1.7576076
-1.6559472 -9.0661001 -1.7591381
-1.4380664 -9.1113701 -1.7606795
-1.2189648 -9.1514626 -1.7622308
-0.77761716 -9.2159271 -1.7653593
-0.33291993 -9.2592335 -1.7685167
-0.10960937 -9.2728901 -1.7701041
0.56260741 -9.2815781 -1.7748899
0.78700191 -9.2736568 -1.7764901
1.0113574 -9.2603207 -1.7780911
1.2354981 -9.2415504 -1.7796921
1.9055274 -9.1526241 -1.7844851
3.4375098 -8.7559395 -1.7954892
3.8623145 -8.5946236 -1.7985525
4.0719142 -8.5061283 -1.8000659
4.2794142 -8.4124556 -1.8015658
4.6878028 -8.209753 -1.8045218
5.2816501 -7.8680964 -1.8088309
5.8500195 -7.4827399 -1.812969
6.0332322 -7.3448801 -1.814306
6.2131348 -7.2024517 -1.8156205
6.5624413 -6.9041796 -1.8181781
6.7316504 -6.7484946 -1.8194195
6.8970604 -6.5885868 -1.8206347
7.2160349 -6.2563939 -1.822984
7.3694043 -6.0843077 -1.8241165
8.6220798 -5.8191142 -1.9855044
9.1611233 -4.9715552 -1.9895409
9.2826271 -4.7513533 -1.9904579
9.7131443 -3.8413684 -1.9937359
9.8064938 -3.6072862 -1.9944556
9.8940134 -3.3708758 -1.9951339
9.9756145 -3.1322734 -1.9957706
10.05126 -2.8916311 -1.9963653
10.120878 -2.6491091 -1.9969177
10.293105 -1.9118017 -1.998316
10.338183 -1.6633117 -1.998695
10.435927 -0.91193175 -1.999566
10.455937 -0.66003841 -1.9997671
10.472763 0.3503302 -2.0001221
10.443183 0.85489869 -2.0000288
10.418936 1.1064563 -1.9999148
10.351582 1.6072961 -1.9995517
10.074531 2.8386137 -1.9978648
10.000791 3.080039 -1.9973958
9.6464157 4.0244489 -1.9950916
9.5433102 4.2544742 -1.9944106
9.361846 4.4472709 -1.9783363
8.8366499 4.4620891 -1.8895488
8.3565331 4.7386088 -1.8336667
8.2361622 4.9365983 -1.8328552
7.9810057 5.3229899 -1.8311279
7.7071776 5.6958489 -1.8292642
7.5635056 5.8769145 -1.8282831
7.1066208 6.3973832 -1.8251501
6.9458981 6.5627789 -1.8240008
5.1386523 6.4991217 -1.5814481
4.1300683 6.4075017 -1.4550921
3.9190624 6.4148259 -1.4348662
3.7537694 6.491116 -1.4312577
3.1510155 6.49085 -1.3772218
2.9597266 6.4907632 -1.3616569
2.5893066 6.4905963 -1.3338445
2.409492 6.4905133 -1.3214964
2.2328906 6.4904313 -1.3101317
2.0591893 6.4903498 -1.2997077
1.8881445 6.4902692 -1.2901959
1.7194629 6.4901886 -1.2815598
1.5529492 6.490109 -1.2737764
1.0640038 6.489871 -1.2552985
0.90385741 6.4897928 -1.2507013
0.58657223 6.4896331 -1.2437651
0.42907226 6.4895549 -1.2414057
0.27208984 6.4894733 -1.2397732
0.11541016 6.4893928 -1.2388643
-0.041123047 6.4893122 -1.2386787
-0.82813478 6.4888935 -1.2486205
-0.97436523 6.4010305 -1.2358772
-1.1329297 6.4009442 -1.2407752
-1.6387695 6.4844389 -1.276638
-2.1480565 6.4841509 -1.3038172
-4.0744824 6.4830146 -1.4615557
-4.2959471 6.4828815 -1.484457
-5.0059958 6.4824429 -1.5633456
-5.2602634 6.4822845 -1.5934488
-6.2062302 6.607873 -1.7303752
-6.3596482 6.4520636 -1.7292475
-6.6549706 6.1301541 -1.727069
-6.7967577 5.964241 -1.7260205
-7.3230567 5.2697954 -1.7221102
-7.5608497 4.905467 -1.7203317
-8.0559568 4.4341779 -1.7552426
-8.7720699 4.2908235 -1.8639654
-8.869463 4.0763922 -1.8632216
-8.9617872 3.8598211 -1.8625139
-9.0490131 3.6412494 -1.8618417
-9.1310787 3.4207757 -1.8612058
-9.2079535 3.1985302 -1.8606066
-9.2796144 2.9746258 -1.860044
-9.346015 2.7491803 -1.8595185
-9.5133886 2.0647857 -1.8581671
-9.5585003 1.8343731 -1.8577921
-9.6614447 1.137959 -1.8568969
-9.6849318 0.90451294 -1.8566753
-9.7243996 -0.032651976 -1.8561759
-9.6967678 -0.73562682 -1.856209
-9.6511421 -1.2025086 -1.8564254
-9.5838375 -1.6668383 -1.8567969
-9.4949999 -2.127655 -1.8573222
-9.442544 -2.3564429 -1.8576427
-9.3847799 -2.5839877 -1.8580011
-9.3217182 -2.810183 -1.8583976
-9.2533979 -3.0348887 -1.8588319
-9.1798334 -3.2580035 -1.8593038
-9.0171728 -3.6989825 -1.8603599
-8.7348633 -4.3455639 -1.8622202
-8.630722 -4.5566659 -1.8629129
-8.4076948 -4.9715323 -1.8644049
-8.1653023 -5.3758903 -1.8660371
-8.0370312 -5.5738425 -1.8669047
-7.7665329 -5.9607725 -1.8687414
-7.4810934 -6.0338945 -1.8345501
-6.4572458 -6.3269491 -1.7255778
-6.306572 -6.4847336 -1.7266144
-6.1521091 -6.6390362 -1.7276785
-5.6670117 -7.0801611 -1.7310309
-5.3262501 -7.3552208 -1.7333941
-5.1509376 -7.4868026 -1.7346121
-4.7908301 -7.7376418 -1.7371186
-4.6062207 -7.8567553 -1.7384058
-4.2283983 -8.0819874 -1.7410445
-3.6416113 -8.3862886 -1.7451532
-3.4410546 -8.478508 -1.7465602
-3.0331836 -8.6487398 -1.7494258
-2.6169629 -8.799655 -1.7523551
-2.4060156 -8.8677244 -1.7538419
-1.3274219 -9.1322937 -1.7614628
-1.1077539 -9.1697407 -1.7630186
-0.66545898 -9.2288857 -1.766155
-0.44308594 -9.2505169 -1.7677341
0.4516992 -9.2834854 -1.7740993
0.67607421 -9.2782507 -1.7756988
0.90046871 -9.2675924 -1.7772996
1.7954589 -9.1706381 -1.7836969
2.0179296 -9.1328192 -1.7852904
2.239619 -9.0895815 -1.7868792
3.1157422 -8.862668 -1.7931726
3.757998 -8.6364441 -1.7977996
3.9685545 -8.5505257 -1.7993194
4.3835449 -8.3631201 -1.802319
5.1854687 -7.9274426 -1.8081319
5.7582812 -7.5491614 -1.8123001
6.1246386 -7.2734189 -1.8149737
6.3028026 -7.1286983 -1.8162766
6.4774413 -6.9795337 -1.8175551
6.6484766 -6.8259807 -1.8188089
7.138701 -6.339994 -1.8224136
7.2941308 -6.1698523 -1.8235605
8.5497656 -5.9198837 -1.9849659
9.2232618 -4.8605881 -1.9900095
9.5629101 -4.1864576 -1.9925857
9.6648731 -3.9561605 -1.9933654
9.8515034 -3.4880171 -1.9948038
10.014609 -3.0108218 -1.9960766
10.214229 -2.280726 -1.9976683
10.268535 -2.0341744 -1.9981124
10.358613 -1.5372192 -1.9988699
10.394306 -1.2871393 -1.9991821
10.446845 -0.78460693 -1.9996734
10.463672 -0.53247434 -1.9998519
10.47415 -0.27997071 -1.9999853
10.452851 0.73035276 -2.0000689
10.431699 0.98218989 -1.9999768
10.404287 1.2334161 -1.99984
10.370557 1.4838464 -1.999658
10.330585 1.733341 -1.9994314
10.284385 1.9817145 -1.9991603
10.108721 2.7186017 -1.9980804
9.9612007 3.2013915 -1.9971422
9.8784466 3.4397795 -1.9966083
9.6952829 3.9097881 -1.9954131
9.0902443 4.4549603 -1.9322833
8.4142084 4.6396341 -1.8340542
8.2962694 4.839119 -1.8332608
7.4891601 5.9670744 -1.8277746
7.3389354 6.1425052 -1.8267454
6.6972556 6.8048086 -1.8224337
6.5273242 6.9602261 -1.821354
4.7655077 6.4989653 -1.5382608
4.5285254 6.4988666 -1.5119383
4.0202537 6.407454 -1.4438394
3.8123925 6.4147782 -1.4243459
3.4454589 6.4909806 -1.4026982
3.2472265 6.4908929 -1.3853463
3.0537403 6.4908061 -1.3692065
2.4979491 6.4905534 -1.327474
1.8025585 6.4902277 -1.2857199
0.3496289 6.4895134 -1.2404881
0.036240235 6.4893522 -1.2386816
-0.12030273 6.4892716 -1.2388592
-0.27697265 6.4891887 -1.2397575
-0.43396485 6.4891057 -1.2413814
-0.74963868 6.4889374 -1.2468197
-0.89641601 6.401072 -1.2337331
-1.3751659 6.4048176 -1.2503879
-1.5567774 6.4844866 -1.2729039
-1.7231737 6.4843936 -1.2806735
-1.8916992 6.4842973 -1.2892916
-2.0626268 6.484201 -1.2987895
-2.4126465 6.4840007 -1.3205421
-2.5922949 6.4838958 -1.3328686
-3.7557225 6.4832087 -1.4301379
-3.9675195 6.4830804 -1.4508023
-4.410625 6.4828091 -1.4966494
-4.6431251 6.4826665 -1.5220337
-5.133369 6.4823651 -1.5783114
-5.8084083 6.9819632 -1.7335747
-6.1292186 6.6838017 -1.730998
-6.4358006 6.371944 -1.7286863
-6.5834374 6.2109513 -1.7275974
-6.7271676 6.0466509 -1.7265353
-7.002656 5.7084622 -1.7244943
-7.3848338 5.1786933 -1.7216489
-7.6182127 4.8116679 -1.7199012
-8.2797556 4.4266472 -1.7921047
-8.7220697 4.3960013 -1.8643461
-9.0065432 3.7495368 -1.8621693
-9.0911665 3.5299809 -1.8615156
-9.4891205 2.1782897 -1.8583664
-9.5368748 1.948388 -1.8579726
-9.61625 1.485697 -1.8572998
-9.6947365 0.78626341 -1.8565779
-9.7198582 0.31780395 -1.85629
-9.7242479 0.083286129 -1.856204
-9.7231884 -0.15126769 -1.8561571
-9.7046871 -0.61996704 -1.8561796
-9.6644335 -1.0873284 -1.8563576
-9.636157 -1.320202 -1.8565048
-9.51894 -2.0141516 -1.8571781
-9.3535452 -2.6985538 -1.858197
-9.2878122 -2.9240162 -1.8586127
-9.2168503 -3.1479323 -1.859066
-9.1406641 -3.3701982 -1.8595568
-8.784502 -4.2403765 -1.8618912
-8.5761814 -4.6625137 -1.8632766
-8.2269917 -5.276978 -1.8656209
-8.1010351 -5.476367 -1.8664715
-7.9703612 -5.6728311 -1.8673565
-7.6609278 -6.0296221 -1.8608905
-7.302207 -6.0381002 -1.8086125
-6.9626756 -6.045958 -1.7601385
-6.6752539 -6.0848703 -1.7240814
-6.5303321 -6.247695 -1.7250756
-6.3815231 -6.4071689 -1.7260984
-5.9126463 -6.8646116 -1.7293316
-5.0610642 -7.5517917 -1.7352372
-4.5117579 -7.9153557 -1.7390651
-3.5404785 -8.4335041 -1.7458624
-3.00791 -7.6787205 -1.5741296
-2.9286914 -8.6887465 -1.7501607
-1.4355761 -9.1118574 -1.7606971
-0.77509767 -9.2162409 -1.7653772
0.34083983 -9.2840729 -1.7733097
0.565166 -9.2815142 -1.7749081
0.78955078 -9.2735395 -1.7765083
1.4619141 -9.2170343 -1.7813104
1.9080664 -9.1521959 -1.7845033
2.351377 -9.065649 -1.787681
2.5716112 -9.0142679 -1.7892615
3.439961 -8.7550726 -1.7955068
3.6532421 -8.6769896 -1.7970442
3.8647265 -8.593647 -1.7985699
4.2817869 -8.4113579 -1.8015829
4.4871092 -8.3124838 -1.8030684
5.2838769 -7.8667045 -1.808847
5.4762888 -7.7429743 -1.8102466
5.6657519 -7.6144505 -1.8116258
5.8521385 -7.4811916 -1.8129846
6.2151561 -7.2007995 -1.8156353
6.3915524 -7.0538254 -1.8169259
6.5643945 -6.9024253 -1.8181924
7.0603709 -6.4226274 -1.8218365
7.2178125 -6.2544518 -1.8229971
7.3711329 -6.0823259 -1.8241293
8.0450287 -6.0105681 -1.916857
8.7662306 -5.6101012 -1.9865799
9.0356932 -5.1861033 -1.9885979
9.1625385 -4.9690576 -1.9895518
9.399951 -4.5255318 -1.9913461
9.6151857 -4.070323 -1.9929849
9.8075294 -3.6046131 -1.9944634
9.8949604 -3.3681548 -1.9951413
10.052099 -2.8888834 -1.996372
10.185098 -2.4020548 -1.9974325
10.242451 -2.15622 -1.9978983
10.338672 -1.6604803 -1.9986989
10.377441 -1.4108691 -1.9990333
10.456142 -0.65716732 -1.9997692
10.47706 -0.15220337 -2.0000358
10.478018 0.10052734 -2.0001013
10.442939 0.85777462 -2.0000281
10.418623 1.1093177 -1.9999133
10.388007 1.3601568 -1.9997534
10.258662 2.1068437 -1.999006
10.203125 2.3532445 -1.9986678
10.073691 2.8413787 -1.9978595
9.9999123 3.0827763 -1.9973902
9.9200974 3.3221991 -1.9968774
9.8343353 3.5595086 -1.996322
9.7427244 3.7945158 -1.9957241
9.6452923 4.0270853 -1.9950842
9.3555565 4.4474492 -1.9772662
8.8309078 4.4622502 -1.8885837
8.4707031 4.5399189 -1.8344336
8.2347555 4.9388418 -1.8328457
7.9794922 5.3251529 -1.8311175
7.8448143 5.5132904 -1.8302021
7.2613769 6.2297454 -1.8262132
6.9440527 6.5646501 -1.8239894
6.7798533 6.7264066 -1.8229558
5.6658397 6.4993415 -1.645785
5.3954782 6.499229 -1.6123267
4.6446385 6.4989142 -1.5247248
4.3498044 6.4075947 -1.4782501
4.1275682 6.4075003 -1.4548315
3.9166601 6.4148245 -1.4346262
3.5453026 6.4910259 -1.4117422
2.7704785 6.4906793 -1.3470564
2.5872362 6.4905949 -1.3336974
2.4074707 6.4905133 -1.3213618
2.0572264 6.4903483 -1.2995946
1.7175585 6.4901886 -1.2814671
1.5510546 6.490108 -1.273692
1.3864746 6.4900298 -1.2667432
1.2235839 6.4899502 -1.2605991
1.0621777 6.489871 -1.2552423
0.90203124 6.4897904 -1.2506533
0.74296874 6.4897122 -1.2468216
0.58477539 6.4896331 -1.2437339
0.42727539 6.4895535 -1.241381
-0.042910155 6.4893107 -1.2386807
-0.19951172 6.4892292 -1.2392235
-0.67134762 6.4889789 -1.2452016
-0.82997066 6.4888935 -1.2486647
-0.97617185 6.4010282 -1.2359288
-1.1347461 6.4009428 -1.2408365
-1.2946875 6.4008551 -1.2465125
-1.8081152 6.484345 -1.2849231
-1.9778222 6.4842496 -1.2939824
-3.0585253 6.4836249 -1.3683556
-3.4499903 6.4833918 -1.4018246
-3.8620703 6.4831438 -1.4404101
-4.0769725 6.4830132 -1.4618075
-4.5272069 6.4827385 -1.5092694
-6.5109372 6.2909675 -1.7281322
-6.656611 6.1282706 -1.7270569
-6.7983689 5.9623246 -1.7260085
-6.9360938 5.7932038 -1.7249882
-7.0697069 5.6210051 -1.7239965
-7.1992087 5.4458075 -1.7230333
-7.3244824 5.2677507 -1.7220995
-7.4454784 5.0868964 -1.7211957
-7.6744528 4.7172222 -1.7194787
-8.5130959 4.4187407 -1.8308096
-9.0499754 3.6387444 -1.8618342
-9.3467379 2.7466004 -1.8595129
-9.4077978 2.5197034 -1.8590251
-9.4635401 2.2915277 -1.858575
-9.5986423 1.60036 -1.8574518
-9.6328955 1.3681817 -1.8571539
-9.6851559 0.90184873 -1.8566729
-9.7156782 0.43367493 -1.8563467
-9.7227535 0.19922301 -1.8562417
-9.7243891 -0.035322264 -1.8561755
-9.720561 -0.26985717 -1.856148
-9.7112789 -0.50421751 -1.8561596
-9.6965771 -0.73830384 -1.8562099
-9.6764107 -0.9719891 -1.856299
-9.6508102 -1.20518 -1.8564271
-9.6198044 -1.4377154 -1.8565938
-9.5833883 -1.6694829 -1.8567992
-9.3840961 -2.5865841 -1.8580053
-9.3209715 -2.8127499 -1.8584024
-9.252573 -3.0374577 -1.8588372
-9.1001558 -3.4819293 -1.8598193
-9.016181 -3.7014728 -1.8603665
-8.9270849 -3.9190876 -1.8609505
-8.5203705 -4.7677331 -1.8636496
-8.4063568 -4.9738832 -1.8644137
-8.2875099 -5.1773901 -1.8652129
-7.7649217 -5.9629436 -1.8687524
-7.4769626 -6.0339913 -1.8339539
-6.7977147 -6.0497131 -1.7369598
-6.6024508 -6.1676292 -1.7245806
-6.4555368 -6.328764 -1.7255895
-5.9921579 -6.7914743 -1.7287823
-5.6651073 -7.0817704 -1.7310443
-5.3242674 -7.3567514 -1.7334079
-4.9703708 -7.6157293 -1.7358683
-4.6041017 -7.8580933 -1.7384207
-4.033164 -8.1891527 -1.7424102
-3.8374999 -8.2905474 -1.7437801
-3.6393261 -8.3873653 -1.7451692
-3.4387598 -8.4795246 -1.7465763
-3.2358692 -8.566987 -1.7480011
-2.8237011 -8.7275028 -1.7508994
-2.6145897 -8.8004551 -1.7523719
-2.4035938 -8.868475 -1.7538589
-2.1908886 -8.9315042 -1.7553593
-1.1052442 -9.170146 -1.7630365
-0.88455075 -9.2022924 -1.7646008
-0.21749023 -9.2669678 -1.7693369
0.0060644532 -9.2778444 -1.7709268
0.23004882 -9.2833481 -1.7725207
0.45426756 -9.2834606 -1.7741178
0.67864257 -9.2781591 -1.7757173
0.90301758 -9.2674437 -1.7773179
1.1273047 -9.251297 -1.7789192
1.3513184 -9.2297125 -1.7805197
2.4628613 -9.0403395 -1.788481
3.1182129 -8.8618946 -1.7931902
4.3858981 -8.3619909 -1.802336
4.7918358 -8.1540442 -1.8052757
4.9910841 -8.0425348 -1.8067209
5.187695 -7.926084 -1.8081481
5.7603903 -7.5476403 -1.8123155
5.9451756 -7.4120278 -1.8136631
6.4794335 -6.9777989 -1.8175695
6.6504002 -6.8242044 -1.8188232
6.817656 -6.6663318 -1.8200512
6.9810643 -6.5042396 -1.8212527
7.2958789 -6.1678944 -1.8235732
7.4854393 -6.0246906 -1.8340923
7.8544922 -6.0154209 -1.8884088
8.2460251 -6.0054016 -1.947147
8.551445 -5.9175706 -1.9849784
8.6964064 -5.7127194 -1.9860586
8.9710541 -5.2921705 -1.9881128
9.5640717 -4.1838465 -1.9925946
9.6659861 -3.9535153 -1.993374
9.7621479 -3.7206068 -1.9941131
10.015469 -3.0080812 -1.9960834
10.154482 -2.5230005 -1.9971864
10.214883 -2.2779226 -1.9976736
10.269131 -2.0313585 -1.9981173
10.317197 -1.7834332 -1.9985174
10.359053 -1.5343671 -1.9988736
10.424013 -1.0333581 -1.9994528
10.44705 -0.78172237 -1.9996755
10.463799 -0.52958494 -1.9998535
10.474238 -0.27709472 -1.9999866
10.478339 -0.024401244 -2.0000746
10.476093 0.2283435 -2.0001175
10.467539 0.48093322 -2.0001154
10.403926 1.2362866 -1.9998381
10.370136 1.4867083 -1.9996557
10.330107 1.7361804 -1.9994286
10.283809 1.9845403 -1.9991567
10.172725 2.4773052 -1.9984802
10.037138 2.9636943 -1.9976279
9.9602728 3.2041302 -1.9971362
9.87747 3.4424932 -1.9966019
9.4877243 4.3723798 -1.9940423
8.586689 4.4711528 -1.8478838
8.2948828 4.8413849 -1.8332515
8.1720018 5.037746 -1.8324218
8.0443258 5.2308965 -1.8315574
7.9119625 5.4207244 -1.8306588
7.6334372 5.7899408 -1.828761
7.3372169 6.1444769 -1.8267335
6.8615136 6.6469684 -1.8234707
6.6953416 6.806602 -1.8224216
6.5253415 6.9619718 -1.8213415
5.5277438 6.4992838 -1.628575
5.2628708 6.4991751 -1.5962684
4.5258689 6.4988642 -1.5116487
4.0177832 6.4074531 -1.4435835
3.6464648 6.4910698 -1.4211069
3.4431639 6.4909797 -1.4024934
3.2449901 6.4908915 -1.3851552
3.0515528 6.4908061 -1.3690284
2.8624511 6.4907207 -1.3540516
2.6773534 6.4906363 -1.3401695
2.4958985 6.4905534 -1.3273331
2.3177929 6.490469 -1.3154989
1.9704297 6.4903083 -1.2946782
1.800625 6.4902277 -1.2856219
1.6330956 6.4901471 -1.2774303
1.4676074 6.4900675 -1.2700754
0.50504881 6.4895916 -1.2424526
0.3478418 6.489512 -1.2404699
0.19103515 6.4894314 -1.2392138
-0.12209961 6.4892707 -1.2388649
-0.27875975 6.4891863 -1.2397724
-0.43575194 6.4891033 -1.2414032
-0.8982324 6.401072 -1.2337815
-1.3770214 6.4048176 -1.2504619
-1.5586718 6.4844851 -1.2729871
-1.7250879 6.4843926 -1.2807651
-1.8936328 6.4842963 -1.2893955
-2.0645995 6.4841995 -1.2989032
-2.2381835 6.4841008 -1.3093183
-2.5943553 6.4838943 -1.3330154
-3.1557422 6.4835649 -1.3763647
-3.3514452 6.4834499 -1.3930992
-4.1881347 6.4829459 -1.4732031
-4.6458302 6.4826651 -1.5223355
-4.8865919 6.4825177 -1.5495328
-5.1362596 6.4823627 -1.5786542
-5.8102832 6.9803119 -1.7335598
-6.43749 6.3701334 -1.7286738
-6.5850973 6.2090998 -1.727585
-7.0041699 5.7064972 -1.7244831
-7.2630858 5.3561115 -1.7225573
-7.6194921 4.8095341 -1.7198917
-8.7232323 4.3935761 -1.8643373
-8.8230562 4.1802082 -1.8635764
-9.0075293 3.7470453 -1.8621619
-9.0920897 3.5274565 -1.8615083
-9.1714792 3.3060613 -1.8608913
-9.3146048 2.8582342 -1.8597677
-9.5373926 1.9457672 -1.8579684
-9.5797119 1.7148352 -1.8576132
-9.6166506 1.4830426 -1.8572962
-9.648159 1.2504967 -1.8570176
-9.6742725 1.017309 -1.8567774
-9.6949415 0.78359008 -1.8565757
-9.7231398 -0.15394776 -1.8561567
-9.6870556 -0.85653317 -1.8562503
-9.6641254 -1.0899932 -1.8563592
-9.6358099 -1.3228613 -1.8565066
-9.5629148 -1.7863641 -1.856918
-9.4685497 -2.2461219 -1.857483
-9.4133444 -2.4742785 -1.8578231
-9.3528175 -2.7011309 -1.8582015
-9.1397505 -3.3727231 -1.8595626
-8.9717627 -3.8117878 -1.860657
-8.8801069 -4.028357 -1.8612596
-8.7833786 -4.2428026 -1.8618984
-8.6816406 -4.45502 -1.8625739
-8.5749416 -4.6648846 -1.8632848
-8.4633303 -4.8723063 -1.8640317
-8.2255955 -5.2792673 -1.8656303
-8.0995798 -5.4786096 -1.8664813
-7.6567283 -6.0297222 -1.8602718
-6.6736131 -6.0867548 -1.7240925
-6.2271676 -6.5649719 -1.7271612
-5.7472458 -7.0114312 -1.7304754
-5.2360058 -7.4237661 -1.7340209
-4.6957321 -7.7997766 -1.7377816
-4.1289258 -8.1373587 -1.7417402
-3.9345312 -8.2409945 -1.7431005
-3.0050097 -7.677567 -1.5737236
-2.2962499 -8.9009752 -1.7546159
-2.0826952 -8.9614573 -1.7561228
-1.8675684 -9.0168734 -1.7576423
-1.4330859 -9.1123457 -1.7607149
-1.213955 -9.1523123 -1.7622662
-0.99374998 -9.1870613 -1.7638266
-0.77255857 -9.216548 -1.7653952
-0.32783201 -9.259613 -1.7685528
0.11929687 -9.2812996 -1.7717324
1.6878124 -9.1869612 -1.7829264
2.3538866 -9.065093 -1.787699
2.5741014 -9.0136518 -1.7892795
3.0110447 -8.8946104 -1.7924192
3.2274902 -8.8270769 -1.7939767
4.0766697 -8.5040474 -1.8001002
4.2841306 -8.4102535 -1.8015999
4.4894333 -8.3113346 -1.803085
4.6924119 -8.2073145 -1.8045552
4.89292 -8.0982733 -1.8060086
5.854248 -7.4796438 -1.8129998
6.217207 -7.1991401 -1.8156503
7.0622067 -6.4207163 -1.8218501
8.0495119 -6.0104532 -1.9175296
8.4534082 -6.0000238 -1.978687
8.7678318 -5.6077051 -1.9865917
9.0371675 -5.1836567 -1.9886088
9.1639547 -4.9665694 -1.9895624
9.4012499 -4.5229502 -1.9913559
9.5116205 -4.2967086 -1.9921947
9.7153416 -3.8360338 -1.993753
9.8959274 -3.3654492 -1.9951488
10.185791 -2.3992636 -1.9974383
10.243086 -2.1534121 -1.9979033
10.294218 -1.9061309 -1.9983251
10.33914 -1.657619 -1.9987031
10.410293 -1.1574914 -1.9993261
10.436455 -0.90617186 -1.9995711
10.456318 -0.65427673 -1.9997711
10.477988 0.10342895 -2.0001018
10.472548 0.35610351 -2.0001221
10.387617 1.3630316 -1.9997516
10.307461 1.8619219 -1.9992965
10.258066 2.1096814 -1.9990025
10.140742 2.6009405 -1.9982812
9.9990234 3.085542 -1.9973845
9.8333397 3.5622003 -1.9963156
9.5408783 4.2597013 -1.9943945
8.469326 4.542222 -1.8344243
8.3538275 4.7431731 -1.8336483
8.1080275 5.1358318 -1.831989
7.4120312 6.0582657 -1.8272463
7.2595801 6.2317095 -1.826201
7.1030078 6.4012103 -1.8251251
6.9421973 6.5665188 -1.8239778
6.7779589 6.7282257 -1.822944
6.6098337 6.8857145 -1.821879
5.9445505 6.4994559 -1.6812371
5.6627049 6.4993386 -1.645389
4.8829298 6.4990153 -1.5516292
3.7489941 6.4911151 -1.4308016
3.1465917 6.490849 -1.3768529
2.95541 6.4907622 -1.3613148
2.5851562 6.4905949 -1.3335506
2.0552635 6.4903469 -1.2994813
1.5491699 6.490108 -1.2736077
1.0603321 6.4898701 -1.255185
0.90021485 6.4897904 -1.2506053
0.74116212 6.4897099 -1.2467823
0.58296871 6.4896307 -1.2437029
0.1118457 6.4893913 -1.2388523
-0.04470703 6.4893093 -1.2386831
-0.83088863 6.4819536 -1.2473763
-1.458955 6.4047723 -1.2538335
-1.9797753 6.4842486 -1.2940915
-2.8716309 6.4837346 -1.3535402
-3.0606933 6.4836221 -1.3685325
-3.6555858 6.4832683 -1.4206626
-3.8644922 6.4831424 -1.4406461
-4.079463 6.4830117 -1.4620608
-4.5298924 6.4827371 -1.5095618
-4.7665234 6.4825921 -1.5358573
-5.2661719 6.4822822 -1.5941595
-5.8927636 6.9062824 -1.7328999
-6.3631053 6.4484658 -1.7292219
-6.5126367 6.2891092 -1.7281197
-6.6582713 6.1263981 -1.7270446
-6.7999511 5.960413 -1.7259966
-7.200654 5.4437957 -1.7230226
-7.3258786 5.2656989 -1.7220891
-7.6757126 4.7150846 -1.7194693
-8.5185061 4.4185553 -1.8317089
-8.7743454 4.2859526 -1.863948
-9.0509472 3.63622 -1.8618268
-9.2096529 3.1934361 -1.8605932
-9.3474655 2.7440076 -1.8595071
-9.4084616 2.5171118 -1.8590198
-9.4641457 2.2889209 -1.8585701
-9.5144825 2.0595422 -1.8581581
-9.599062 1.5977234 -1.8574482
-9.6332569 1.365531 -1.8571506
-9.6620455 1.1326458 -1.8568914
-9.6854 0.89916748 -1.8566706
-9.7033205 0.66525209 -1.8564886
-9.7157955 0.43100828 -1.8563452
-9.7204933 -0.27252746 -1.856148
-9.696372 -0.74096984 -1.8562107
-9.6761475 -0.97467041 -1.8563005
-9.6194191 -1.4403577 -1.856596
-9.5410833 -1.9030236 -1.8570464
-9.4412889 -2.3616538 -1.8576504
-9.3833981 -2.589165 -1.8580097
-9.2517719 -3.0400119 -1.8588424
-9.0992231 -3.4844389 -1.8598254
-9.0152044 -3.7039654 -1.8603728
-8.9260492 -3.9215629 -1.8609571
-8.5191011 -4.7700968 -1.8636581
-8.4050198 -4.9762111 -1.8644227
-8.2861233 -5.1796961 -1.8652223
-8.1624317 -5.3804288 -1.8660567
-8.0340424 -5.5783367 -1.866925
-7.76333 -5.9651165 -1.8687631
-7.1243458 -6.0422382 -1.7830905
-6.600791 -6.1694813 -1.724592
-6.4538474 -6.3305883 -1.7256012
-6.3030663 -6.488297 -1.7266384
-5.9903417 -6.7931662 -1.7287948
-5.8285251 -6.9401541 -1.7299131
-5.6631737 -7.0833993 -1.7310575
-5.1468945 -7.4897537 -1.7346404
-4.7866406 -7.7404094 -1.7371478
-4.6019821 -7.8594193 -1.7384353
-4.0309472 -8.1903296 -1.7424258
-3.8352537 -8.2916737 -1.743796
-3.6370506 -8.3884373 -1.7451853
-3.436455 -8.4805584 -1.7465925
-3.2335742 -8.5679417 -1.7480172
-3.0284667 -8.6505756 -1.7494589
-1.3224121 -9.1332121 -1.7614982
-0.8820312 -9.2026358 -1.7646186
-6.5966601 4.6286869 -1.7271348
-6.7032909 4.466176 -1.7263376
-7.7939258 3.9309075 -1.8708487
-8.2633591 2.7604554 -1.8672327
-8.3253517 2.5596862 -1.8667442
-8.3826265 2.3575768 -1.8662894
-8.4828711 1.9497632 -1.8654803
-8.5639353 1.5378833 -1.8648071
-8.5972166 1.3306848 -1.8645217
-8.6492281 0.91433227 -1.8640546
-8.6679096 0.70539671 -1.8638726
-8.6817188 0.49610046 -1.8637257
-8.6906538 0.28655028 -1.8636132
-8.6946583 0.076865233 -1.8635359
-8.6880074 -0.34248963 -1.8634857
-8.6773529 -0.55193663 -1.8635129
-8.641387 -0.96981323 -1.8636718
-8.6160841 -1.1780267 -1.8638035
-8.5859375 -1.3856109 -1.86397
-8.5509567 -1.592456 -1.8641709
-8.5111227 -1.798449 -1.8644067
-8.3040228 -2.6117728 -1.8656925
-8.2403908 -2.8119023 -1.866099
-7.9395308 -3.596406 -1.8680595
-7.7617674 -3.9775865 -1.8692368
-7.6661716 -4.1650462 -1.8698741
-7.5662208 -4.3502893 -1.8705429
-7.2403903 -4.8916602 -1.8727376
-7.1233201 -5.0670004 -1.8735307
-6.8768358 -5.4094381 -1.8752066
-6.4771676 -5.9010472 -1.877939
-6.3035645 -6.0273962 -1.869208
-6.0135741 -6.03443 -1.8258654
-5.2817187 -6.1287017 -1.7339969
-5.1353712 -6.2579527 -1.7350091
-4.9859276 -6.3837938 -1.7360443
-4.833457 -6.5061469 -1.7371017
-4.028574 -7.063107 -1.742705
-3.6883006 -7.2590513 -1.745083
-3.5146093 -7.3510132 -1.7462988
-3.3386426 -7.4388819 -1.7475317
-2.7981639 -7.6774235 -1.7513258
-2.4282715 -7.8150201 -1.7539283
-1.8611523 -7.9883008 -1.7579274
-1.0863574 -8.1557808 -1.763407
-0.8900488 -8.1860704 -1.7647983
-0.69290036 -8.2116566 -1.7661966
-0.29656249 -8.2486362 -1.7690108
0.30127928 -8.2683296 -1.7732644
0.50099605 -8.2652826 -1.7746878
1.0998925 -8.2272005 -1.7789623
1.2990429 -8.2048426 -1.780386
1.8933495 -8.1087942 -1.7846413
2.4804785 -7.9694595 -1.7888557
2.8663573 -7.8527474 -1.7916311
3.0572362 -7.7873044 -1.7930061
3.9867969 -7.390492 -1.7997193
4.1668849 -7.2974801 -1.8010237
4.3447852 -7.2000108 -1.8023134
4.5203614 -7.0981426 -1.8035878
5.0320802 -6.7666979 -1.8073099
5.1972752 -6.6477976 -1.8085139
5.3595896 -6.5247827 -1.8096987
5.6752243 -6.2667241 -1.812007
5.82833 -6.1318269 -1.8131289
6.0121579 -6.0271921 -1.8245482
6.9242282 -6.0033946 -1.9641302
7.1050096 -5.8660069 -1.9746881
7.2483006 -5.6960039 -1.9757483
7.387373 -5.5224152 -1.9767791
7.5222559 -5.3453498 -1.9777811
7.6527634 -5.1649094 -1.9787527
7.7787986 -4.9812078 -1.9796929
7.9002929 -4.7943439 -1.9806019
8.3393164 -4.0176992 -1.9839097
8.4369335 -3.8168335 -1.9846518
8.6171284 -3.4079199 -1.9860303
8.915781 -2.5649707 -1.9883538
8.9772558 -2.3497696 -1.9888418
9.1293163 -1.6956414 -1.9900771
9.2553225 -0.80876523 -1.991181
9.2729588 -0.58536255 -1.9913586
9.2850485 -0.36157227 -1.9914967
9.2923822 0.086598508 -1.9916534
9.2876949 0.31068847 -1.991672
9.2773924 0.53459227 -1.9916509
9.2615232 0.75816464 -1.9915899
9.2130756 1.2037451 -1.9913485
9.1424704 1.6462847 -1.9909488
8.9356642 2.5177276 -1.9896785
8.8000193 2.9444041 -1.9888116
8.7242966 3.1550047 -1.9883213
8.5573044 3.5700712 -1.9872286
8.4661427 3.7742682 -1.9866267
8.1628122 4.3720269 -1.9846053
7.8489547 4.4507914 -1.9338417
7.4462109 4.4631109 -1.8605992
7.0825291 4.7237568 -1.8245889
6.840322 5.0552201 -1.8229408
6.713213 5.2162323 -1.822073
6.5822167 5.3739872 -1.8211768
6.4474216 5.5283661 -1.8202525
6.3089061 5.6792865 -1.8193011
6.0211325 5.970396 -1.8173192
5.405283 6.5073552 -1.8130575
5.2435446 6.6317182 -1.8119345
3.1509471 6.490705 -1.5463514
2.4094434 6.4903727 -1.483785
2.2328417 6.4902921 -1.4710243
1.8880858 6.4901323 -1.4486419
1.7194238 6.4900517 -1.4389464
1.5529101 6.4899735 -1.4302058
1.3883106 6.4898944 -1.4223938
1.2254101 6.4898171 -1.4154855
1.0639942 6.489738 -1.4094592
0.90383786 6.4896598 -1.4042975
0.27208006 6.4893427 -1.392028
0.11541016 6.4892621 -1.391008
-0.35452148 6.4890156 -1.3928087
-0.97434568 6.4008989 -1.3876531
-1.6387402 6.4843044 -1.4334195
-1.8061523 6.4842095 -1.4426113
-1.9758301 6.4841132 -1.4527714
-2.1480079 6.484014 -1.4639337
-2.6823046 6.4837017 -1.5038162
-2.8672948 6.4835916 -1.5193925
-3.0562596 6.4834795 -1.5361985
-3.2495701 6.4833636 -1.5542936
-3.4476171 6.4832439 -1.573747
-4.1656151 6.9970951 -1.7452741
-4.4916601 6.7782497 -1.7427458
-4.650537 6.663229 -1.7415068
-4.8066406 6.544693 -1.7403305
-5.257246 6.1683512 -1.7370334
-5.5418844 5.9005499 -1.7349436
-5.8132911 5.6199627 -1.7329452
-6.0708494 5.3272405 -1.7310426
-6.3140917 5.0230594 -1.7292393
-6.6510448 4.5468082 -1.7267283
-6.8423533 4.4393024 -1.7480817
-7.8398438 3.834832 -1.8704993
-8.0883398 3.2546806 -1.8685942
-8.1619825 3.0577233 -1.8680238
-8.3549023 2.4576378 -1.8665099
-8.4097748 2.2548888 -1.8660719
-8.5813665 1.433189 -1.8646585
-8.6122065 1.2256347 -1.8643905
-8.6381836 1.0174359 -1.8641572
-8.6592674 0.80872494 -1.8639584
-8.675498 0.59958434 -1.8637941
-8.6932812 0.18051879 -1.8635699
-8.6914644 -0.23887695 -1.8634852
-8.6701069 -0.65774292 -1.8635398
-8.6520796 -0.86669612 -1.8636197
-8.6291895 -1.0751764 -1.8637341
-8.6014452 -1.2830889 -1.8638834
-8.5314159 -1.6967419 -1.8642858
-7.9806933 -3.5009816 -1.8677886
-7.8962889 -3.6935484 -1.8683447
-7.7139745 -4.0726585 -1.8695551
-7.5139937 -4.4430881 -1.8708932
-7.4074903 -4.6247859 -1.8716096
-7.1817188 -4.9806609 -1.873135
-7.0625391 -5.1546483 -1.8739433
-6.9392772 -5.3258533 -1.8747815
-6.6806445 -5.659605 -1.8765458
-6.5454493 -5.8219633 -1.877471
-6.4063768 -5.9811559 -1.8784245
-6.1552048 -6.0310154 -1.846907
-5.060195 -6.3220191 -1.7355298
-4.9091892 -6.4461045 -1.7365763
-4.7552342 -6.5666723 -1.7376448
-4.5983496 -6.6836357 -1.738735
-3.9434471 -7.1141453 -1.7432995
-3.4258983 -7.3959622 -1.7469201
-3.2488377 -7.4817529 -1.7481613
-2.5203416 -7.7826409 -1.7532802
-1.9555078 -7.9625225 -1.7572613
-0.98717773 -8.1716843 -1.7641097
-0.79043943 -8.1995974 -1.7655044
-0.59291017 -8.2227936 -1.7669061
-0.39473632 -8.2412605 -1.7683133
0.0031347657 -8.2639103 -1.7711419
0.40227538 -8.2673874 -1.7739838
0.60202146 -8.2619123 -1.775408
0.80175781 -8.2516079 -1.7768331
1.39958 -8.1916981 -1.781105
1.79583 -8.1275997 -1.7839422
2.1891308 -8.0442524 -1.7867631
2.963037 -7.8202343 -1.7923275
3.3417969 -7.6799316 -1.7950579
3.5286913 -7.602819 -1.796407
3.7137988 -7.5210953 -1.7977445
3.8969824 -7.4348154 -1.7990692
4.608242 -7.0449734 -1.8042262
4.9493942 -6.8239341 -1.8067076
5.1159668 -6.7070751 -1.8079211
5.7530465 -6.198988 -1.8125771
6.1568747 -6.0235257 -1.8460351
7.0326657 -5.9486866 -1.9741534
7.3192086 -5.6086621 -1.9762734
7.5888085 -5.2545123 -1.9782761
8.2892284 -4.1160479 -1.9835299
8.3892965 -3.9164305 -1.9842892
8.4843941 -3.7143126 -1.9850137
8.659502 -3.3030968 -1.9863565
8.8834276 -2.6707397 -1.9880987
9.0063086 -2.24036 -1.9890741
9.187109 -1.3633697 -1.990566
9.2186127 -1.1415515 -1.9908422
9.2445307 -0.91900265 -1.9910785
9.2797852 -0.4722296 -1.9914334
9.2926464 -0.024193116 -1.9916296
9.2513666 0.8710559 -1.9915439
9.2270994 1.0938647 -1.9914229
9.1211233 1.7575665 -1.9908226
9.0748043 1.9767663 -1.9905437
8.9658985 2.4112518 -1.989869
8.8355074 2.8396137 -1.98904
8.7623825 3.0511491 -1.9885684
8.6004877 3.4682915 -1.9875125
8.4181442 3.8766398 -1.9863086
8.0598726 4.444262 -1.9726144
7.0228319 4.8087273 -1.8241835
6.6474609 5.2964249 -1.8216233
6.5145116 5.4524808 -1.8207127
6.3778319 5.6051273 -1.8197747
5.9461813 6.0416703 -1.8168019
5.4841504 6.4444013 -1.8136047
5.1607227 6.6932001 -1.8113973
4.9948239 6.8116398 -1.8103155
4.2389646 6.407392 -1.6465634
4.0201564 6.4073014 -1.6211476
3.4453709 6.4908319 -1.5749575
2.6793847 6.4904947 -1.5049227
2.4979002 6.4904132 -1.4904971
2.1446483 6.490252 -1.4649754
1.9723437 6.4901714 -1.4537958
1.8025098 6.4900918 -1.4436167
1.6349707 6.4900126 -1.4344091
1.3057324 6.4898562 -1.4187872
0.98285156 6.4896989 -1.4067422
0.82326168 6.4896197 -1.4020116
0.50684571 6.4894609 -1.3950664
0.3496289 6.4893818 -1.392831
0.1928125 6.4893012 -1.3914108
-0.59144533 6.4888897 -1.3964731
-0.7496289 6.4888043 -1.39994
-0.89640623 6.4009418 -1.3852459
-1.3751465 6.4046841 -1.4039439
-2.062578 6.4840631 -1.4582897
-2.4125879 6.4838605 -1.4827135
-2.7753808 6.4836469 -1.5115441
-2.9623339 6.4835367 -1.527734
-3.1534667 6.4834208 -1.545184
-3.3491211 6.4833026 -1.5639578
-5.3304296 6.1018753 -1.7364966
-5.6117868 5.8307829 -1.7344296
-5.7474804 5.6904669 -1.7334304
-6.0085154 5.4006829 -1.7315036
-6.5978904 4.6268463 -1.7271256
-7.0186715 4.4329863 -1.7791754
-7.3863182 4.4196658 -1.8448106
-7.6023922 4.3034172 -1.8722994
-7.7009082 4.1171756 -1.8715545
-7.9696875 3.5457561 -1.8695071
-8.0502052 3.3514056 -1.8688884
-8.126152 3.1552794 -1.8683016
-8.1974611 2.9575059 -1.8677478
-8.326025 2.5573845 -1.866739
-8.3832417 2.3552618 -1.8662845
-8.4357033 2.1519072 -1.8658633
-8.4833984 1.9474206 -1.865476
-8.5262794 1.7419281 -1.8651228
-8.597578 1.3283166 -1.8645186
-8.6494532 0.91195005 -1.8640524
-8.6818457 0.49370849 -1.8637244
-8.6907034 0.28415406 -1.8636123
-8.6946774 0.074468382 -1.8635353
-8.6937494 -0.13525085 -1.863493
-8.6879196 -0.34487793 -1.8634857
-8.677207 -0.55432922 -1.8635134
-8.6411133 -0.97219783 -1.8636732
-8.5855665 -1.3879821 -1.8639719
-8.4659662 -2.0058234 -1.8646802
-8.3622751 -2.4125652 -1.8653239
-8.2396383 -2.8141797 -1.8661039
