# .PCD v0.7 - Point Cloud Data file format
VERSION 0.7
FIELDS x y z
SIZE 4 4 4
TYPE F F F
COUNT 1 1 1
WIDTH 1500
HEIGHT 1
VIEWPOINT 0 0 0 1 0 0 0
POINTS 1500
DATA ascii
-10.048681 4.4145012 -1.8398618
-10.325244 3.9535284 -1.8533863
-10.41377 3.7019086 -1.852702
-10.496396 3.4484124 -1.8520586
-10.708579 2.6778831 -1.8503793
-10.819956 2.1571949 -1.8494707
-10.866543 1.8951477 -1.8490803
-10.907061 1.6321173 -1.8487327
-10.941464 1.3682977 -1.8484281
-10.991875 0.83874023 -1.8479484
-11.021401 0.041630857 -1.8475541
-11.010307 -0.49000487 -1.8475088
-10.995542 -0.7555145 -1.8475516
-10.875127 -1.8120904 -1.8481568
-10.82979 -2.0742049 -1.8484164
-10.778344 -2.3352387 -1.8487192
-10.657397 -2.8535538 -1.8494537
-10.58791 -3.110548 -1.8498852
-10.343906 -3.8713291 -1.851433
-10.047285 -4.6140018 -1.8533572
-9.9369335 -4.856957 -1.8540809
-9.5721092 -5.5700746 -1.8564941
-9.2981739 -6.0291209 -1.8576688
-8.8392477 -6.0393353 -1.7945732
-8.4100189 -6.0487232 -1.7365533
-7.7005272 -6.7542048 -1.7170461
-7.5401464 -6.9424076 -1.7181363
-7.3752928 -7.1269541 -1.7192587
-6.672822 -7.8262634 -1.7240622
-6.2969918 -8.1511946 -1.7266437
-6.1032324 -8.3071337 -1.7279769
-5.7044921 -8.6055365 -1.7307266
-5.4997263 -8.7477884 -1.732141
-5.0798926 -9.0179739 -1.7350464
-4.1039939 -7.7150989 -1.4648923
-4.6470118 -9.2685232 -1.7380483
-4.5632029 -10.315217 -1.8908011
-3.5611229 -10.746458 -1.8977849
-3.0444043 -10.926479 -1.9013962
-2.2528124 -11.150454 -1.9069405
-1.9851074 -11.212585 -1.9088185
-1.4448534 -11.317746 -1.9126135
-1.1725781 -11.360671 -1.9145285
-0.89905274 -11.397097 -1.9164537
1.0367481 -11.46728 -1.930123
2.9704688 -11.209047 -1.9438537
4.0527344 -10.913851 -1.9515737
4.8454294 -10.622973 -1.9572457
5.1051269 -10.512982 -1.9591073
5.1719337 -9.4605513 -1.8074206
4.5751853 -7.909039 -1.5316576
6.0816894 -8.9504642 -1.8139712
6.5176368 -8.6617098 -1.8171203
7.3461032 -8.019803 -1.8231268
7.5433688 -7.8464332 -1.8245617
7.7364159 -7.6680765 -1.825968
7.9251461 -7.4848428 -1.8273449
8.9589844 -6.2893295 -1.8349322
9.1137991 -6.0751624 -1.8360765
10.366465 -5.8745933 -1.9973831
10.649023 -5.3734236 -1.9994972
11.025381 -4.5957737 -2.0023389
11.137793 -4.3303123 -2.0031955
11.243565 -4.0619936 -2.0040057
11.342617 -3.7910182 -2.0047688
11.520205 -3.2417495 -2.0061524
11.598633 -2.9638066 -2.0067716
11.670058 -2.6838827 -2.0073416
11.884941 -1.5482769 -2.0091252
11.970586 -0.68503845 -2.0099316
11.991367 -0.10684753 -2.0102129
11.96791 0.76063108 -2.0102491
11.945537 1.0490729 -2.0101581
11.915898 1.3368456 -2.0100155
11.783731 2.1942694 -2.0092807
11.725322 2.4774714 -2.0089338
11.659853 2.7590625 -2.0085363
11.587324 3.0388634 -2.0080888
11.507783 3.3167059 -2.007591
11.421309 3.5923736 -2.0070441
11.327959 3.8656988 -2.0064478
11.227783 4.1365156 -2.0058024
9.6579685 5.2479715 -1.8425592
9.5239258 5.4767742 -1.8416647
9.3842773 5.7020354 -1.84073
9.2390919 5.9236417 -1.8397551
8.7712307 6.5648026 -1.8365519
7.4888768 6.5008535 -1.6623803
7.1335545 6.5007095 -1.6178546
6.7965622 6.5005703 -1.5765446
6.1708202 6.5003119 -1.5024574
5.8791599 6.5001907 -1.4692111
4.8269043 6.4997439 -1.3571489
4.5877733 6.4996405 -1.3336227
4.1328907 6.4994426 -1.2911254
3.0618358 6.4077702 -1.1904666
2.6933594 6.4150176 -1.1662908
2.3639648 6.4912286 -1.1580424
2.1880662 6.4911466 -1.1482748
1.844541 6.490983 -1.1311711
1.6763867 6.4909039 -1.1237803
1.5103222 6.4908233 -1.1171314
1.346123 6.4907436 -1.1112027
1.1835449 6.4906635 -1.1059783
1.0224023 6.4905839 -1.10144
0.54554689 6.4903469 -1.0918214
0.38813475 6.4902678 -1.0899146
0.074501954 6.4901066 -1.0880163
-0.082089841 6.490026 -1.088017
-0.23875976 6.4899445 -1.0886528
-0.39572266 6.4898624 -1.0899237
-0.55313474 6.4897795 -1.0918338
-0.87009764 6.4896111 -1.0975959
-1.0300097 6.4895244 -1.1014649
-1.517959 6.4892597 -1.1171683
-1.8521875 6.4890752 -1.131216
-1.9953222 6.4012079 -1.1239662
-2.1660645 6.4011111 -1.1327974
-2.3395996 6.4010148 -1.1424401
-2.9175975 6.4844632 -1.1919588
-3.1077538 6.4843535 -1.2053734
-3.3023632 6.484241 -1.2198098
-3.5018065 6.4841242 -1.2353259
-3.7065332 6.4840045 -1.2519796
-3.9169433 6.483881 -1.2698364
-4.3569822 6.4836187 -1.3094652
-5.330996 6.4830313 -1.4070002
-5.5983887 6.4828691 -1.435866
-5.8771777 6.4826984 -1.4668175
-7.5972166 6.9069343 -1.7211789
-8.0597849 6.326088 -1.7175508
-8.3452635 5.9226689 -1.7154386
-8.4807224 5.7162724 -1.714433
-8.6112795 5.506896 -1.7134613
-9.083066 4.6419063 -1.7099246
-9.2390919 4.4439068 -1.7186129
-9.7925978 4.422471 -1.8011924
-10.18895 4.3086481 -1.8544326
-10.461963 3.5564885 -1.8523273
-10.541196 3.3019683 -1.8517081
-10.681767 2.7880132 -1.8505944
-10.798296 2.2683654 -1.8496498
-10.890571 1.7441528 -1.8488754
-10.958452 1.2164099 -1.8482727
-11.014741 -0.37696105 -1.8475038
-11.002578 -0.64257443 -1.847528
-10.959839 -1.1726605 -1.8477067
-10.929257 -1.4368255 -1.8478614
-10.892592 -1.7002478 -1.8480593
-10.685161 -2.7437356 -1.849283
-10.618203 -3.0013885 -1.8496963
-10.466475 -3.5118618 -1.8506503
-10.381748 -3.7644329 -1.8511904
-10.291142 -4.0150633 -1.8517727
-10.194721 -4.2635908 -1.8523965
-9.870986 -4.9953747 -1.8545148
-9.7517281 -5.2342844 -1.8553023
-9.626914 -5.4704556 -1.8561298
-8.0705957 -6.2830801 -1.7145394
-7.9213181 -6.4797721 -1.7155491
-7.6089354 -6.862781 -1.7176684
-7.278574 -7.2312722 -1.7199181
-7.1068649 -7.4097958 -1.7210906
-6.7507324 -7.7549415 -1.7235279
-6.5664845 -7.9213395 -1.7247919
-6.378252 -8.0835104 -1.7260847
-5.9902048 -8.3947172 -1.7287557
-5.7905369 -8.5435753 -1.7301327
-5.587256 -8.6878319 -1.7315363
-5.1703219 -8.9621277 -1.7344199
-4.7401266 -9.2169027 -1.737402
-4.520381 -9.3367586 -1.7389277
-4.2976561 -9.4515047 -1.7404758
-4.4220996 -10.382864 -1.891783
-3.6698046 -10.705056 -1.8970263
-3.4137108 -10.800639 -1.8988147
-3.1551268 -10.89022 -1.9006219
-2.0992479 -11.18691 -1.9080175
-1.5603027 -11.297521 -1.9118021
-1.2886035 -11.343188 -1.9137121
-1.015625 -11.382398 -1.9156331
-0.19036132 -11.460721 -1.9214489
0.36339843 -11.479886 -1.9253596
0.91855466 -11.472346 -1.9292861
1.19625 -11.458519 -1.9312526
1.4738867 -11.437956 -1.9332201
2.0279784 -11.37665 -1.9371518
2.3041797 -11.33588 -1.9391137
2.5795703 -11.288389 -1.9410717
2.8539941 -11.234171 -1.9430245
3.1273046 -11.173218 -1.944971
3.9388573 -10.950304 -1.9507602
4.4711328 -10.768538 -1.9545656
5.3054786 -9.3929405 -1.8083806
4.5707908 -7.6546578 -1.4945219
4.9009471 -7.7750883 -1.540677
5.9872265 -9.0090332 -1.8132896
6.2082715 -8.8697691 -1.8148849
6.4260058 -8.7249813 -1.8164577
6.6402731 -8.5747395 -1.8180076
7.4599609 -7.9208069 -1.8239547
7.6548142 -7.7445555 -1.8253733
7.8453708 -7.5633969 -1.8267627
8.0315332 -7.3774209 -1.828122
8.390029 -6.9914646 -1.8307464
8.5621777 -6.7917204 -1.8320098
8.7293844 -6.587616 -1.8332396
8.8915529 -6.37923 -1.8344345
10.450156 -5.7321587 -1.9980078
11.090781 -4.4436121 -2.0028367
11.199375 -4.1765027 -2.0036666
11.301298 -3.9066474 -2.0044501
11.484707 -3.3593853 -2.0058739
11.566113 -3.0823424 -2.0065143
11.640527 -2.8032503 -2.0071051
11.707949 -2.5222538 -2.0076473
11.821465 -1.955506 -2.0085814
11.86751 -1.6700854 -2.0089736
11.938007 -1.0960772 -2.0096054
11.962402 -0.80786496 -2.009845
11.989394 -0.22992492 -2.0101705
11.987226 0.34865659 -2.0102899
11.975234 0.63772643 -2.0102723
11.929414 1.2144763 -2.0100827
11.895615 1.5017767 -2.0099106
11.854609 1.7881103 -2.0096872
11.751044 2.3571625 -2.0090876
11.619023 2.9200463 -2.0082853
11.458936 3.4753375 -2.0072827
11.368515 3.7496808 -2.0067074
11.27124 4.0215864 -2.006083
11.167188 4.2908807 -2.00541
9.4444036 5.6066179 -1.8411328
9.3015528 5.8297858 -1.8401748
7.6461425 6.5009184 -1.6823834
6.0017185 6.5002422 -1.4830766
5.4448047 6.5000076 -1.4213706
4.9312792 6.4997892 -1.3676573
4.6885252 6.4996829 -1.3434389
3.7941015 6.4992938 -1.2615401
3.3847167 6.4991107 -1.2283477
2.6154394 6.4795709 -1.1713259
2.4397655 6.4912653 -1.1624583
2.262578 6.4911809 -1.1523312
2.0883203 6.4910989 -1.1430358
1.9167773 6.4910183 -1.1345469
1.5807617 6.4908562 -1.1198714
1.2525488 6.4906974 -1.1081177
1.0908399 6.4906182 -1.1032895
0.93041992 6.4905386 -1.0991393
0.61270505 6.4903803 -1.0928271
0.45504883 6.4903021 -1.090647
0.29793945 6.4902215 -1.0891093
-0.17206055 6.4899783 -1.0883046
-0.48606443 6.4898148 -1.090942
-0.64385742 6.4897308 -1.0932232
-0.80236328 6.4896479 -1.0961504
-1.2843652 6.4893866 -1.1089252
-1.6131054 6.4892058 -1.1208999
-1.9498534 6.4890203 -1.1358099
-2.2653906 6.4010563 -1.1382347
-2.4406543 6.4009562 -1.1483552
-3.4162989 6.4841743 -1.2285862
-4.2610645 6.4836774 -1.3005732
-4.7238669 6.4834003 -1.3447083
-5.2203903 6.4830985 -1.3953062
-5.7570996 6.4827714 -1.4533807
-6.6551075 6.4822183 -1.5573483
-7.9966111 6.4102287 -1.7180171
-8.2861233 6.009572 -1.7158771
-8.6840134 5.385324 -1.7129186
-9.0367479 4.7359123 -1.7102739
-10.245307 4.1660552 -1.8540008
-10.338799 3.9161711 -1.8532819
-10.426445 3.664284 -1.8526036
-10.717714 2.6392729 -1.8503058
-10.775517 2.3793476 -1.8498367
-10.973417 1.0643628 -1.8481314
-11.009717 0.53367615 -1.8477513
-11.018652 0.26790953 -1.8476263
-11.021416 0.0020153809 -1.8475448
-11.018042 -0.26385313 -1.8475069
-11.008491 -0.52957517 -1.8475125
-10.970986 -1.0600238 -1.8476542
-10.908945 -1.5882739 -1.8479699
-10.86877 -1.8512036 -1.8481927
-10.822495 -2.1131651 -1.8484588
-10.770165 -2.374028 -1.848768
-10.711802 -2.6336553 -1.8491201
-10.647431 -2.8919158 -1.8495153
-10.577055 -3.1486752 -1.8499529
-10.418535 -3.6571572 -1.8509554
-10.33041 -3.9086609 -1.8515197
-10.136636 -4.4053955 -1.8527741
-9.9200287 -4.8929019 -1.854192
-9.803154 -5.1329298 -1.8549625
-9.6807222 -5.3702698 -1.8557726
-9.5527143 -5.6048145 -1.8566231
-9.4192286 -5.8364649 -1.857513
-8.3484077 -6.050056 -1.7283114
-7.9854198 -6.396472 -1.7151153
-7.6769433 -6.7824664 -1.7172064
-7.180459 -7.3343029 -1.7205878
-7.006289 -7.5105772 -1.7217783
-6.8279004 -7.6828575 -1.7229992
-6.6453905 -7.8510313 -1.7242503
-6.4588571 -8.0150185 -1.7255309
-6.0740623 -8.329977 -1.728178
-5.4689159 -8.7685776 -1.732354
-5.0480661 -9.0373249 -1.7352668
-4.8327537 -9.1643524 -1.7367594
-4.6142774 -9.2863693 -1.7382755
-4.52667 -10.332943 -1.8910551
-4.2799802 -10.448615 -1.8927723
-4.0303807 -10.55852 -1.8945113
-3.0055761 -10.938904 -1.9016677
-2.2130663 -11.16011 -1.9072192
-1.4043652 -11.324548 -1.9128982
-1.1319042 -11.366506 -1.9148147
-0.58352536 -11.430886 -1.9186764
-0.30790037 -11.453226 -1.92062
-0.031513672 -11.468953 -1.9225703
0.24542968 -11.478043 -1.924526
0.80040038 -11.476192 -1.92845
-8.9093943 3.9906852 -1.8634045
-8.9997463 3.773195 -1.8627151
-9.0849705 3.5537457 -1.8620617
-9.3094435 2.8847437 -1.860319
-9.3737888 2.6585937 -1.8598115
-9.4328022 2.4310656 -1.8593414
-9.5348339 1.972373 -1.8585131
-9.5777826 1.7414367 -1.8581557
-9.6153708 1.5096154 -1.8578361
-9.7267284 0.10669433 -1.8567222
-9.7262106 -0.12798522 -1.8566715
-9.7202148 -0.36258361 -1.8566591
-9.6918945 -0.83105099 -1.8567502
-9.6418066 -1.2977405 -1.8569957
-9.5700483 -1.7616796 -1.8573952
-9.5260839 -1.9923147 -1.8576522
-9.42206 -2.4503086 -1.8582809
-9.3620796 -2.6774359 -1.8586521
-9.0696096 -3.5706379 -1.860512
-8.892314 -4.0064292 -1.8616639
-7.8495407 -5.849834 -1.8686069
-6.6896973 -6.0710778 -1.7243514
-6.2441211 -6.5504856 -1.7273898
-5.9283009 -6.8526154 -1.7295523
-5.7650094 -6.9981632 -1.7306728
-5.2544823 -7.4117565 -1.7341859
-5.0777149 -7.5416598 -1.7354054
-4.7148242 -7.7890387 -1.7379134
-4.5289063 -7.9063754 -1.7392004
-3.7575195 -8.3315516 -1.7445549
-3.5582616 -8.4264669 -1.7459416
-3.1527734 -8.6021967 -1.7487674
-2.9467676 -8.6828804 -1.7502049
-2.7387011 -8.7587099 -1.7516583
-2.5287206 -8.8296261 -1.7531261
-2.3169434 -8.8955679 -1.7546082
-1.8883984 -9.0123634 -1.7576106
-1.4540136 -9.108736 -1.7606591
-0.79357421 -9.2142782 -1.7653036
-0.34883788 -9.2582455 -1.7684376
-0.12548828 -9.272213 -1.7700133
0.54682618 -9.2818613 -1.7747641
0.99568355 -9.2612343 -1.7779422
1.4438183 -9.2188826 -1.7811203
1.6672559 -9.1895437 -1.7827067
1.8901659 -9.1547718 -1.7842908
2.3336816 -9.0689659 -1.7874463
2.5540233 -9.0179329 -1.7890159
2.7732325 -8.9615202 -1.7905788
3.2078028 -8.8326044 -1.793681
3.4228711 -8.7601452 -1.7952185
4.4708204 -8.3192348 -1.8027297
4.55374 -7.5731277 -1.686739
5.6506934 -7.6230736 -1.811233
6.0207028 -7.3525019 -1.813912
6.2007909 -7.2103086 -1.8152182
6.5505176 -6.9124932 -1.81776
6.8855467 -6.5973406 -1.8202019
7.2049899 -6.2655673 -1.8225375
8.0141306 -6.0092468 -1.9119838
8.4159279 -5.9988852 -1.9727298
8.6113577 -5.830112 -1.9849854
8.8918552 -5.4136295 -1.9870654
9.1515427 -4.9832768 -1.9890013
9.2733593 -4.763237 -1.9899136
9.3896875 -4.5401301 -1.9907879
9.7050581 -3.8538351 -1.9931774
9.7987299 -3.6198962 -1.993894
10.114375 -2.6621535 -1.9963485
10.178223 -2.4179897 -1.9968568
10.332998 -1.676668 -1.9981234
10.431767 -0.92543209 -1.9989965
10.473857 -0.16866271 -1.9994704
10.475224 0.084067382 -1.9995388
10.441397 0.84135312 -1.999476
10.35081 1.5938604 -1.9990106
10.308076 1.8428844 -1.9987664
10.204014 2.3372192 -1.9981461
9.9225683 3.3066399 -1.9963818
9.8372164 3.5440776 -1.9958338
9.6488962 4.0119815 -1.9946111
9.5461035 4.2421551 -1.993938
9.392705 4.4483538 -1.983745
8.8647947 4.4632659 -1.8944464
8.2400684 4.9260283 -1.8324602
7.9854198 5.3127823 -1.8307498
7.5686522 5.8672991 -1.8279324
7.4208202 6.0448685 -1.8269289
7.2687302 6.218605 -1.825894
6.9518847 6.5540118 -1.8236825
6.7879295 6.7160492 -1.8226597
5.9645801 6.5000491 -1.6839006
4.8997169 6.4996123 -1.5536442
4.6580567 6.4995098 -1.5263069
4.4246387 6.4994135 -1.5007749
2.9295115 6.4075689 -1.3448118
2.7477441 6.4149027 -1.332047
2.5969336 6.4911966 -1.3344902
2.4169335 6.4911137 -1.3220984
1.8950487 6.4908719 -1.2906744
1.7262402 6.4907913 -1.2820017
1.3948535 6.490634 -1.2671903
1.2318262 6.4905548 -1.2610043
0.91002929 6.490396 -1.2509785
0.7508496 6.4903193 -1.2471073
0.59257811 6.4902396 -1.2439826
0.27792969 6.4900799 -1.2399356
0.1211914 6.4899993 -1.2390003
-0.035410155 6.4899211 -1.2387881
-0.66399413 6.4895892 -1.2451741
-0.82262695 6.4895048 -1.2486026
-1.3050878 6.4892426 -1.2634438
-1.4687988 6.4891534 -1.2699573
-1.8018066 6.4889679 -1.2854518
-2.1148436 6.4010062 -1.2867573
-2.2875097 6.4009075 -1.2974565
-2.4631739 6.400806 -1.3091044
-2.8616307 6.4843535 -1.3528771
-3.243789 6.484129 -1.3838999
-3.4417577 6.4840117 -1.4011946
-3.6448436 6.483891 -1.4197606
-3.8535058 6.4837666 -1.4396778
-4.2895603 6.4835029 -1.4838864
-4.7543554 6.4832196 -1.5345798
-4.9991407 6.483068 -1.5626425
-5.8854294 6.9151349 -1.7332789
-6.0460839 6.7661152 -1.7320009
-6.2030563 6.6135211 -1.7307442
-6.3566699 6.4577656 -1.7296221
-6.794404 5.9700627 -1.7264138
-7.1959763 5.4537177 -1.7234547
-7.3215036 5.2756853 -1.7225257
-7.4427438 5.0948663 -1.7216265
-7.5596776 4.9113483 -1.7207571
-7.7803221 4.5366473 -1.71911
-8.0488863 4.4365959 -1.7542871
-8.5001068 4.4213676 -1.8288417
-8.7718258 4.2970853 -1.8644485
-8.8694038 4.0825982 -1.8637087
-9.049346 3.6473455 -1.8623353
-9.1315823 3.4268169 -1.8617026
-9.208642 3.2045031 -1.8611059
-9.2804785 2.9805188 -1.8605459
-9.3470602 2.7549944 -1.8600229
-9.4643068 2.2997773 -1.8590881
-9.5149117 2.0703259 -1.8586767
-9.5601759 1.8398174 -1.8583032
-9.6000385 1.608355 -1.8579675
-9.6345015 1.3760773 -1.8576698
-9.6635351 1.1430811 -1.8574102
-9.7053223 0.67548889 -1.8570058
-9.7180367 0.44112852 -1.8568615
-9.7253027 0.20653808 -1.8567556
-9.7270994 -0.028131103 -1.8566884
-9.7234278 -0.26278624 -1.8566597
-9.6997356 -0.73150754 -1.8567179
-9.6797361 -0.96533871 -1.856805
-9.6234083 -1.4313384 -1.8570946
-9.5871286 -1.6632538 -1.8572972
-9.5454388 -1.8943024 -1.8575381
-9.4983883 -2.1243429 -1.8578172
-9.3252344 -2.8072884 -1.8588824
-9.2569332 -3.0321305 -1.859313
-9.1834078 -3.2553914 -1.8597808
-9.1046877 -3.4769275 -1.8602858
-8.9317579 -3.9143953 -1.8614066
-8.8376369 -4.130096 -1.8620218
-8.634326 -4.5548458 -1.86336
-7.7699413 -5.9597826 -1.8691441
-7.1337204 -6.0399981 -1.7841784
-6.4601464 -6.3264928 -1.7259148
-5.9967184 -6.7895532 -1.7290834
-5.5008302 -7.2196326 -1.732489
-5.1533008 -7.4868932 -1.7348837
-4.7930369 -7.737824 -1.7373723
-4.6083593 -7.856986 -1.7386502
-4.4207811 -7.9718175 -1.7399496
-3.8415723 -8.2897577 -1.7439704
-3.6433399 -8.3866482 -1.7453493
-2.4072754 -8.8681183 -1.7539757
-1.9800879 -8.9892159 -1.7569678
-1.5468554 -9.0899611 -1.7600071
-1.3282909 -9.1325893 -1.7615424
-0.66612303 -9.229084 -1.7662013
0.0030566405 -9.2778158 -1.7709209
0.22706054 -9.2833357 -1.7725031
0.45133787 -9.2834568 -1.7740887
0.67579103 -9.2781591 -1.7756768
0.90020508 -9.2674446 -1.7772659
1.3485742 -9.2297125 -1.7804443
1.5722656 -9.2026911 -1.7820321
2.2395995 -9.0890322 -1.7867764
2.6800878 -8.9861851 -1.7899145
3.1158397 -8.8618202 -1.7930241
3.9686816 -8.549346 -1.7991263
4.3836718 -8.3617897 -1.8021036
4.5878711 -8.2603235 -1.8035709
4.7701464 -7.6896172 -1.7272458
5.3793945 -7.8044109 -1.8092729
5.5703611 -7.6782126 -1.8106523
6.3027048 -7.1265769 -1.815958
6.4773145 -6.9773231 -1.8172275
6.6483006 -6.8237023 -1.8184719
7.4815722 -6.0226808 -1.8332748
8.5490818 -5.9168272 -1.9845248
9.0980759 -5.075933 -1.9886017
9.2221975 -4.8572364 -1.9895303
9.5615721 -4.1829724 -1.9920864
9.8499022 -3.4844189 -1.9942874
10.151807 -2.5220785 -1.9966458
10.266397 -2.0304143 -1.9975704
10.444199 -0.78079343 -1.9991183
10.471318 -0.27615845 -1.9994274
10.47541 -0.023472289 -1.9995151
10.449648 0.73413265 -1.9995092
10.428418 0.98597163 -1.9994178
10.400898 1.2371734 -1.9992818
10.033955 2.9645495 -1.9970896
9.9570894 3.2049596 -1.9966022
9.0835257 4.4571123 -1.931312
8.1688862 5.038455 -1.831983
7.9087887 5.4214277 -1.8302335
7.6302242 5.7906208 -1.8283498
7.4842577 5.9697747 -1.8273596
7.3339548 6.1451569 -1.8263378
7.1794238 6.3166547 -1.8252853
7.0207911 6.4841666 -1.8242029
6.8581638 6.647614 -1.8230987
5.8006153 6.4999824 -1.6628911
5.5246973 6.4998698 -1.6282818
5.2598634 6.4997611 -1.5959917
5.0052052 6.4996562 -1.565855
4.2939649 6.4993572 -1.4868731
4.0721679 6.4992619 -1.4639446
3.8569531 6.4991693 -1.4425399
3.6478221 6.4990788 -1.4225652
3.4443066 6.4989896 -1.4039456
3.2003515 6.4076896 -1.3671417
2.8227637 6.4075198 -1.3364619
2.6431055 6.414855 -1.324304
2.3150001 6.4910674 -1.3154259
1.7977929 6.4908271 -1.2855868
1.6302441 6.4907465 -1.2774074
1.3009863 6.4905887 -1.2635393
1.1388378 6.4905095 -1.2578075
0.5019629 6.4901943 -1.2425216
-0.43917969 6.4897099 -1.2415621
-0.59674805 6.4896259 -1.24394
-0.75500977 6.4895401 -1.247053
-1.074414 6.489368 -1.2555275
-1.5636425 6.4891009 -1.2740666
-1.7302538 6.489007 -1.281872
-2.5671778 6.4047551 -1.3170645
-2.7824903 6.4843998 -1.3468567
-2.9696581 6.4842911 -1.3613226
-3.1610155 6.484179 -1.3769128
-3.3569238 6.4840631 -1.3936836
-3.9761035 6.4836931 -1.4517604
-4.8939061 6.4831338 -1.5504692
-5.9781737 6.8299627 -1.732542
-6.1367188 6.6788993 -1.731277
-6.5907812 6.2055254 -1.7279081
-6.7344723 6.0410285 -1.7268541
-7.0097852 5.702476 -1.724829
-7.1412988 5.528594 -1.7238586
-7.3916893 5.1721368 -1.7220056
-7.5104685 4.989759 -1.7211233
-7.87708 4.4479084 -1.7266957
-8.7287693 4.3876677 -1.864774
-8.8285055 4.1741352 -1.8640192
-9.0127735 3.7406158 -1.8626155
-9.0972166 3.5208673 -1.8619674
-9.1765041 3.2992985 -1.8613552
-9.3829098 2.6247668 -1.8597391
-9.4940329 2.1680968 -1.8588471
-9.5415821 1.9380145 -1.8584574
-9.6205177 1.4749981 -1.8577917
-9.6777735 1.0089569 -1.8572783
-9.6982708 0.77511597 -1.8570789
-9.7133007 0.5408746 -1.8569183
-9.7228708 0.3063733 -1.856796
-9.7269917 0.071714476 -1.8567123
-9.7256737 -0.16295348 -1.8566669
-9.6889162 -0.86590511 -1.8567632
-9.665781 -1.0994531 -1.8568723
-9.6032124 -1.5646814 -1.8572066
-9.519062 -2.0265996 -1.8576939
-9.468935 -2.2560241 -1.8579948
-9.413476 -2.4842422 -1.8583337
-9.215332 -3.1606002 -1.8595773
-9.1388178 -3.3828897 -1.8600663
-8.9702539 -3.8219905 -1.861156
-8.8782911 -4.0385761 -1.8617556
-8.5722656 -4.6751175 -1.863771
-8.460351 -4.8825016 -1.864514
-8.0956936 -5.4887156 -1.866951
-7.6375194 -6.0281587 -1.8572068
-6.941494 -6.0444188 -1.7568922
-6.6683884 -6.0956016 -1.7244964
-6.2211032 -6.573493 -1.7275473
-5.9041891 -6.8745456 -1.7297177
-5.5730467 -7.1607294 -1.7319921
-5.4023533 -7.2980304 -1.7331669
-5.2283106 -7.4313769 -1.7343663
-5.0511036 -7.5606766 -1.7355889
-4.8707228 -7.6858454 -1.7368351
-4.1254587 -7.6886253 -1.6655189
-4.1197753 -8.143733 -1.7420377
-3.9251561 -8.2471457 -1.7433894
-3.7279687 -8.3459949 -1.7447604
-2.7075293 -8.7695856 -1.751876
-2.4972851 -8.8397589 -1.7533461
-2.2852342 -8.9049673 -1.75483
-1.8562206 -9.0202589 -1.7578362
-0.31557617 -9.2606602 -1.7686721
-0.092167966 -9.27384 -1.7702487
0.35590819 -9.2840672 -1.773414
0.80474609 -9.2726593 -1.7765898
1.0291015 -9.2588301 -1.7781789
1.4771777 -9.2148581 -1.781357
1.7005371 -9.1847067 -1.7829431
1.9233203 -9.1491241 -1.7845265
2.145371 -9.1081209 -1.7861058
2.3665526 -9.0616989 -1.7876803
2.5867479 -9.0098658 -1.7892491
3.667959 -8.6703663 -1.796972
4.0887694 -8.4975872 -1.7999872
4.296113 -8.4034185 -1.801475
4.5012693 -8.3041143 -1.8029485
4.5585446 -7.9460869 -1.7485893
5.2972655 -7.8566461 -1.8086801
5.8648338 -7.4699097 -1.8127828
6.0477438 -7.3316126 -1.8141079
6.4034472 -7.0413699 -1.8166902
6.7448339 -6.7335081 -1.8191754
6.9099021 -6.573175 -1.8203797
7.0710349 -6.4087176 -1.8215572
7.3810935 -6.0677447 -1.8238287
7.690908 -6.0174437 -1.8639532
8.7749901 -5.5925822 -1.9861975
9.043642 -5.168015 -1.9881954
9.1700287 -4.9506965 -1.9891397
9.2910347 -4.7301922 -1.9900464
9.4065428 -4.5066285 -1.9909151
9.7193947 -3.8191397 -1.9932867
9.8121967 -3.5848188 -1.9939975
10.124268 -2.6258652 -1.9964269
10.244092 -2.1355095 -1.9973882
10.294756 -1.8881576 -1.9978039
10.409482 -1.139284 -1.9987893
10.435185 -0.88794494 -1.9990295
10.45459 -0.63598812 -1.9992254
10.467675 -0.38362792 -1.9993767
10.474453 -0.13100463 -1.9994833
10.468994 0.37438354 -1.9995624
10.413379 1.1303692 -1.9993451
10.382236 1.3811389 -1.9991833
10.301182 1.879895 -1.9987265
10.251318 2.1275408 -1.9984316
10.195273 2.373817 -1.9980927
9.8239841 3.579278 -1.9957483
9.7318554 3.8140838 -1.9951516
9.6339455 4.0464497 -1.9945135
8.7901173 4.4653568 -1.881906
8.342597 4.7575955 -1.8331457
8.2217579 4.9552813 -1.8323376
7.9656835 5.3410697 -1.8306168
7.8306441 5.528924 -1.829706
7.6909957 5.7132659 -1.8287616
7.3984179 6.0709968 -1.8267764
7.2456837 6.2441568 -1.825737
7.0887985 6.4133744 -1.8246672
6.9276953 6.5784268 -1.8235321
6.763164 6.7398467 -1.8225046
6.5947752 6.897028 -1.8214465
5.3712597 6.4998064 -1.6094595
5.1123829 6.4997001 -1.5784261
4.8631544 6.4995966 -1.5494522
4.3905077 6.4993987 -1.4971151
3.7361035 6.4991169 -1.4308962
3.5302441 6.4990263 -1.4117069
3.3297167 6.4989386 -1.3938296
2.9016991 6.4075556 -1.3426123
2.5699022 6.4911833 -1.33258
2.2140527 6.4910197 -1.3090724
2.0405958 6.4909391 -1.2987461
1.8697559 6.4908609 -1.2893269
1.7012793 6.4907804 -1.2807834
1.5349219 6.4907012 -1.2730885
1.3704492 6.4906216 -1.2662182
1.2076465 6.4905438 -1.2601502
0.88624996 6.4903851 -1.2503551
0.72722656 6.4903069 -1.2465947
0.56903321 6.4902277 -1.2435802
0.41155273 6.4901495 -1.2413011
0.25456053 6.4900689 -1.23975
-0.058740232 6.4899087 -1.2388172
-0.21540038 6.4898257 -1.2394342
-0.37230468 6.4897428 -1.2407732
-0.84632808 6.4894915 -1.2491779
-1.4933398 6.4891386 -1.2709966
-1.8269531 6.4889531 -1.2867417
-1.9943359 6.4799528 -1.2941188
-2.3134961 6.4008927 -1.2991323
-2.7040331 6.4844451 -1.3410295
-3.0790625 6.4842267 -1.3701389
-3.2729883 6.4841118 -1.3863983
-3.8851171 6.483748 -1.4427658
-4.323154 6.4834819 -1.4874307
-4.5527539 6.4833426 -1.512162
-5.0363965 6.4830451 -1.5669918
-5.2919431 6.4828873 -1.5973561
-6.0696969 6.7435904 -1.7318126
-6.3792381 6.4342461 -1.729457
-6.8152246 5.9450703 -1.7262609
-6.9525781 5.7755461 -1.7252504
-7.4604588 5.0676923 -1.721495
-8.1138086 4.4344144 -1.7649493
-8.7866993 4.2652555 -1.8643359
-8.8835354 4.0504498 -1.8636013
-8.9752731 3.8335295 -1.8629023
-9.0619335 3.6145904 -1.8622388
-9.4170017 2.4940898 -1.8594677
-9.5220013 2.0360448 -1.8586187
-9.6055365 1.5737823 -1.8579205
-9.6391792 1.3413849 -1.8576286
-9.7194624 0.40616941 -1.8568434
-9.7259083 0.17157105 -1.8567431
-9.7268944 -0.063103028 -1.8566816
-9.7224216 -0.29775268 -1.8566586
-9.7125092 -0.53221619 -1.8566742
-9.6971092 -0.76639038 -1.8567284
-9.5812502 -1.697749 -1.8573307
-9.4909277 -2.1585343 -1.857862
-9.0924807 -3.509793 -1.8603643
-8.8231831 -4.1620655 -1.8621165
-8.6183882 -4.5861187 -1.8634655
-8.3938475 -5.0005012 -1.8649566
-7.8873239 -5.7965527 -1.8683523
-6.5854101 -6.1894736 -1.7250612
-6.2866211 -6.5075989 -1.7270994
-5.9728317 -6.8117237 -1.7292471
-5.6446581 -7.1011162 -1.7314999
-5.4753904 -7.2400913 -1.7326641
-5.3027635 -7.3751383 -1.7338531
-5.1268945 -7.5061669 -1.7350659
-4.7657127 -7.7558575 -1.7375613
-4.580586 -7.8743758 -1.7388425
-4.3925781 -7.9885702 -1.740145
-4.2017775 -8.0983582 -1.7414684
-3.4126074 -8.4922285 -1.7469559
-3.2093554 -8.5790358 -1.7483728
-3.0039454 -8.6610508 -1.7498057
-2.7964063 -8.7382345 -1.751255
-2.5869532 -8.8105135 -1.7527189
-2.1626563 -8.9401588 -1.7556884
-1.947998 -8.9974318 -1.7571926
-1.2956152 -9.1385012 -1.7617719
-1.0756934 -9.1751461 -1.7633183
-0.85480469 -9.2065382 -1.7648726
-0.63301754 -9.2326393 -1.7664344
-0.41045898 -9.2534332 -1.768003
-0.18729492 -9.2688875 -1.7695771
0.036435544 -9.2789783 -1.7711565
0.26048827 -9.2836952 -1.7727394
0.70923829 -9.2769117 -1.7759135
1.157959 -9.2484198 -1.7790926
1.3819531 -9.2260294 -1.7806813
1.6055762 -9.198204 -1.7822686
2.0510156 -9.126236 -1.7854345
2.272578 -9.0821114 -1.7870113
2.4931934 -9.032588 -1.7885824
2.7127342 -8.9776497 -1.7901473
3.1480467 -8.8516998 -1.7932543
3.9999022 -8.5360861 -1.7993499
4.2081542 -8.4441128 -1.8008437
4.414248 -8.3469887 -1.8023232
4.6180859 -8.2447605 -1.8037881
4.5545607 -7.690187 -1.7060068
5.2146192 -7.9080052 -1.8080838
5.4080467 -7.7859082 -1.8094798
5.5985446 -7.6589999 -1.810856
5.786025 -7.5273495 -1.812212
6.1513476 -7.2500653 -1.8148594
6.3289552 -7.1046104 -1.8161488
6.6734667 -6.8004389 -1.8186554
6.8401561 -6.6418982 -1.8198706
7.0029492 -6.4791918 -1.8210596
7.1618066 -6.3123889 -1.8222213
7.3165426 -6.1415939 -1.8233551
7.5352244 -6.0213437 -1.841105
7.9073434 -6.0119696 -1.896028
8.3023434 -6.0018334 -1.9554452
8.5710058 -5.8865314 -1.9846869
8.8543062 -5.4720397 -1.9867861
8.9882421 -5.2594805 -1.9877826
9.3580952 -4.6021018 -1.9905502
9.773428 -3.6847973 -1.9937
9.9464064 -3.2112548 -1.9950333
10.024033 -2.9712768 -1.9956379
10.161211 -2.4856501 -1.9967207
10.321074 -1.7454504 -1.9980234
10.361973 -1.4962176 -1.9983703
10.4471 -0.74326414 -1.9991473
10.472334 -0.23851074 -1.9994433
10.472275 0.26690367 -1.9995605
10.424736 1.0234479 -1.9994006
10.39624 1.2745434 -1.9992574
10.361524 1.524848 -1.9990704
10.320518 1.7741582 -1.9988384
10.2733 2.022331 -1.9985625
10.160302 2.5146544 -1.9978781
10.022871 3.0005028 -1.9970196
9.9451075 3.2406132 -1.9965259
9.8613958 3.4786456 -1.9959893
9.7717571 3.7144721 -1.9954106
9.6762886 3.9478936 -1.99479
8.5271873 4.4814582 -1.8386973
8.392519 4.6725569 -1.8334789
8.1501465 5.0674515 -1.8318574
8.0217476 5.260108 -1.8309945
7.8886619 5.4494233 -1.8300976
7.6087399 5.817564 -1.8282043
7.4621286 5.9961567 -1.8272095
7.156045 6.3418679 -1.8251261
4.9680662 6.499639 -1.5615379
4.7240233 6.4995389 -1.53368
4.488379 6.4994388 -1.5076584
4.2604685 6.4993424 -1.4833559
4.0396776 6.4992471 -1.4606608
3.6171386 6.4990654 -1.4197072
3.4144139 6.4989762 -1.401281
2.7952929 6.4075079 -1.3343549
2.6161523 6.4148431 -1.3223487
2.4663575 6.491137 -1.3254236
2.1140528 6.4909744 -1.303027
1.9421387 6.4908938 -1.2932254
1.605459 6.4907341 -1.2762612
0.95420897 6.4904194 -1.2521813
0.63624996 6.4902606 -1.2447735
0.47849607 6.4901824 -1.2421812
0.32130858 6.4901028 -1.240322
0.16450195 6.4900212 -1.2391856
-0.30550781 6.4897785 -1.2401147
-0.46262693 6.4896979 -1.2418706
-0.93797851 6.4894428 -1.2515512
-1.2601172 6.4892678 -1.2617834
-1.5883398 6.4890862 -1.2751771
-2.0676172 6.401032 -1.2839634
-2.5939257 6.4047394 -1.3189689
-2.8101366 6.4843841 -1.3489434
-2.99791 6.4842739 -1.3635739
-3.1899219 6.4841619 -1.3793347
-3.386533 6.4840446 -1.3962888
-3.795244 6.4838018 -1.4340333
-4.4541407 6.4834027 -1.5014321
-4.6882129 6.4832597 -1.5271528
-4.9305758 6.4831109 -1.554692
-5.1820021 6.4829559 -1.5841802
-5.8403807 6.9556742 -1.7336361
-6.0020409 6.8076935 -1.7323519
-6.1600289 6.6560612 -1.7310905
-6.3145604 6.5011749 -1.7299298
-6.6124606 6.1812186 -1.7277493
-6.755527 6.0162358 -1.7266994
-7.0296483 5.6767569 -1.7246826
-7.1605272 5.5024214 -1.7237167
-7.2872262 5.3251863 -1.7227796
-7.5278025 4.9623518 -1.7209944
-7.641572 4.7769413 -1.7201469
-7.7508593 4.5890226 -1.7193305
-8.7439747 4.3559809 -1.8646591
-9.0256834 3.7079914 -1.8625168
-9.1878805 3.2661242 -1.8612672
-9.2611523 3.0425944 -1.860697
-9.4493752 2.3629949 -1.8592083
-9.656064 1.207553 -1.857478
-9.6811714 0.97413939 -1.8572462
-9.7008495 0.74023134 -1.8570526
-9.7173824 -0.43246216 -1.8566629
-9.7043066 -0.66679502 -1.8567007
-9.6858006 -0.90074521 -1.856777
-9.6618557 -1.1342108 -1.856892
-9.5976753 -1.5992297 -1.8572375
-9.5574903 -1.8305306 -1.8574678
-9.5119238 -2.0608559 -1.8577363
-9.204258 -3.1938295 -1.8596478
-9.1269722 -3.4158702 -1.8601425
-8.9568748 -3.8544002 -1.8612429
-8.8641596 -4.0706763 -1.8618481
-8.7663965 -4.2848201 -1.8624895
-8.6636229 -4.4966898 -1.8631666
-8.5558987 -4.7061801 -1.8638793
-7.9447556 -5.7141051 -1.8679653
-7.8084469 -5.9069996 -1.8688842
-6.6470017 -6.1200571 -1.7246418
-6.3514452 -6.4410706 -1.7266566
-5.8799996 -6.8963914 -1.7298837
-5.5478415 -7.1814384 -1.7321657
-5.2021189 -7.4509125 -1.7345471
-4.843574 -7.7041378 -1.737023
-4.4729395 -7.9405046 -1.739588
-4.1044235 -7.7159233 -1.6682004
-3.8959374 -8.2621622 -1.7435925
-3.6984081 -8.3603249 -1.744966
-3.4983983 -8.4538612 -1.7463583
-2.8849609 -8.7059879 -1.7506365
-2.6763086 -8.7803621 -1.7520943
-2.4657812 -8.8497982 -1.7535664
-1.8240038 -9.0280323 -1.7580621
-0.94891602 -9.19382 -1.7642102
-0.50523436 -9.2452345 -1.7673348
-0.058837891 -9.2753382 -1.7704839
0.38932616 -9.2839632 -1.7736502
0.83818358 -9.2709436 -1.7768264
1.2866796 -9.2362251 -1.7800053
1.7337695 -9.1797504 -1.7831793
1.9564745 -9.143362 -1.784762
2.3994336 -9.0543194 -1.7879145
3.69958 -8.6582184 -1.7971983
4.1197848 -8.4838743 -1.8002096
5.1314745 -7.9584727 -1.8074843
5.5178514 -7.713582 -1.8102729
5.7066407 -7.5839343 -1.8116376
6.6013865 -6.8666039 -1.8181303
6.7696872 -6.7098761 -1.8193564
7.094697 -6.3838511 -1.8217303
7.2511911 -6.2147441 -1.822876
7.4034863 -6.0417089 -1.8239928
8.1313276 -6.0062442 -1.9295846
8.6544628 -5.7689614 -1.9853042
8.9318943 -5.3503361 -1.9873631
9.3085938 -4.6970549 -1.9901782
9.6358595 -4.0165749 -1.9926504
9.7335739 -3.7843657 -1.9933952
9.9115915 -3.3127322 -1.9947635
9.9917479 -3.0736237 -1.9953856
10.065908 -2.8325169 -1.9959662
10.196094 -2.344897 -1.9970001
10.252031 -2.0987222 -1.9974529
10.301777 -1.8511742 -1.9978622
10.382647 -1.3525702 -1.9985499
10.438486 -0.85042542 -1.9990616
10.469091 -0.34598511 -1.9993954
10.474921 -0.093335569 -1.9994955
10.474423 0.15939392 -1.9995507
10.467578 0.41203064 -1.9995611
10.454413 0.66443849 -1.9995267
10.434921 0.91640866 -1.9994476
10.409131 1.1678003 -1.9993238
10.37705 1.4184467 -1.9991554
10.294141 1.9168895 -1.9986852
10.186406 2.4104028 -1.9980386
10.12333 2.6549163 -1.9976496
10.054131 2.8977489 -1.9972167
9.9789352 3.1386998 -1.9967413
9.8977442 3.377636 -1.9962229
9.8106251 3.6144085 -1.9956621
9.6188374 4.0808649 -1.9944147
9.5143356 4.3102384 -1.9937294
8.7163963 4.4674211 -1.8695501
8.4415722 4.5869827 -1.8338058
8.324873 4.7872577 -1.8330275
8.2033396 4.9844804 -1.8322141
8.0769529 5.1785431 -1.8313656
7.8100977 5.5566278 -1.8295672
7.5250292 5.9206281 -1.8276365
7.222568 6.2696381 -1.8255795
7.0650582 6.4382524 -1.8245052
6.7383008 6.7635431 -1.822349
6.5693455 6.9200845 -1.8212863
5.8790135 6.5000153 -1.6728957
5.0746384 6.4996829 -1.5739801
4.826787 6.4995818 -1.5452998
4.587666 6.4994802 -1.5185134
3.9158103 6.4991946 -1.4483105
3.5000196 6.4990139 -1.4089612
3.3002539 6.4989262 -1.3912716
3.0617578 6.4076276 -1.3555157
2.8739648 6.4075432 -1.3404342
2.6933007 6.4148769 -1.3279896
2.3639159 6.4910908 -1.3185965
2.0149803 6.4909282 -1.297286
1.8444922 6.490849 -1.2879988
1.5102929 6.4906888 -1.2720134
1.1835155 6.4905314 -1.2593141
0.54553711 6.4902167 -1.2431943
0.23117188 6.4900565 -1.2395806
0.074501954 6.4899759 -1.2388618
-0.082089841 6.4898968 -1.2388638
-0.39572266 6.4897308 -1.2410355
-0.71118164 6.4895635 -1.2461187
-1.1911328 6.489306 -1.2593458
-1.3537109 6.4892154 -1.2653005
-1.5179297 6.4891262 -1.2720549
-1.6840038 6.4890337 -1.2796304
-1.8521582 6.4889383 -1.2880511
-2.1660254 6.4009771 -1.28985
-2.3395507 6.400878 -1.3008294
-2.7314355 6.4844294 -1.3430487
-3.3022754 6.4840946 -1.3889265
-3.5017285 6.4839749 -1.4065918
-3.7064354 6.4838543 -1.4255539
-4.1334958 6.4835978 -1.4676743
-4.3568749 6.4834614 -1.4910089
-4.5876269 6.4833207 -1.5159928
-4.8263865 6.4831743 -1.5427455
-6.4017086 6.4106584 -1.7292925
-6.6951365 6.086834 -1.7271428
-6.8359375 5.9200006 -1.7261086
-6.9726853 5.7500114 -1.7251022
-7.1053414 5.5769658 -1.7241241
-7.2338476 5.4009452 -1.7231747
-7.3581052 5.2220745 -1.7222546
-7.4780564 5.0404449 -1.7213643
-7.5936813 4.8561492 -1.7205039
-7.8116894 4.4799662 -1.7188751
-8.6420603 4.4165387 -1.8525009
-8.8014355 4.2333941 -1.8642243
-8.8975286 4.01825 -1.8634949
-9.1551075 3.3607416 -1.861521
-9.2306051 3.1379008 -1.8609353
-9.3008785 2.9134502 -1.8603861
-9.3658686 2.687489 -1.8598742
-9.4255762 2.4601386 -1.8593991
-9.6711426 1.0735126 -1.8573402
-9.6931438 0.8398059 -1.8571304
-9.7096682 0.60566771 -1.856959
-9.726572 -0.098081663 -1.8566756
-9.7212982 -0.33269408 -1.8566585
-9.7105465 -0.56712037 -1.8566798
-9.6456537 -1.2680786 -1.8569756
-9.6131639 -1.5005432 -1.857151
-9.5319729 -1.962983 -1.8576175
-9.370019 -2.6485779 -1.8586029
-9.305439 -2.8744726 -1.8590069
-9.1604786 -3.3216014 -1.8599275
-8.9947748 -3.761759 -1.8609965
-8.9042377 -3.9789114 -1.8615861
-8.491787 -4.8254251 -1.8643049
-8.2561131 -5.2338047 -1.8658761
-8.0013571 -5.6311002 -1.8675846
-7.7280664 -6.0164065 -1.869427
-7.3767772 -6.0343299 -1.8191499
-6.70749 -6.0497241 -1.7241358
-6.5636816 -6.2136402 -1.7252091
-6.4156151 -6.3739171 -1.7262186
-6.2637305 -6.5307493 -1.7272558
-6.1081347 -6.6840701 -1.7283202
-5.9488769 -6.8337913 -1.7294112
-5.7860155 -6.9798241 -1.7305287
-5.2767673 -7.394918 -1.7340323
-5.10042 -7.525331 -1.7352487
-4.9208984 -7.6516581 -1.7364885
-4.5527539 -7.8916616 -1.7390352
-4.1901951 -7.6857615 -1.6708938
-3.9792285 -8.2190065 -1.7430137
-3.7827537 -8.3191223 -1.7443794
-3.5837986 -8.4146261 -1.7457637
-2.7653613 -8.7493019 -1.751472
-2.5555663 -8.820859 -1.7529385
-2.1307518 -8.9490156 -1.7559119
-1.9158887 -9.0055275 -1.7574177
-1.6995605 -9.056941 -1.7589352
-1.2629199 -9.1442909 -1.7620018
-0.82183594 -9.2107563 -1.7651047
-0.59989256 -9.2360764 -1.7666677
-0.37725586 -9.256073 -1.7682372
0.74268556 -9.2755384 -1.7761502
0.96708006 -9.2631989 -1.7777395
1.1913476 -9.2454319 -1.7793292
1.638828 -9.1935873 -1.7825048
2.3054786 -9.0750751 -1.7872454
2.5259666 -9.024745 -1.788816
2.745332 -8.9690123 -1.7903798
3.1802733 -8.8414497 -1.7934844
3.3955662 -8.7696705 -1.7950232
3.609199 -8.6926041 -1.7965515
3.8210936 -8.6102724 -1.7980685
4.2389746 -8.4299688 -1.8010648
4.6482325 -8.2291107 -1.8040049
4.5535645 -7.6257944 -1.6953455
5.2436328 -7.8901219 -1.8082931
5.6266894 -7.6396918 -1.8110595
5.9974999 -7.3703156 -1.8137438
6.1780076 -7.2286949 -1.8150527
6.3550973 -7.0825696 -1.8163388
6.5286617 -6.9319854 -1.817601
6.6985545 -6.777081 -1.818838
7.1850977 -6.2871923 -1.8223919
7.3392382 -6.1158166 -1.8235214
7.5892773 -6.0199938 -1.8490146
7.9646387 -6.0105109 -1.9045794
8.7362404 -5.6501732 -1.9859099
9.1356153 -5.0111027 -1.9888823
9.5925388 -4.1145926 -1.9923211
9.6927052 -3.8834677 -1.9930831
9.7871189 -3.6498384 -1.9938051
9.9583693 -3.1756303 -1.995126
10.035088 -2.9353554 -1.9957244
10.105791 -2.6931682 -1.9962807
10.170439 -2.4492257 -1.9967943
10.228974 -2.2036397 -1.9972656
10.281347 -1.9566574 -1.9976932
10.464706 -0.45346069 -1.9993395
10.4754 0.051867675 -1.9995326
10.471259 0.30456358 -1.999562
10.460791 0.55707699 -1.9995468
10.313877 1.8111829 -1.9988002
10.265722 2.0592194 -1.9985175
10.150888 2.5510826 -1.9978201
10.084335 2.7946351 -1.9974062
10.011689 3.0363977 -1.9969488
9.9330273 3.2762134 -1.9964486
9.8484173 3.5139251 -1.995906
9.7579193 3.7493815 -1.9953207
9.5594921 4.2129779 -1.9940258
8.9294434 4.461452 -1.9053217
7.8683982 5.4773493 -1.8299609
7.7300487 5.6626763 -1.8290259
6.8090625 6.695622 -1.8227921
5.7171679 6.499948 -1.652323
5.4446583 6.4998369 -1.6184243
5.1829591 6.4997296 -1.5867935
4.9311523 6.4996257 -1.5572649
4.4539747 6.4994245 -1.5039334
4.2271681 6.4993291 -1.4798772
3.5866015 6.499052 -1.4168783
3.1429882 6.4076629 -1.3622774
2.9533691 6.4075799 -1.3467159
2.7711229 6.4149127 -1.3338128
2.6142969 6.4767399 -1.3331653
2.2625196 6.4910431 -1.3120912
1.9167383 6.4908829 -1.2918426
1.5807226 6.4907217 -1.2751331
1.2525293 6.4905658 -1.2617493
1.0908105 6.4904852 -1.2562512
0.93040037 6.490407 -1.2515265
0.61270505 6.4902496 -1.2443398
0.14115234 6.4900103 -1.2390795
-0.32885742 6.4897661 -1.24033
-0.64384764 6.4896002 -1.2447904
-1.2843262 6.4892545 -1.26267
-1.447832 6.4891644 -1.2690809
-1.6130761 6.4890714 -1.2763042
-1.9498047 6.4888849 -1.2932812
-2.265332 6.4009194 -1.2960434
-2.8378417 6.4843669 -1.3510525
-3.2188768 6.4841447 -1.3817828
-3.4162207 6.4840274 -1.3989186
-3.6186523 6.4839067 -1.4173219
-4.2609472 6.4835196 -1.4808829
-4.4884863 6.4833817 -1.505152
-4.7237501 6.4832392 -1.5311358
-5.2202539 6.4829311 -1.5887462
-5.8646874 6.9338384 -1.7334434
-6.337285 6.4778118 -1.7297637
-6.4875779 6.3190241 -1.7286642
-6.6340232 6.1568632 -1.7275912
-6.7765136 5.9914031 -1.7265453
-7.4275489 5.1180658 -1.7217394
-7.6581249 4.7491155 -1.7200235
-7.7667966 4.5608416 -1.7192113
-8.4404392 4.4233928 -1.8189234
-8.7590332 4.3242598 -1.8645452
-9.0384865 3.6753325 -1.8624185
-9.1213675 3.4550359 -1.8617812
-9.1991014 3.2329497 -1.8611801
-9.2716017 3.009176 -1.8606155
-9.4574709 2.3289368 -1.8591431
-9.5087595 2.0996332 -1.8587271
-9.5547161 1.8692614 -1.8583486
-9.70331 0.70537227 -1.8570273
-9.7246771 0.23644653 -1.8567669
-9.7271776 0.0017791748 -1.8566947
-9.7019138 -0.70165282 -1.8567096
-9.6578417 -1.1689197 -1.8569125
-9.5510645 -1.8649057 -1.8575053
-9.395937 -2.552 -1.8584421
-9.2659473 -3.0035424 -1.8592559
-9.1930761 -3.2269976 -1.859719
-9.0317574 -3.6687374 -1.8607568
-8.6479006 -4.5280356 -1.8632705
-8.4260931 -4.9437871 -1.8647418
-8.3078413 -5.1478291 -1.8655304
-8.1848631 -5.3491087 -1.8663529
-8.0571289 -5.5475411 -1.8672098
-7.924746 -5.7430301 -1.8681003
-7.5288377 -6.0307412 -1.84128
-7.1771874 -6.0389895 -1.7903987
-6.4790916 -6.306129 -1.7257856
-6.3288379 -6.4644322 -1.7268111
-6.0170798 -6.7705255 -1.7289437
-5.6908689 -7.0620031 -1.7311822
-5.3508496 -7.3381763 -1.7335217
-5.1758399 -7.470346 -1.7347282
-3.8666797 -8.2770662 -1.7437958
-2.8539941 -8.7173786 -1.7508526
-2.6450782 -8.7910156 -1.7523125
-2.4342871 -8.8597097 -1.7537867
-2.2217286 -8.9234228 -1.7552748
-1.791787 -9.0356941 -1.7582883
-1.3562207 -9.1274481 -1.7613461
-0.91599607 -9.1983814 -1.7644418
-0.69444335 -9.2259493 -1.7660018
-0.24908203 -9.2651491 -1.7691412
0.4227539 -9.2837391 -1.7738866
0.64715821 -9.2791357 -1.7754742
-7.8772264 3.7590716 -1.8706478
-7.9628415 3.5667071 -1.8699979
-8.1922064 2.9787183 -1.8682394
-8.37959 2.3766217 -1.8667744
-8.6828222 0.51482177 -1.8641974
-8.69664 0.095393062 -1.864002
-8.6205759 -1.1602875 -1.8642476
-8.5908203 -1.3680371 -1.8644094
-8.5562305 -1.5750531 -1.864606
-8.4235153 -2.1906195 -1.8654009
-8.3111525 -2.5953503 -1.866101
-8.2479095 -2.7956958 -1.8665016
-8.1799507 -2.9945495 -1.8669357
-8.1073627 -3.1918128 -1.8674029
-7.948359 -3.5811324 -1.8684363
-7.7712107 -3.9628172 -1.8695998
-7.2512498 -4.8782358 -1.8730628
-7.1344528 -5.0538645 -1.8738477
-7.0134959 -5.2267737 -1.8746626
-6.7594137 -5.5640783 -1.8763803
-6.6263962 -5.7282825 -1.8772825
-6.489502 -5.8893909 -1.8782128
-6.3251758 -6.0248442 -1.8721896
-6.0341601 -6.0319157 -1.8286037
-5.4898047 -6.0446482 -1.7500572
-4.9985156 -6.3750849 -1.7362368
-4.690908 -6.616828 -1.7383552
-4.5327635 -6.7322888 -1.7394464
-4.3718262 -6.8440499 -1.7405581
-4.2081738 -6.9520426 -1.74169
-3.7018652 -7.2527533 -1.7451996
-3.3523729 -7.4331999 -1.7476283
-3.1743164 -7.5172338 -1.7488675
-2.9942088 -7.5970731 -1.7501222
-2.6281054 -7.7439399 -1.7526764
-2.2548828 -7.8733935 -1.7552847
-1.8753124 -7.9850645 -1.7579422
-1.6834179 -8.0341206 -1.7592874
-1.2959374 -8.1185017 -1.7620071
-0.90425777 -8.1843357 -1.764761
-0.70710933 -8.2102222 -1.7661487
0.28719726 -8.268363 -1.7731646
0.68676758 -8.2580347 -1.7759918
1.2852343 -8.2063007 -1.7802348
2.4671874 -7.9725695 -1.7886453
2.6608691 -7.9168396 -1.7900274
2.8532715 -7.8563757 -1.7914017
3.0442772 -7.7911863 -1.7927674
3.2337792 -7.7213192 -1.7941233
3.4216795 -7.6467843 -1.7954692
3.7921288 -7.4838986 -1.798126
4.1547265 -7.3028445 -1.8007314
4.6818261 -6.9979968 -1.804529
4.8525782 -6.8877149 -1.8057618
5.5081153 -6.4048796 -1.8105087
7.0947752 -5.8752136 -1.9742529
7.2383008 -5.7053952 -1.9753071
7.3778024 -5.5319915 -1.9763339
7.512773 -5.3550978 -1.977329
7.643486 -5.1748319 -1.9782952
7.7697754 -4.991292 -1.9792308
7.8915329 -4.8045921 -1.980135
8.0086622 -4.6148472 -1.9810073
8.2287693 -4.2266889 -1.9826536
8.4294825 -3.8277757 -1.9841655
8.5223923 -3.6245959 -1.9848696
8.6929979 -3.2114139 -1.986172
8.8429489 -2.7900043 -1.9873303
8.9100294 -2.5765321 -1.987854
8.9717865 -2.3614213 -1.9883407
9.1247168 -1.7074847 -1.9895742
9.1993752 -1.2657733 -1.9902047
9.2284374 -1.0436114 -1.9904619
9.2519236 -0.82076538 -1.9906797
9.2698727 -0.59738582 -1.9908587
9.2822456 -0.37361082 -1.9909984
9.290205 0.074557491 -1.9911587
9.2857904 0.29865721 -1.9911798
9.2757912 0.52257383 -1.9911611
9.2602339 0.74617738 -1.9911033
9.2390623 0.9693042 -1.9910055
9.1801167 1.413595 -1.9906921
9.1423435 1.6344769 -1.9904766
8.9962397 2.290324 -1.9895965
8.9367189 2.5062218 -1.9892257
8.8016205 2.9330938 -1.9883702
8.5597363 3.559113 -1.9868058
8.4688377 3.7634466 -1.9862107
8.1662989 4.3616362 -1.9842111
6.7179394 5.2078228 -1.8217646
6.452529 5.520329 -1.8199611
6.314209 5.6714482 -1.8190182
6.1722655 5.8190141 -1.8180493
5.7256346 6.239615 -1.8149896
5.5701561 6.3721771 -1.8139213
5.4115429 6.5007901 -1.8128299
5.2499118 6.6253519 -1.8117118
5.0855761 6.7461209 -1.8106518
4.9184079 6.8627348 -1.8095682
4.1986523 6.4991584 -1.6582977
3.7671678 6.4989786 -1.6099571
2.9294336 6.4074259 -1.5099642
2.0662305 6.4908133 -1.4599043
1.8950098 6.4907341 -1.4491787
1.726211 6.4906559 -1.4394424
1.3948241 6.4904995 -1.4228117
1.0702636 6.4903436 -1.4098049
0.91001952 6.4902639 -1.4046098
0.43498045 6.4900284 -1.394073
0.1211914 6.4898686 -1.3911606
-0.34887695 6.4896245 -1.3928741
-0.50614256 6.4895425 -1.3950723
-0.66399413 6.4894586 -1.3980908
-0.8226074 6.4893703 -1.4019426
-0.98218745 6.489285 -1.4066339
-1.1429492 6.4891973 -1.4121827
-1.3050684 6.4891081 -1.4186049
-1.9715234 6.4887347 -1.4534526
-2.2874608 6.4007697 -1.4567944
-2.463125 6.4006681 -1.4698706
-2.6766503 6.4843183 -1.5034773
-3.2437108 6.4839811 -1.5538508
-3.6447656 6.4837408 -1.5941157
-3.8534179 6.483614 -1.616477
-4.3256445 6.8938479 -1.7442802
-5.8106737 5.6249676 -1.7332883
-6.0685935 5.3323174 -1.7313968
-6.1922169 5.1816459 -1.7304876
-6.3121777 5.0281816 -1.7296039
-6.5409765 4.7132525 -1.727913
-6.6496677 4.5519671 -1.727107
-7.1910839 4.4289227 -1.8100722
-7.6508493 4.2171869 -1.8723549
-7.7473536 4.02982 -1.871629
-7.9269724 3.6487873 -1.8702705
-8.0883884 3.2600396 -1.8690388
-8.1622162 3.0630383 -1.868471
-8.2313671 2.8644226 -1.8679359
-8.3556051 2.4627717 -1.8669641
-8.4106245 2.2599487 -1.8665279
-8.4608688 2.0559502 -1.8661251
-8.5063276 1.8508661 -1.8657562
-8.5469532 1.644829 -1.8654209
-8.6773634 0.60394162 -1.8642567
-8.688818 0.39440978 -1.864127
-8.6969919 -0.025153197 -1.8639715
-8.6855659 -0.44461548 -1.8639545
-8.6725292 -0.65404052 -1.8639981
-8.6040916 -1.2797277 -1.8643363
-8.5715332 -1.4870629 -1.8645183
-8.5341597 -1.6936139 -1.8647343
-8.4919529 -1.8992535 -1.8649849
-8.4449511 -2.1038871 -1.8652694
-8.3931732 -2.307395 -1.8655882
-8.3366499 -2.5096834 -1.8659408
-8.1388083 -3.1080818 -1.8672001
-7.9837303 -3.4989171 -1.8682055
-7.8993359 -3.6915972 -1.8687572
-7.8104 -3.8822939 -1.8693417
-7.7170115 -4.0709362 -1.869958
-7.5170016 -4.4415793 -1.8712857
-7.4104881 -4.623385 -1.8719964
-7.2996774 -4.8027148 -1.872738
-7.1846581 -4.9794645 -1.8735101
-6.9421678 -5.3248539 -1.875144
-6.8148141 -5.4932971 -1.8760052
-6.5482125 -5.8212261 -1.8778137
-6.4091015 -5.9805179 -1.87876
-6.1563478 -6.0289683 -1.8467729
-5.87291 -6.0357575 -1.804917
-5.601748 -6.0420861 -1.7658714
-5.0624118 -6.3218427 -1.7357974
-4.9113574 -6.4459801 -1.7368366
-4.6004004 -6.6836066 -1.7389795
-3.9452441 -7.1142817 -1.743511
-3.7750292 -7.2122684 -1.7446917
-3.6024022 -7.3062553 -1.7458901
-3.2503514 -7.4819927 -1.7483381
-2.8898242 -7.6410179 -1.7508501
-2.1464355 -7.9073019 -1.7560436
-0.19651367 -8.2550659 -1.7697479
0.40196288 -8.2673731 -1.7739761
1.0011621 -8.2363119 -1.7782196
1.2005078 -8.2162905 -1.7796336
1.3994921 -8.1914339 -1.7810462
1.5979687 -8.1617451 -1.7824562
1.9929199 -8.0878944 -1.7852656
2.5786035 -7.941133 -1.7894403
2.7715721 -7.8826733 -1.790818
2.9631739 -7.8195004 -1.7921875
3.8971386 -7.4337382 -1.79888
4.2573047 -7.2475286 -1.8014697
4.4340329 -7.1477575 -1.8027422
4.6083689 -7.0436211 -1.8039989
4.9495215 -6.8224378 -1.8064624
5.1160741 -6.7055192 -1.807667
5.2798047 -6.5844646 -1.8088528
5.5983982 -6.3302145 -1.8111643
6.1567187 -6.0214419 -1.8456978
6.4532323 -6.0137939 -1.8905332
7.0324512 -5.9463573 -1.9737958
7.1777344 -5.7780914 -1.974862
7.4558005 -5.4307785 -1.9769088
7.8402829 -4.884407 -1.9797541
7.9593844 -4.6959372 -1.9806399
8.1835546 -4.3101974 -1.9823146
8.3884468 -3.9134884 -1.9838556
8.4834766 -3.7113321 -1.9845742
8.7382221 -3.0911565 -1.9865197
8.9461517 -2.4531391 -1.9881382
9.058135 -2.0196779 -1.9890307
9.148428 -1.5809972 -1.9897712
9.2426071 -0.91565853 -1.990592
9.2629194 -0.6924817 -1.9907873
9.2807417 0.4273358 -1.991174
9.2675295 0.6510846 -1.9911327
9.2487593 0.87443721 -1.991052
9.1590919 1.5406109 -1.9905733
9.1181936 1.7609155 -1.9903353
9.0717869 1.9800928 -1.9900583
9.0199509 2.1980212 -1.9897425
8.9627047 2.4145446 -1.9893881
8.9000683 2.6295471 -1.9889954
8.8321381 2.8428662 -1.9885647
8.7589254 3.0543926 -1.9880962
8.5968647 3.4714861 -1.9870478
8.3155756 4.0802946 -1.9852009
8.2118845 4.2782354 -1.984514
7.0188475 4.8113823 -1.8237997
6.8976364 4.9770684 -1.8229815
6.7724314 5.1396317 -1.8221339
5.9416308 6.0439858 -1.8164711
5.6366992 6.3162541 -1.8143786
5.479414 6.4465508 -1.813297
5.1558595 6.6952457 -1.8111057
4.8211327 6.9278278 -1.8089352
3.6477344 6.4989276 -1.5972649
3.2002733 6.4075446 -1.5350276
3.0093651 6.4074602 -1.5171733
2.4930663 6.4910073 -1.4902428
2.139873 6.4908476 -1.4647747
1.9675585 6.4907684 -1.4536194
1.630205 6.4906106 -1.4342831
0.97805661 6.4902973 -1.4067148
0.65979493 6.4901409 -1.3981462
0.18784179 6.489903 -1.3915079
-0.28211913 6.4896598 -1.3921869
-1.0743945 6.4892349 -1.409716
-1.2359082 6.4891458 -1.4157643
-1.5636035 6.4889641 -1.4305317
-2.0421777 6.4009113 -1.4399825
-2.2136621 6.4008112 -1.4515569
-2.3879981 6.4007111 -1.464174
-2.5671191 6.4046149 -1.478808
-2.7824218 6.4842572 -1.5122595
-3.1609471 6.4840326 -1.546005
-3.3568456 6.4839139 -1.5648364
-3.5576952 6.4837933 -1.5850658
-5.0429883 6.3557453 -1.7388856
-5.1916404 6.2283611 -1.7378051
-5.3371091 6.0975862 -1.7367462
-5.6183691 5.8261709 -1.7346946
-6.2615914 5.0938077 -1.7299768
-6.3794532 4.9387884 -1.7291075
-6.4935546 4.7811236 -1.7282641
-6.6038866 4.6208868 -1.7274467
-7.0373044 4.434473 -1.7827221
-7.4063864 4.4210978 -1.8486571
