# .PCD v0.7 - Point Cloud Data file format
VERSION 0.7
FIELDS x y z
SIZE 4 4 4
TYPE F F F
COUNT 1 1 1
WIDTH 1556
HEIGHT 1
VIEWPOINT 0 0 0 1 0 0 0
POINTS 1556
DATA ascii
19.45372 -6.7926288 3.5735321
19.676699 -6.3421421 3.5853267
18.992636 10.58944 3.7711897
20.762167 12.241897 4.179997
21.519024 13.39819 4.3962016
20.875448 15.982136 4.5595298
20.462353 16.463945 4.5547581
20.04958 16.944794 4.5525913
15.397646 14.342339 3.6493258
15.286474 14.943698 3.7073836
15.291299 18.146461 4.1154132
14.391747 24.489452 4.9261985
11.70707 21.068956 4.180088
11.001083 20.975004 4.1075759
9.0283203 20.735338 3.922128
7.2291598 20.550056 3.7780001
6.103291 20.452385 3.7015364
4.4974704 20.339987 3.6126828
2.4637792 20.247053 3.5372658
0.0088769533 20.213949 3.5056195
-0.47908202 20.217991 3.5073056
-0.9679687 20.225578 3.5116546
-12.527139 23.93561 4.6852345
-12.994199 23.433779 4.6470065
-13.043403 19.965567 4.1359596
-13.084326 17.173117 3.7442143
-13.266885 16.567699 3.6809566
-13.701274 15.512746 3.5894115
-15.389736 15.816289 3.8271725
-16.510483 16.168638 4.0076785
-19.141392 17.015759 4.4416256
-20.704634 17.529585 4.7048244
-22.481348 18.120905 5.0077114
-15.098251 -6.5163803 2.8518956
-15.253921 -7.0248985 2.9124787
-15.106948 -7.8617263 2.9534719
-13.762451 -8.945281 2.8466318
-4.423027 -22.029911 3.8968015
-3.2598729 -21.586943 3.7861779
-2.7262108 -21.565458 3.7697754
-1.1525781 -21.580273 3.7479122
-0.63087887 -21.578892 3.7439368
-0.10999023 -21.577515 3.7421472
0.93183589 -21.574755 3.7451098
0.65054685 -7.0959215 1.235777
0.86302733 -7.4353704 1.2981427
1.7005175 -7.8978229 1.4010767
2.0741014 -7.7861662 1.3974105
2.4785547 -7.7751188 1.4152637
2.6226268 -7.5892053 1.3925387
2.7691796 -7.42768 1.3747629
2.9122362 -7.2704954 1.358283
9.867734 -21.558838 4.1118927
11.823896 -21.559467 4.2643552
13.937851 -21.55332 4.4513779
14.686406 -21.552055 4.5230026
15.459902 -21.550747 4.5996966
16.260546 -21.549389 4.6818018
17.105917 -21.567062 4.7739463
17.971006 -21.567715 4.8686819
18.871651 -21.568398 4.9702072
17.92664 -9.0138445 3.4798303
18.213886 -8.6141462 3.4942181
18.62999 -8.2669392 3.5347359
19.039043 -7.904295 3.5751114
18.907949 -7.3201823 3.5162959
18.449961 -6.6355853 3.4003515
27.277939 10.85275 5.0913663
19.247255 9.90271 3.7538621
19.063778 10.397537 3.7659199
18.920391 10.919723 3.7885578
22.515594 15.266391 4.7177401
22.371435 15.969894 4.7669053
18.64035 14.71406 4.1185145
19.796124 17.23979 4.5525403
15.886581 14.523732 3.732976
15.446181 14.820889 3.7124584
14.623398 15.453897 3.6898031
14.215449 15.768042 3.6818199
15.574286 18.13674 4.1459303
15.152939 18.532679 4.151628
15.666953 24.72739 5.0766611
14.738476 24.552986 4.9663792
11.987041 21.107321 4.2096729
9.2713375 20.762913 3.9435067
8.6476364 20.693317 3.8895161
8.0419626 20.629517 3.8399246
4.1786132 20.321655 3.5980334
3.6651268 20.295027 3.576617
3.1579785 20.272291 3.5581405
2.6562402 20.253365 3.5425375
2.1589551 20.238142 3.5297329
1.6652539 20.22658 3.5196826
-0.779082 20.222225 3.5096579
-13.005254 22.655664 4.5304193
-13.022109 21.468105 4.354526
-13.065644 18.393444 3.9127822
-13.078252 17.500935 3.7889616
-13.440879 15.506747 3.5588918
-14.124712 15.522566 3.6397018
-14.985483 15.690696 3.7628314
-16.064531 16.027735 3.9354951
-17.257734 16.406643 4.129601
-18.586607 16.835125 4.3490958
-20.078232 17.322893 4.5989509
-21.767265 17.882397 4.8855433
-15.760952 -6.6289349 2.9652791
-15.313677 -7.7888947 2.9795711
-14.908349 -8.0412722 2.9376161
-15.109341 -8.6266499 3.0173659
-13.980776 -8.9030628 2.874512
-7.013701 -7.7072477 1.8072414
-4.6792479 -22.231089 3.9399214
-4.0367579 -21.772602 3.8402843
-3.4692285 -21.608175 3.7954075
-2.9316504 -21.57373 3.7758291
-1.8793945 -21.597092 3.7596481
-1.3553808 -21.598379 3.7530861
-0.83210933 -21.579426 3.745208
0.20970702 -21.576668 3.7421308
0.77848631 -7.3002152 1.2732248
0.97624022 -7.4458718 1.302359
1.1792578 -7.5719981 1.3290108
1.8558203 -8.0385132 1.4307559
2.1814356 -7.7270861 1.3924551
2.7130272 -7.4894977 1.3814666
2.8574121 -7.3306818 1.3644955
2.9985058 -7.1759825 1.348779
10.902236 -21.55883 4.1897311
11.564248 -21.55995 4.2429624
12.242383 -21.558685 4.2996116
12.939267 -21.557381 4.3603616
14.39455 -21.552547 4.4947629
15.158164 -21.55126 4.5694618
16.766562 -21.548527 4.7350631
17.632969 -21.567461 4.8313279
19.443604 -21.568832 5.0361366
17.736933 -9.1264753 3.459363
18.233301 -8.8321295 3.5135741
18.320429 -7.8068466 3.4536791
19.699081 -6.7570004 3.6117218
19.317774 9.7124977 3.7498055
19.953251 11.26932 3.9741781
21.976357 13.121207 4.4389119
21.385702 13.478926 4.3840384
22.570341 14.998466 4.6997256
19.955517 17.054296 4.5524607
19.97541 17.9231 4.6543307
14.781416 15.332271 3.6934786
14.372705 15.646921 3.6846373
15.577197 17.801916 4.1023788
15.126083 18.152117 4.0977626
15.09165 24.618605 5.0078788
12.271474 21.146908 4.2401905
11.543789 21.046877 4.163053
10.843916 20.954643 4.0918484
7.0982323 20.537937 3.7685366
6.5319433 20.487814 3.7293289
5.43542 20.401657 3.6615911
4.9026661 20.365229 3.6327617
0.87385738 20.215479 3.5091596
0.38552734 20.213251 3.5061357
-0.59038085 20.219406 3.5080621
-13.015752 21.915541 4.4204898
-13.031811 20.783455 4.2543416
-13.046699 19.732782 4.1025348
-13.060547 18.753933 3.9634085
-13.073482 17.838772 3.8355641
-13.857075 15.51635 3.6078229
-14.595757 15.570452 3.7012286
-16.782309 16.254946 4.0518928
-19.481127 17.126848 4.4985285
-21.089277 17.656982 4.7700801
-15.77562 -6.4628263 2.9565837
-15.285625 -7.1416392 2.9259827
-15.354233 -7.6303039 2.9735003
-14.899443 -7.8581533 2.9213054
-14.405518 -8.0477686 2.8617117
-13.635634 -8.9698868 2.830559
-3.686826 -21.671221 3.8123512
-2.0816698 -21.590107 3.7616472
-1.5575292 -21.597881 3.755357
-1.033623 -21.579958 3.7468138
-0.51215822 -21.578579 3.7433376
0.52937502 -21.575819 3.7429318
0.69711912 -7.1702619 1.249372
1.3081445 -7.6523147 1.3463616
1.7878125 -8.0870247 1.4363638
1.9647558 -7.9698644 1.4235613
2.5253515 -7.7739692 1.4175591
10.011484 -21.558832 4.1223292
10.651181 -21.558832 4.1702704
12.667871 -21.55789 4.3364048
13.37708 -21.556562 4.3998013
14.8604 -21.551762 4.5400214
15.639882 -21.550442 4.6179152
16.44706 -21.549072 4.7013102
10.283261 -7.873446 2.2461514
17.64245 -9.2867584 3.4576612
18.039698 -8.946805 3.4921782
17.378086 -8.1022854 3.3252821
18.676699 -8.1650906 3.5350316
18.900419 -7.7252226 3.5410562
18.746504 -7.1394372 3.4789188
19.388174 9.5225964 3.746084
19.205557 10.015155 3.7564089
19.021816 10.51072 3.7689886
19.348066 13.274511 4.0692668
18.661709 14.898142 4.1412616
20.114893 16.868757 4.5527616
14.530263 15.5256 3.6877887
14.122734 15.839467 3.6803057
15.406728 18.142502 4.1278176
8.5080957 20.678286 3.8778415
7.9062891 20.615753 3.8292127
7.3204393 20.558613 3.7846801
6.7489843 20.506584 3.7440255
6.1905079 20.459408 3.7070534
4.5800977 20.344955 3.6166425
3.549082 20.289509 3.5721521
3.0432422 20.267649 3.5543344
2.0461915 20.235189 3.5272024
1.5531152 20.224438 3.5177648
0.57396483 20.213694 3.5069909
0.086044922 20.21364 3.5055993
-0.40184569 20.217115 3.5068638
-13.009209 22.376675 4.4888673
-13.055312 19.1238 4.0157027
-13.081288 17.305723 3.7622147
-13.162231 16.5662 3.669435
-13.835278 16.575853 3.7444506
-17.547871 16.499651 4.177248
-18.91123 16.940708 4.4031801
-15.799453 -6.3013864 2.9499221
-15.166166 -7.3614535 2.9236696
-14.449951 -8.8277769 2.9366412
-13.851367 -8.9280367 2.8579531
-5.2786036 -22.948891 4.0838575
-3.9062011 -21.734777 3.8297601
-3.3446581 -21.590357 3.7889886
-2.8103418 -21.568842 3.7722118
-2.2839258 -21.581371 3.7636688
-0.71333981 -21.579111 3.7444201
-0.19238281 -21.577732 3.742285
0.32833007 -21.576351 3.7423296
0.82798827 -7.3793316 1.2877982
1.021787 -7.4741235 1.3082629
1.8957226 -8.0102015 1.4275509
2.0425391 -7.787097 1.3961685
2.5991211 -7.6151981 1.3954763
9.7683983 -21.558834 4.1047511
10.40249 -21.558832 4.1513472
11.052529 -21.560905 4.2018919
12.399492 -21.558392 4.313087
14.566435 -21.552259 4.5113459
16.972187 -21.566963 4.7595553
17.831923 -21.56761 4.8532629
18.563437 -8.3223867 3.5281117
18.737383 -7.86306 3.5240736
19.015635 -7.4454784 3.5415812
18.571474 -6.7594719 3.4274778
19.092899 10.319031 3.7638628
19.331747 11.058961 3.8624454
20.155214 12.858785 4.1462245
22.394482 15.857636 4.7588844
18.624706 14.586645 4.1027236
19.861444 17.163778 4.5524611
15.098535 15.088259 3.7018237
14.688095 15.404094 3.6912682
15.691435 18.132704 4.1586637
15.242275 18.49744 4.1567326
15.817988 24.756325 5.094954
12.102998 21.123377 4.2220516
11.381894 21.025183 4.1463113
10.018691 20.851242 4.0119095
9.371748 20.774471 3.952466
8.1366014 20.639231 3.8474824
6.4046288 20.47706 3.7209008
5.3132224 20.392979 3.6547382
4.7825975 20.357521 3.6266398
2.7352929 20.256105 3.5448163
2.2373633 20.240303 3.5315716
1.7431543 20.228163 3.5210903
1.2518164 20.219629 3.5133197
0.2743457 20.21324 3.5058191
-0.21344726 20.215359 3.506062
-12.73625 23.697021 4.6656418
-13.049936 19.503622 4.0697556
-13.063569 18.539972 3.9333174
-13.076313 17.638288 3.8078704
-13.090029 16.794147 3.692759
-13.572241 16.572077 3.7148733
-14.824047 15.640786 3.7372634
-15.886675 15.971785 3.9068348
-17.060507 16.343609 4.097311
-21.485161 17.788477 4.8374348
-15.179233 -6.7503181 2.8810396
-15.317666 -7.2594833 2.9397118
-15.330297 -7.7238302 2.9770463
-14.723857 -8.8078356 2.9755054
-13.510229 -8.9942293 2.814755
-15.757627 -6.4245014 2.5578949
-15.051459 -6.5644498 2.4682648
-15.094126 -7.0212646 2.5023224
-13.699931 -8.0623083 2.3894274
-14.182583 -8.8138313 2.5099795
-13.616011 -8.9241934 2.4471118
-5.0131836 -22.582357 3.4770937
-4.3213573 -21.957523 3.363842
-2.6426952 -21.566153 3.2659543
-2.1181543 -21.588802 3.2606909
-1.5940137 -21.597919 3.2553079
-1.0699512 -21.580025 3.2477767
-0.54843748 -21.578644 3.2446301
-0.027626952 -21.577265 3.2433794
0.49308592 -21.575888 3.2440166
2.0613964 -21.578745 3.2583675
0.87209958 -7.2711401 1.1007922
1.0687598 -7.396574 1.1233596
1.2727538 -7.5213571 1.1466429
1.9171777 -7.8335166 1.2122432
2.2884276 -7.7170243 1.2099092
2.4673145 -7.638988 1.20666
9.3432808 -21.559853 3.5319853
11.26123 -21.561028 3.6563661
11.931309 -21.559784 3.703908
14.055273 -21.554047 3.8678732
14.807656 -21.552792 3.9306338
15.585351 -21.551495 3.9978359
16.390547 -21.550144 4.0697784
18.102753 -9.0160236 3.039916
17.139013 -8.0259085 2.8447247
18.704941 -7.1596427 3.0105548
18.83832 -6.6941929 3.0051422
19.615751 -6.441782 3.103456
22.280703 12.97268 3.8754349
18.930204 14.328449 3.5686862
18.650293 14.837766 3.5823834
19.793758 17.370966 3.9585621
15.355732 14.847121 3.2106643
16.394053 23.496609 4.3065963
15.462353 23.341825 4.2086029
12.026015 20.20862 3.534833
9.38414 19.918564 3.3096886
7.6443357 19.832634 3.1949093
6.0437207 19.85364 3.1195016
5.6727734 20.388445 3.1810923
5.1478806 20.395336 3.1618619
4.1129589 20.396729 3.1276336
3.6064844 20.415579 3.116271
3.1015332 20.422207 3.1049526
2.1011426 20.435349 3.0879223
0.61286134 20.376656 3.0642903
-0.51470703 28.289003 4.2529511
-12.994277 23.74082 4.0681567
-13.012157 22.468683 3.9028475
-13.058085 19.197189 3.4899056
-13.083672 17.369581 3.2687392
-13.114912 16.563812 3.1757326
-13.785297 16.572632 3.2402678
-15.976913 16.60146 3.4633396
-16.777714 16.611992 3.5489829
-17.620571 16.62401 3.6413422
-18.509106 16.636763 3.7408965
-22.353945 16.49295 4.175704
-15.684882 -7.1190896 2.58915
-15.177963 -7.3356943 2.5339594
-15.797163 -8.1108398 2.6692412
-15.214335 -8.2814131 2.6037722
-14.409458 -8.7698059 2.5355585
-4.5694823 -22.128281 3.396378
-1.2726758 -21.598705 3.2522299
-0.74966794 -21.579176 3.245621
0.81300777 -21.575043 3.2453432
1.3348535 -21.573662 3.2490358
1.8581737 -21.572277 3.2546322
0.78916991 -7.1418614 1.0800595
1.4023242 -7.6008201 1.1617968
1.9342188 -8.2345934 1.2714663
2.2110839 -7.719295 1.2069837
2.4076953 -7.6988778 1.2125247
2.8475194 -7.2237287 1.1671484
11.00706 -21.561499 3.6388986
13.051611 -21.557699 3.7880452
13.772285 -21.556356 3.8450809
14.514306 -21.55328 3.9058943
15.281972 -21.552002 3.9713466
16.89958 -21.549286 4.1164417
17.887714 -9.1178656 3.0179398
18.072657 -8.6692991 3.0129626
18.896328 -7.9671721 3.0825381
18.324072 -6.7043529 2.9329474
27.264072 10.673964 4.4010611
21.911377 13.196135 3.8447788
20.608984 13.099586 3.670661
20.367744 16.702784 3.9593763
19.953651 17.184919 3.9583528
15.102744 15.041787 3.2040222
17.768154 23.733416 4.4564643
16.766661 23.559858 4.3466306
15.816533 23.400089 4.245492
14.912539 23.252878 4.1522732
12.302529 20.241817 3.5605278
11.594893 20.157858 3.4955189
9.6234961 19.942656 3.3284438
9.0093651 19.8818 3.2810419
8.4134865 19.825813 3.2373476
7.3103614 19.837017 3.1778195
6.7737889 19.844057 3.1518428
6.2455664 19.850994 3.1280892
5.8771582 20.385763 3.1890781
5.3497362 20.392687 3.1690392
4.8101759 20.321524 3.1390271
4.2966113 20.328266 3.1231406
3.2960351 20.419653 3.1090996
2.2934082 20.432825 3.0906365
1.2953515 20.367687 3.0677447
0.80281246 20.374159 3.064909
0.3108789 20.380623 3.063858
-0.18100585 20.387085 3.0645959
-12.519277 24.808271 4.1770172
-12.986953 24.261318 4.1364398
-13.005429 22.947363 3.9647779
-13.038158 20.618315 3.666898
-13.127734 17.770134 3.3209493
-14.928012 16.587658 3.3543918
-17.837597 15.561647 3.5581813
-20.018677 15.830554 3.8362737
-21.660629 16.295197 4.0743709
-23.535009 16.831673 4.3492665
-15.748955 -6.5222087 2.5622721
-15.206235 -6.7317295 2.4996796
-14.05081 -8.8394165 2.4952219
-7.0764356 -7.6907892 1.5709424
-4.8441501 -22.40259 3.4452569
-3.5972362 -21.644335 3.2980816
-2.5229883 -21.571318 3.2645848
-0.42970702 -21.578329 3.244179
0.61181641 -21.575573 3.2444274
1.1332421 -21.574194 3.2473822
1.6559374 -21.572811 3.2522457
2.1811817 -21.578442 3.2600844
1.5354394 -7.6826086 1.1776454
1.7463769 -7.7589364 1.1954585
1.9599218 -7.8216338 1.2120548
2.5014648 -7.6015177 1.2028961
2.6489649 -7.4401507 1.1871309
8.8699512 -21.559839 3.5043032
10.112167 -21.559868 3.5795162
11.412421 -21.560747 3.6669042
12.086523 -21.559496 3.7152267
16.578154 -21.549829 4.086874
17.4354 -21.56674 4.1686764
18.313799 -21.567392 4.2529964
19.229013 -21.568075 4.3433833
20.165771 -21.548779 4.4362178
10.354033 -7.8651061 1.9544713
17.675772 -9.2182789 2.996541
18.231171 -8.9552097 3.0531673
17.529022 -8.0913229 2.90203
18.414686 -7.9669495 3.0159459
18.561142 -6.9878221 2.9811778
18.493866 -6.4574785 2.9444847
27.590721 10.506453 4.4378004
21.547764 13.41608 3.8154333
18.884668 14.458 3.5750363
20.527645 16.516479 3.9603736
15.720332 14.642932 3.2292898
17.146923 23.625156 4.387958
15.256396 23.308296 4.1873689
11.864795 20.189497 3.5200222
11.173974 20.109522 3.4580498
10.508418 20.035671 3.4007473
9.8658686 19.96752 3.3477871
8.6414642 19.846865 3.2537878
8.0695505 19.827053 3.2176781
7.5199413 19.834267 3.1884639
6.4485254 19.848324 3.1370013
5.9250584 19.855198 3.1145797
3.9990721 20.410419 3.1263158
3.4911034 20.417091 3.1135237
2.486084 20.430292 3.0936217
1.9878027 20.436838 3.0864475
1.4858203 20.365185 3.0693202
0.99288082 20.37166 3.0657907
0.0089453124 20.38459 3.0640993
-0.6712988 28.329559 4.2595358
-12.932187 24.709589 4.1921449
-12.998476 23.441538 4.0290613
-13.061176 18.976501 3.4627914
-13.122914 18.1143 3.3622751
-15.384384 16.593662 3.4013243
-16.965912 16.614634 3.5694177
-17.818823 16.626856 3.6633673
-15.770674 -6.3597221 2.5560522
-15.681811 -7.2219543 2.5951617
-15.209692 -7.4544744 2.5460613
-15.128291 -7.8728275 2.5634954
-5.1359959 -22.725473 3.5021193
-4.4224706 -22.027107 3.3770633
-3.2598729 -21.586916 3.2816167
-2.7262011 -21.56543 3.267395
-2.201035 -21.585224 3.2613952
-1.676914 -21.597713 3.256218
-1.1525586 -21.580244 3.2484484
-0.63086915 -21.578861 3.2450018
1.2399316 -7.5012498 1.1428472
1.451328 -7.6309066 1.1675973
1.6723144 -7.7668705 1.1942294
1.8875195 -7.8417807 1.212399
2.0677636 -7.7623582 1.2074827
2.4434862 -7.6651473 1.2093103
2.737705 -7.3433084 1.1780218
9.2457228 -21.559849 3.5261798
10.5046 -21.559872 3.6049623
11.82418 -21.559984 3.6961641
13.213964 -21.557398 3.800704
14.687051 -21.552992 3.9204221
15.460586 -21.551704 3.9868984
16.26129 -21.550358 4.0580726
17.970518 -21.567139 4.2197537
18.871141 -21.56781 4.3077445
18.186455 -8.6011715 3.0240033
18.400644 -8.1651716 3.0259693
19.099102 -7.9292283 3.1084509
18.948046 -7.3357091 3.0541687
27.370537 10.131719 4.3870125
22.376778 12.914543 3.883544
20.941933 13.473465 3.7430968
18.63456 14.709487 3.5685551
20.273369 16.812712 3.9589424
19.859257 17.294769 3.9584358
15.009151 15.113828 3.201745
17.535126 23.692595 4.4306326
15.60663 23.365475 4.2235775
14.71249 23.220978 4.1320682
11.4375 20.139645 3.4814017
10.111319 19.993176 3.3677349
9.4818258 19.928339 3.317301
8.8720016 19.868618 3.270761
8.2844629 19.824232 3.2295983
7.1872849 19.838631 3.1716983
6.6526561 19.845646 3.1462371
5.7563868 20.387348 3.1843245
4.6926856 20.323067 3.1352336
4.1802831 20.329794 3.119796
3.1811719 20.421162 3.1066191
2.179873 20.434313 3.0890017
1.6829003 20.440842 3.0829494
1.1830273 20.369162 3.0669403
0.69067383 20.375631 3.0645103
0.1988086 20.382093 3.0638688
-0.40656248 28.276901 4.2508655
-13.026128 21.474779 3.775399
-13.041576 20.374781 3.6362855
-13.117978 18.467123 3.4049337
-15.85376 16.599838 3.4503524
-18.365337 16.634697 3.7246437
-18.042343 15.566342 3.5818858
-20.3748 15.930854 3.8876705
-24.000191 16.965664 4.4179244
-15.296802 -7.7803178 2.5796566
-14.054541 -8.0244074 2.4326842
-5.4843946 -23.257177 3.5917745
-4.6782031 -22.226131 3.4141152
-2.9316406 -21.5737 3.2726431
-2.4033983 -21.576485 3.2633166
-1.3553905 -21.598503 3.252955
-0.83210933 -21.579393 3.2461052
-0.31098631 -21.578016 3.2438259
0.20970702 -21.576637 3.2434356
0.75610352 -7.0902781 1.0718147
1.1606933 -7.4527574 1.1337628
1.7974218 -7.7856255 1.2010759
2.0026464 -7.8097777 1.2119042
2.1795118 -7.7202525 1.2058244
2.3779492 -7.7069159 1.2123522
2.5354004 -7.5643115 1.1991968
2.8251855 -7.2480278 1.1693232
10.257226 -21.559868 3.5888329
10.902754 -21.559877 3.6315844
12.242676 -21.559206 3.7267232
13.656895 -21.556572 3.8358133
14.395176 -21.55348 3.8959451
15.94877 -21.550884 4.0300159
16.767334 -21.549509 4.1042314
17.6325 -21.566889 4.1873775
20.388819 -21.54837 4.4591494
18.420254 -6.8193765 2.9524851
19.631279 -6.7337432 3.1196334
19.136797 10.207245 3.2601459
20.258749 12.768638 3.5995822
18.838993 14.588035 3.5815201
20.433262 16.626465 3.9597464
19.683485 17.661175 3.9751222
14.183955 23.137917 4.0794482
11.705 20.170706 3.5054684
11.020146 20.092167 3.4445915
10.360059 20.019653 3.388308
9.7224407 19.952751 3.3362989
8.5065918 19.834358 3.2440224
7.943418 19.828705 3.2108045
6.3285742 19.849901 3.1316996
5.8068457 19.85675 3.1097662
5.4327345 20.391598 3.1720688
4.8816309 20.277895 3.1351407
4.3774705 20.327204 3.12552
3.88291 20.411945 3.1232321
0.88067383 20.373135 3.0652399
0.38870117 20.379599 3.0639071
-0.82725585 28.331804 4.2604976
-12.983876 24.479765 4.1652036
-13.050493 19.738527 3.5568516
-13.125772 17.910122 3.3377216
-15.55706 16.595934 3.4192746
-16.337109 16.606195 3.5016077
-18.930567 16.642817 3.7888482
-18.607769 15.57935 3.6479225
-19.777344 15.762736 3.801522
-21.386763 16.217331 4.0344687
-23.22102 16.741404 4.3030124
-15.754971 -6.4543772 2.5592232
-15.235776 -7.5714378 2.5573571
-14.418637 -8.0551081 2.4826086
-14.567427 -8.6058502 2.5432506
-14.142109 -8.8216887 2.5054369
-13.577621 -8.9317274 2.4429104
-4.2770309 -21.927015 3.3580792
-3.6866698 -21.670244 3.3041539
-2.6061132 -21.56773 3.2655225
-2.0817089 -21.590376 3.2603972
-1.033623 -21.579926 3.2474949
-0.51215822 -21.578548 3.2444801
0.0086328126 -21.577169 3.2433624
0.52936524 -21.57579 3.2441299
1.5007812 -7.6612997 1.1734929
1.8242968 -8.252038 1.2703503
2.3024414 -7.7166348 1.2104539
2.4777832 -7.6275024 1.2055012
2.625869 -7.4653721 1.1895474
2.7703223 -7.3077645 1.1747451
10.651699 -21.559872 3.6147013
11.307392 -21.560942 3.6595733
12.668183 -21.558413 3.7586124
13.377412 -21.557095 3.8135583
14.861054 -21.552704 3.9351754
15.640575 -21.551401 4.0026913
18.17252 -21.567289 4.2392702
20.012363 -21.549059 4.4205256
10.280996 -7.8717113 1.9462463
17.256592 -8.0456266 2.8619888
18.155361 -7.937171 2.9784143
18.797783 -7.6832709 3.0524914
18.660654 -7.1067362 3.0014977
21.640957 13.359716 3.8228765
18.916298 14.36801 3.5706136
16.140829 14.919922 3.3039465
17.30496 23.652517 4.4052725
15.399092 23.331507 4.2020669
14.51458 23.189663 4.1122313
10.612089 20.046957 3.4095092
9.3412008 19.914293 3.3063631
7.0647068 19.84024 3.1656969
5.6360254 20.388927 3.179687
5.1115623 20.395813 3.1606009
4.5755177 20.324606 3.1315408
4.0798435 20.409359 3.1285203
3.5712011 20.416042 3.1154251
2.5651464 20.429255 3.0949261
1.5605664 20.32151 3.0636089
1.0707129 20.37064 3.0662282
0.57860351 20.377104 3.0642085
-0.56304687 28.327909 4.2589359
-12.817832 24.720236 4.1856189
-13.013359 22.38381 3.8919039
-13.02976 21.216761 3.7425733
-13.059038 19.129265 3.4815488
-13.120908 18.257753 3.3795862
-13.160815 16.564413 3.1800923
-14.533809 16.582476 3.3144567
-15.265615 16.592102 3.3890376
-16.835083 16.612761 3.5551944
-19.207201 15.603068 3.7197025
-20.741308 16.034357 3.9407094
-15.755547 -8.122962 2.6645107
-15.174872 -8.2930298 2.5994024
-13.846625 -8.0069437 2.4042799
-13.791914 -8.8897133 2.4664588
-5.2765722 -22.939995 3.5382571
-4.5242677 -22.097172 3.3904295
-3.3446484 -21.590332 3.2840502
-1.2362499 -21.598799 3.2519274
-0.71333981 -21.579082 3.2454216
0.32832029 -21.576324 3.2436116
1.3712499 -21.573565 3.2493641
1.8953124 -21.579159 3.2561514
1.0270801 -7.5129557 1.1398106
1.2072949 -7.4812789 1.139094
1.4172655 -7.6099863 1.1635603
1.6366699 -7.7449112 1.189883
1.9483105 -8.2323685 1.2716264
2.5691407 -7.5273838 1.1955626
2.7149706 -7.3680992 1.1803278
9.1484861 -21.559845 3.5204442
11.052793 -21.561415 3.6420178
11.7175 -21.560181 3.6885045
12.399795 -21.558912 3.7383986
13.101201 -21.557608 3.7918994
13.823388 -21.556265 3.8492224
14.56707 -21.553192 3.9103212
15.336514 -21.551908 3.9760811
16.132772 -21.550575 4.0464902
16.971727 -21.566397 4.1251712
18.726231 -21.567699 4.2934151
17.926308 -9.0995893 3.0218639
18.335331 -8.2201223 3.0203683
19.38829 -7.5913939 3.1297731
19.624706 -6.6111064 3.1127667
21.869823 13.221267 3.8413811
20.338877 16.736408 3.9592292
15.486513 14.746516 3.2143817
15.752031 23.389421 4.2387385
12.252236 20.235743 3.5558269
11.546572 20.152252 3.4911723
10.867588 20.075121 3.4313693
9.580019 19.938244 3.3250113
8.967207 19.877737 3.2778747
7.8177438 19.830357 3.2040615
7.272666 19.837509 3.1759312
6.7365918 19.844545 3.1501114
3.2608984 20.420115 3.1083291
2.7583301 20.426714 3.0982964
2.2586815 20.433279 3.0901275
1.7614062 20.43981 3.0837855
1.2610253 20.368139 3.0674889
0.76852536 20.374609 3.0647779
0.27662107 20.381071 3.0638525
-0.21527344 20.387533 3.0647125
-12.988291 24.165972 4.1239085
-13.023579 21.656467 3.7985764
-13.039213 20.543295 3.657455
-13.053711 19.509262 3.528425
-13.115917 18.61425 3.4228063
-13.128589 17.708815 3.313616
-13.091694 16.796282 3.2010574
-13.570361 16.569801 3.2193735
-16.520102 16.608606 3.521208
-17.349169 16.620119 3.6113718
-18.222763 16.632648 3.7085805
-17.899858 15.563073 3.5653822
-23.675594 16.872131 4.3699989
-15.134472 -7.1726661 2.5174832
-15.274175 -7.6955481 2.5708687
-15.395331 -8.2282104 2.6239202
-14.201884 -8.0368004 2.4528632
-14.471357 -8.6567907 2.5347497
-23.904629 -7.7825022 3.2017553
-15.524199 -7.2213159 2.1805894
-15.050243 -7.4476995 2.1386402
-15.037529 -7.898674 2.1632919
-14.226357 -7.9163194 2.0734804
-5.0120606 -22.577274 2.945425
-3.7259178 -21.680693 2.8017132
-1.069961 -21.579994 2.7517865
-0.027626952 -21.577236 2.7480605
1.0143164 -21.574482 2.7507417
1.5366699 -21.573097 2.7544897
2.0613573 -21.57851 2.7607327
2.5879686 -21.577192 2.7677517
1.2529297 -7.4042263 0.95640111
1.5221192 -7.8400168 1.0171429
1.7779784 -8.1071291 1.0570557
1.9601171 -8.0089521 1.050118
2.2080858 -8.1637897 1.0770934
2.2530272 -7.5976629 1.009281
2.4390917 -7.5516319 1.0106908
2.5861914 -7.3922248 0.99742144
9.968379 -21.560888 3.0252564
10.607129 -21.560907 3.0602868
11.931611 -21.560297 3.1383386
12.619785 -21.559025 3.1815631
13.327607 -21.557714 3.2278986
14.808281 -21.553728 3.3305089
15.586035 -21.552443 3.3874471
16.39127 -21.551113 3.4484158
18.11001 -21.566668 3.5866833
19.016523 -21.567329 3.6620533
19.94577 -21.549995 3.7397625
18.015781 -8.9727058 2.5633006
18.551971 -8.6875753 2.6089973
19.029676 -7.8154221 2.6200402
18.644512 14.833161 3.0343564
15.421484 22.102692 3.4324417
14.564716 21.986774 3.3588758
13.011767 21.865078 3.2405038
11.389755 20.235004 2.9573169
10.759667 20.243273 2.9197228
10.145029 20.251337 2.8847299
9.5812693 20.336983 2.8631537
7.8474317 20.359737 2.7789419
7.2908788 20.367043 2.7551227
6.7176757 20.29632 2.7228277
6.2043357 20.381308 2.7133505
5.6727343 20.388288 2.6952677
4.1093163 20.378613 2.6476433
1.1050977 20.370033 2.5981233
0.61287105 20.376503 2.596308
0.12103515 20.382963 2.5960038
-0.52886719 29.067455 3.7026174
-7.9094529 16.268324 2.3038192
-8.3100882 16.092907 2.3067086
-12.998574 23.748684 3.4480259
-13.032637 21.301727 3.1804423
-13.047753 20.214111 3.0641835
-13.114795 16.563652 2.6907229
-13.785171 16.572468 2.7454007
-15.976752 16.601284 2.9344037
-24.805552 15.664787 3.7364137
-15.713706 -6.6797471 2.1745968
-15.494843 -7.4888363 2.1918087
-15.412471 -7.9133172 2.2065308
-14.596572 -7.9451475 2.1165574
-14.343163 -8.7294636 2.1384599
-7.0114059 -7.7640476 1.3323505
-5.337461 -23.027172 3.0104709
-3.9457519 -21.744375 2.8145702
-1.2726855 -21.598833 2.7555792
-0.74965817 -21.579147 2.7499585
-0.22864257 -21.577768 2.7482784
0.292041 -21.576391 2.7482011
0.81299806 -21.575012 2.7497244
1.3348535 -21.573633 2.7528543
1.8581641 -21.572247 2.7575958
1.2099316 -7.5785904 0.97742587
2.1185155 -8.1324701 1.0703111
2.1818163 -7.6171288 1.0091239
2.366416 -7.5668645 1.0097365
2.6746678 -7.296514 0.98974478
9.1061029 -21.560854 2.9808354
9.725625 -21.560879 3.0124085
10.358779 -21.560904 3.0464559
11.67085 -21.560781 3.1224463
13.772617 -21.556889 3.2579501
14.514921 -21.554213 3.3095453
15.282646 -21.552944 3.3650045
17.769873 -21.56642 3.5589557
19.592363 -21.567753 3.7110078
18.319687 -8.7878036 2.5877321
17.898817 -8.0606012 2.5000734
18.8479 -7.946754 2.6050918
19.377295 -7.0897007 2.6278741
21.18413 13.46516 3.1968846
18.683516 14.582055 3.018471
17.644667 22.419886 3.6336124
14.890752 22.030439 3.3865905
14.057734 21.920019 3.3164928
13.286914 21.861467 3.2581677
12.580156 21.870739 3.2133629
11.000986 20.240107 2.9339156
10.380567 20.248247 2.8979406
9.7747946 20.256199 2.8644779
8.0649414 20.356882 2.7886887
7.5046091 20.364239 2.7640762
6.9271679 20.293571 2.7310019
5.3497071 20.392529 2.6850548
4.8101368 20.321367 2.6596293
4.2965722 20.32811 2.6461651
3.2960057 20.419498 2.6342714
2.7932129 20.4261 2.6256607
1.7959472 20.439203 2.6131506
0.31086913 20.380468 2.5959392
-7.2070799 16.178144 2.2556384
-8.5688667 16.007759 2.3124497
-13.05811 23.040318 3.372901
-13.026479 21.744127 3.2282369
-16.463739 16.607687 2.9783258
-17.289253 16.618544 3.0542133
-18.158428 16.629972 3.1359441
-22.175879 16.682819 3.5342679
-15.052597 -6.6637163 2.096539
-15.51332 -7.3203058 2.1846826
-14.592124 -7.7673984 2.1053259
-14.594013 -8.2263174 2.1336246
-13.99061 -8.8015432 2.1051049
-4.8430662 -22.397593 2.9184618
-4.1765623 -21.855494 2.8338578
-3.053252 -21.578571 2.7756014
-2.5230174 -21.571587 2.7660658
-1.9988672 -21.594223 2.7619753
-1.4746777 -21.598335 2.7571471
-0.42969725 -21.5783 2.7487361
1.1332519 -21.574165 2.7514541
0.89597654 -7.1379251 0.91621453
1.5719628 -7.8653879 1.0215399
1.7458301 -7.7564988 1.0125759
2.61917 -7.3565116 0.99453026
9.4848919 -21.560869 2.9999325
10.754775 -21.560913 3.0686331
11.412695 -21.561255 3.1069851
14.225244 -21.554688 3.2891321
14.983203 -21.55344 3.3431451
15.767012 -21.552143 3.4009774
17.434921 -21.566174 3.5319583
18.313301 -21.566816 3.6033986
19.228485 -21.567486 3.6799822
10.354277 -7.8652892 1.6560315
18.12788 -8.9044666 2.5722418
18.647646 -8.0677347 2.5876884
19.10288 -7.7229972 2.6242321
19.427792 -7.3141007 2.6438458
19.473799 -6.7996392 2.6270068
19.07332 22.634661 3.769742
16.111641 22.198742 3.4933782
15.222724 22.07547 3.4151666
14.374941 21.961622 3.3429074
13.565156 21.857819 3.2763171
12.850713 21.867189 3.2302914
11.244746 20.236906 2.9485137
10.618291 20.245129 2.9115224
8.859004 20.34646 2.8262832
8.2839937 20.354008 2.7987452
6.0825586 20.382904 2.7090695
5.5525389 20.389868 2.6914003
5.0290723 20.396738 2.6755097
4.4942675 20.325514 2.6511691
2.986953 20.423557 2.6287973
2.4860644 20.43014 2.6211557
1.9877832 20.436684 2.6150808
1.4858105 20.365032 2.6005633
0.99287105 20.371508 2.5975788
0.50076169 20.377975 2.5961065
-0.68882811 29.070061 3.7033763
-7.3617477 16.948347 2.353359
-8.0010834 16.229239 2.3044796
-8.4008303 16.051525 2.3073635
-13.089839 17.180372 2.7508049
-13.941831 16.574526 2.7584035
-14.647256 16.583799 2.8179617
-15.384218 16.593491 2.8818588
-16.155874 16.60364 2.9504826
-16.965576 16.614288 3.0242467
-17.817364 16.625488 3.1036615
-19.665508 16.649797 3.2816861
-21.743647 16.677132 3.489996
-24.11022 16.708843 3.7359622
-23.776215 15.64187 3.6246493
-25.203363 15.722861 3.7832656
-15.531743 -7.1528473 2.1777959
-4.4219141 -22.024319 2.8609717
-3.815742 -21.706717 2.8069351
-3.2598729 -21.586889 2.7804582
-2.7262011 -21.565403 2.7684078
1.97833 -21.578718 2.7597756
1.0329199 -7.3465519 0.94485253
1.2206738 -7.3848157 0.95328635
1.4283203 -7.5099349 0.97360402
2.2238672 -7.605629 1.0092053
2.4085448 -7.5555201 1.0099735
2.563164 -7.4171429 0.99945563
2.7071679 -7.2613835 0.98698354
9.8686523 -21.560883 3.0199444
11.157061 -21.561728 3.0919414
11.824452 -21.560497 3.1317763
12.509687 -21.559229 3.1745262
13.214287 -21.557924 3.2203548
15.461269 -21.552649 3.3781841
16.261992 -21.551325 3.4384921
17.105019 -21.565931 3.5056701
17.970039 -21.566563 3.5752347
18.870625 -21.567221 3.6497846
19.810127 -21.567913 3.7297621
17.938467 -9.0197906 2.5571785
18.434082 -8.7182856 2.5970764
18.450186 -8.1871529 2.5707598
18.989971 -7.8839254 2.618696
18.456093 -7.1452503 2.5205629
18.745518 -6.7418847 2.5371261
14.697598 22.004507 3.3701305
10.858232 20.24198 2.9254882
10.24124 20.250074 2.8900931
9.6756639 20.335741 2.8681579
7.9363475 20.358574 2.7829001
4.180244 20.329638 2.6433344
3.6866601 20.41437 2.6420116
2.6790819 20.427603 2.6239197
2.1798437 20.43416 2.6172431
1.6828905 20.440687 2.6121166
1.1830175 20.369011 2.5985503
0.19879882 20.381943 2.5959468
-0.41521484 28.879158 3.6784041
-7.2289844 15.990129 2.2349336
-7.8457518 16.295124 2.3033602
-8.2469921 16.121307 2.3062532
-12.995634 23.95993 3.471478
-13.062084 22.754683 3.341553
-13.045439 20.380798 3.0818787
-13.121596 18.472221 2.8857412
-13.134028 17.575581 2.7943749
-15.095742 16.589699 2.8566492
-15.853603 16.599665 2.923399
-17.483311 16.621096 3.072304
-21.322187 16.671589 3.4471231
-23.628305 16.702778 3.6852376
-24.589535 15.659968 3.7128563
-15.71977 -6.611619 2.1719289
-14.753262 -7.9576182 2.1348586
-14.07038 -8.0334539 2.0634985
-7.0149899 -7.7086587 1.3274325
-4.0363965 -21.770634 2.819941
-1.879414 -21.597343 2.761013
-0.83211911 -21.579365 2.7503719
-0.31098631 -21.577988 2.7484384
0.20970702 -21.576611 2.7481067
0.73058593 -21.575232 2.7493782
1.252246 -21.573853 2.7522511
0.9458105 -7.2138271 0.92660969
1.6222656 -7.8909965 1.0260084
1.7968652 -7.783186 1.0173336
2.5066113 -7.4784203 1.0045228
9.6267767 -21.560877 3.0072539
10.257714 -21.560898 3.0408981
11.564804 -21.560976 3.1160619
12.939902 -21.558432 3.2022891
13.657227 -21.557104 3.2500725
14.395781 -21.554409 3.3011148
15.159492 -21.553148 3.3559804
15.949472 -21.55184 3.4147186
18.518505 -21.566965 3.6203847
20.38958 -21.549194 3.7783086
17.658213 -8.0334578 2.4707303
18.765516 -7.9965129 2.5979049
18.699366 -7.4404931 2.5631368
19.445156 -7.1988053 2.6407812
19.482304 -6.6826434 2.6231585
20.946396 13.202044 3.1533818
16.828867 22.300917 3.5581808
15.025976 22.048706 3.3981829
14.187012 21.936909 3.3272171
12.690674 21.869291 3.2202444
9.8696871 20.254953 2.8696108
9.310976 20.340532 2.8490639
7.0133786 20.29244 2.7344289
5.4326854 20.391439 2.6876245
4.910625 20.398293 2.6721282
4.3774509 20.327051 2.6481888
2.3722656 20.431633 2.6196356
1.8744922 20.438171 2.6139114
1.3733203 20.366508 2.5997519
0.8806836 20.372982 2.5971065
0.3886914 20.379448 2.595979
-0.84887695 29.07254 3.7042308
-7.2687597 16.485519 2.2946103
-7.6898632 16.359524 2.3022373
-8.0925293 16.189619 2.3051391
-13.039668 20.795988 3.1261568
-13.054277 19.744244 3.0145342
-13.116572 18.834398 2.9231036
-13.129326 17.914972 2.8287628
-13.09249 16.98921 2.7316864
-14.099951 16.576603 2.7716119
-15.556894 16.595762 2.8970637
-16.336933 16.606018 2.9668264
-20.910898 16.666176 3.40558
-21.997543 16.680471 3.5159643
-24.401026 16.712502 3.7667284
-24.073505 15.648479 3.656795
-14.947236 -6.5489397 2.0783682
-15.520874 -7.2515512 2.1818285
-15.059711 -7.4839492 2.1417704
-14.898666 -7.8577404 2.1452136
-14.081269 -8.7837362 2.1136868
-2.6061523 -21.567997 2.7668602
-2.0817285 -21.590645 2.7625165
-1.0336132 -21.579899 2.7515466
-0.51215822 -21.57852 2.7489965
0.52936524 -21.575762 2.7486978
1.0506543 -21.574385 2.7509496
2.6247656 -21.577099 2.7682998
1.5373144 -7.8477478 1.0184797
1.9585155 -7.9445429 1.0421021
2.2658887 -7.5941544 1.0093193
9.3868456 -21.560865 2.9949276
10.652206 -21.560909 3.0628216
11.978984 -21.560209 3.1412532
15.64125 -21.552353 3.3915677
16.448534 -21.551016 3.4528224
17.299189 -21.566074 3.5211012
19.081152 -21.567377 3.6675103
20.013115 -21.549875 3.7455847
10.278749 -7.8699951 1.648663
18.611044 -8.6771231 2.6152496
18.566387 -8.1168613 2.5806954
19.05204 -7.7871928 2.6213121
19.467909 -6.8810735 2.6297412
19.243671 22.660778 3.7862926
15.360449 22.094313 3.4271257
14.506435 21.979031 3.3539586
13.690166 21.872517 3.2863257
11.345273 20.235588 2.9546053
10.716299 20.243843 2.9171975
10.102715 20.251892 2.882381
9.5397263 20.337526 2.8609674
6.6799512 20.296816 2.7213836
6.1670213 20.381796 2.712033
5.6359863 20.388771 2.6940787
5.1115332 20.395657 2.6779077
4.0798044 20.409204 2.6507225
2.5651269 20.429102 2.6222627
1.5605664 20.32136 2.5957286
1.0707129 20.370485 2.5979474
0.086777344 20.383413 2.5960367
-0.57776368 29.068264 3.7028389
-7.4292383 17.283928 2.3960028
-7.9375196 16.256411 2.3040216
-13.033731 21.22319 3.1719868
-13.048769 20.141212 3.0564549
-13.111416 19.205978 2.961693
-13.124501 18.262764 2.8642507
-13.087978 17.314573 2.764277
-14.533671 16.582306 2.8082635
-15.265464 16.59193 2.8714473
-16.031382 16.602001 2.9392989
-16.834908 16.61257 3.0122302
-17.67977 16.623682 3.0907128
-19.511719 16.647774 3.2665956
-21.569828 16.674843 3.472276
-23.911327 16.706341 3.7149878
-23.572817 15.637356 3.6027136
-15.586645 -6.6567721 2.1585619
-15.434126 -7.0365796 2.1603243
-15.491504 -7.5193691 2.1931198
-14.305722 -8.7396708 2.135062
-13.733491 -8.8520622 2.0809374
-5.2745409 -22.931171 2.9967589
-4.5236912 -22.094368 2.8722928
-3.3446484 -21.590302 2.7825167
-2.8103321 -21.568789 2.7702029
-1.2362597 -21.598921 2.7553179
-0.71333981 -21.579052 2.74979
0.32833007 -21.576296 2.7482564
0.84932613 -21.574917 2.7498915
1.3712499 -21.573534 2.7531333
1.8952929 -21.578926 2.7588553
2.4210839 -21.577612 2.7653539
1.1886231 -7.3655257 0.95020223
1.3948632 -7.4897571 0.97029072
1.7153612 -8.1172724 1.0566403
2.1946776 -7.6136093 1.0091441
2.3792968 -7.5633936 1.0098065
2.5400586 -7.4421668 1.0015136
2.684629 -7.2857418 0.988895
8.5410347 -21.560829 2.953572
9.1489058 -21.560854 2.9829574
9.7693262 -21.560879 3.0147023
10.403477 -21.560904 3.0489256
12.400078 -21.559433 3.1675611
13.82374 -21.556797 3.2614505
17.830967 -21.566463 3.5639102
19.658817 -21.567802 3.7167048
17.861485 -9.0666924 2.5511229
18.354589 -8.7665968 2.5905733
18.00667 -8.0727711 2.513237
18.884365 -7.9247413 2.6082835
18.554726 -7.2650127 2.5377982
19.49082 -6.5660062 2.6194055
21.290888 13.583323 3.2164357
18.590956 22.561264 3.7232287
13.236973 21.862123 3.2549405
12.531572 21.87138 3.2103555
10.957207 20.240683 2.9313245
10.337822 20.248808 2.8955221
8.5954781 20.349918 2.8134604
8.0255079 20.357403 2.7869022
6.3739939 20.379082 2.7194514
5.8400683 20.386091 2.7007899
4.774199 20.32184 2.6586361
1.7613866 20.439657 2.6128223
1.2610157 20.367985 2.5990157
0.76852536 20.374454 2.5967178
-0.21527344 20.387383 2.5966625
-13.059336 22.952299 3.36323
-13.043096 20.549406 3.0998306
-13.057466 19.514866 2.9904375
-13.119555 18.619421 2.9008954
-13.132119 17.713573 2.8083277
-14.259678 16.578705 2.785038
-17.348326 16.619322 3.0597093
-18.220722 16.630793 3.1418664
-23.434198 16.700098 3.6648772
-24.376215 15.655214 3.6896355
-15.725825 -6.5436149 2.1692994
-15.090859 -7.6031823 2.1521149
-14.912817 -7.9703283 2.1535285
-14.429209 -8.1654377 2.1115365
-13.950898 -8.8093433 2.1013563
-23.907202 -7.7833476 2.6282518
-15.595986 -6.8019376 1.7786337
-15.293574 -7.1140375 1.7632138
-14.93791 -7.8463473 1.7638433
-14.476475 -8.5192938 1.755896
-2.6427734 -21.566685 2.2713356
-1.069961 -21.579966 2.2586346
0.4930957 -21.57583 2.256021
2.5879395 -21.576958 2.2717175
1.038623 -7.1880231 0.75920433
1.2592676 -7.4416409 0.7889713
1.5070019 -7.7621689 0.82657063
2.1080956 -7.7941537 0.84403723
2.2620215 -7.6279855 0.83171391
2.5575194 -7.3102775 0.80959797
8.1325197 -21.561794 2.4089561
9.3441601 -21.561871 2.4565215
9.9688377 -21.561903 2.4832158
10.607627 -21.561937 2.5119653
11.261758 -21.56204 2.5429089
12.620088 -21.559544 2.6114559
14.056464 -21.555883 2.6901107
14.808935 -21.554657 2.7337663
15.586709 -21.553389 2.7805073
16.392021 -21.552073 2.8305533
17.23913 -21.565468 2.8861127
18.109531 -21.566093 2.9438341
19.946524 -21.550806 3.0696783
10.267763 -7.8889756 1.3534576
18.135956 -7.9650321 2.0706263
18.639277 -7.6550846 2.1063826
19.156963 -7.3326597 2.1442614
20.299345 -7.2133689 2.2519863
19.485233 21.779955 3.0549283
17.688877 21.803518 2.9349794
16.84164 21.814632 2.8809204
16.154579 22.002405 2.8533959
11.389648 20.234833 2.4273126
10.75958 20.243103 2.3964562
10.144951 20.251169 2.3677361
7.2908301 20.366882 2.2613542
6.7176266 20.296164 2.2348561
1.9791406 6.501554 0.71043038
1.6409668 6.5013733 0.70093328
1.3109472 6.5011988 0.69327992
1.1484375 6.5011106 0.6901136
0.82735348 6.5009446 0.68505573
0.66839844 6.5008593 0.68314749
0.35266602 6.5006967 0.68054694
0.19278319 6.409399 0.67030662
-0.27172852 6.4165807 0.67135578
-0.43209961 6.4928794 0.68023169
-0.58974606 6.4928002 0.68151587
-0.74808592 6.492722 0.68320411
-0.90729493 6.4926414 0.68530053
-1.0675781 6.4925623 0.6878112
-1.2291406 6.4924817 0.69074345
-1.3921679 6.4924011 0.69410831
-1.556914 6.4923205 0.69791418
-1.8923534 6.492157 0.70689839
-2.0635254 6.4920726 0.71210331
-2.4140821 6.4919052 0.72403115
-2.9646873 6.491643 0.74602044
-13.036596 21.30822 2.6112688
-13.065488 19.208061 2.4284046
-13.078471 18.263489 2.3482068
-13.090615 17.378801 2.2744176
-13.11564 16.564714 2.2086585
-13.785776 16.573208 2.2534957
-15.213335 16.591265 2.3531206
-15.976586 16.60111 2.4084995
-17.619179 16.6227 2.5321436
-18.50646 16.634365 2.601203
-19.444061 16.646694 2.6757369
-20.437544 16.659756 2.7563164
-16.596601 -7.055058 1.8851706
-15.083506 -6.8461347 1.7315652
-14.605103 -7.9497948 1.7382596
-14.150497 -8.6122103 1.7316476
-7.0132031 -7.7660336 1.0938593
-5.3354297 -23.018349 2.4700189
-3.945586 -21.743408 2.3100677
-2.8474121 -21.570259 2.27441
-2.3205273 -21.580601 2.2689323
-0.22865234 -21.57774 2.2557557
1.8581641 -21.572218 2.2634041
2.3843164 -21.577471 2.2693322
2.9126952 -21.576147 2.2759252
1.1815234 -7.4006438 0.78342462
2.3543847 -7.5284281 0.82457131
2.5016699 -7.3702025 0.81361747
7.9038863 -21.561779 2.400624
8.4994822 -21.561815 2.4227617
9.1065235 -21.561855 2.4467504
9.7260838 -21.561892 2.4726686
11.671132 -21.561289 2.562932
15.2833 -21.553885 2.7620826
16.077684 -21.552588 2.8108265
16.901123 -21.551239 2.8630304
17.769394 -21.565849 2.9210773
20.546522 -21.549728 3.1125381
18.087997 -8.6766539 2.0971189
18.934814 -7.9833941 2.1480904
18.761456 -6.864378 2.0883789
18.656347 14.560852 2.4739203
19.849237 21.775177 3.0800607
18.91831 21.78739 3.0163248
18.024618 21.799114 2.9568601
14.883076 22.019087 2.7782466
13.39457 22.038618 2.6959393
12.68209 22.047968 2.6588659
9.7747259 20.256029 2.3511162
8.6356153 20.349228 2.3108273
8.0648928 20.35672 2.2889087
6.3820605 20.284903 2.2230241
1.8743457 6.5014977 0.70731175
1.7055469 6.5014071 0.70261908
1.5388769 6.501318 0.69839191
1.3741015 6.5012302 0.69461799
1.2110058 6.5011435 0.69128442
0.88898438 6.5009766 0.68590188
0.72965819 6.5008922 0.68383569
0.57121092 6.5008106 0.68217808
0.41342771 6.5007286 0.6809243
0.25254881 6.409431 0.6705268
-0.37138671 6.4929099 0.67984289
-0.52881837 6.4928308 0.68097252
-1.0055761 6.4925928 0.6867919
-1.1666113 6.4925122 0.68956196
-1.6589843 6.4922705 0.70047402
-1.8269141 6.4921885 0.70501775
-1.9971386 6.4921069 0.71003574
-2.5241406 6.4918542 0.72811621
-2.7061718 6.491766 0.73521674
-8.3640528 16.574299 1.9407098
-8.8757324 16.58103 1.9660046
-13.030493 21.750854 2.6505225
-13.045922 20.630573 2.5516329
-13.073565 18.620653 2.3783648
-13.523901 16.569889 2.2358184
-14.211069 16.578588 2.2826104
-15.677661 16.597179 2.3866413
-18.158228 16.629787 2.5739195
-21.077919 16.668177 2.8090718
-22.175591 16.682608 2.9008551
-23.34812 16.698023 3.0006418
-15.579473 -6.8969631 1.7810519
-14.709096 -7.8296652 1.7418847
-15.097509 -8.510129 1.8116769
-14.354384 -8.5540733 1.7467687
-13.83353 -8.7027245 1.7084482
-7.0724998 -7.6865244 1.0918944
-4.8419919 -22.392622 2.3949115
-4.1760449 -21.852777 2.3257122
-3.5969141 -21.642408 2.2934222
-3.053252 -21.578545 2.2781799
-1.9988867 -21.594486 2.2670341
-1.4746875 -21.598459 2.2630539
-0.42970702 -21.578274 2.2561316
0.091035157 -21.576895 2.2555635
0.61182618 -21.575518 2.2563021
1.1332421 -21.574135 2.2583621
1.6559277 -21.572754 2.2617447
1.0906152 -7.2653646 0.76799417
1.3164258 -7.5275903 0.79883993
1.5562891 -7.7869744 0.83011025
2.143584 -7.7558293 0.84115148
2.296494 -7.5908203 0.82902622
8.8707809 -21.56184 2.4372671
10.113125 -21.561914 2.489584
10.755283 -21.561943 2.5188248
12.779638 -21.55925 2.6198914
13.492188 -21.55794 2.6585326
14.22584 -21.555607 2.6997988
14.983867 -21.554373 2.7441354
16.579628 -21.551765 2.8424401
19.227959 -21.566898 3.0204077
20.167315 -21.550409 3.0853653
10.354189 -7.8652205 1.359241
18.392012 -8.4896717 2.1175535
18.500429 -8.0040436 2.1071823
18.494951 -7.477221 2.0853963
20.378155 -7.1154113 2.2563565
19.273134 21.782736 3.0404079
17.493046 21.806086 2.9223297
15.181162 22.015179 2.7954769
13.675077 22.034939 2.7109592
12.954853 22.04439 2.6728725
11.244629 20.236738 2.4200876
10.006924 20.252981 2.3614795
8.8589354 20.346296 2.3197646
8.283926 20.353848 2.2971652
7.719697 20.361252 2.2763088
1.7704492 6.5014415 0.70437491
1.273789 6.5011778 0.6925202
0.95077145 6.501008 0.686809
0.47427735 6.5007606 0.68136066
0.15750976 6.4093823 0.67020404
0.0028124999 6.4093027 0.66999334
-0.15205078 6.4166403 0.67094916
-0.31074217 6.4929419 0.67951345
-0.62576169 6.4927831 0.68186498
-0.7842871 6.4927025 0.68364644
-0.9437207 6.4926233 0.68583637
-1.104287 6.4925437 0.68844247
-1.266162 6.4924645 0.69147253
-1.5947168 6.4923019 0.69884467
-1.7618359 6.4922204 0.70320731
-1.9311328 6.4921384 0.70804024
-2.4547851 6.4918857 0.72552252
-2.6354785 6.4918003 0.73240852
-3.0079198 6.4916234 0.74790639
-8.169961 16.571745 1.9314139
-9.0589161 16.336884 1.9527582
-13.072743 22.28977 2.7012355
-13.040107 21.053009 2.5887418
-13.068525 18.987185 2.4095273
-13.094111 17.185974 2.2585714
-14.647529 16.58411 2.3129957
-15.384165 16.593422 2.3653908
-16.96538 16.614109 2.4822426
-19.665274 16.649601 2.6935439
-20.672455 16.662844 2.7755983
-22.885981 16.691948 2.9611101
-24.109072 16.708033 3.0662918
-15.206562 -7.0030847 1.7500869
-14.031821 -8.64608 1.7229151
-5.1321092 -22.708212 2.4336736
-4.4213572 -22.021547 2.3479583
-3.8155859 -21.70575 2.3038034
-3.2598631 -21.586864 2.2821691
-2.2010839 -21.585756 2.2681692
-1.6769335 -21.597963 2.2645395
-0.63087887 -21.578804 2.2567072
-0.10998046 -21.577427 2.2556255
1.9783105 -21.578484 2.2651687
3.0335741 -21.575844 2.2776201
1.4730371 -7.7450871 0.82414663
1.9198925 -7.9763169 0.85761863
2.0833397 -7.8209043 0.8460685
2.3882909 -7.4919815 0.82200462
10.505595 -21.561934 2.507282
12.50998 -21.559746 2.6056805
13.939638 -21.556072 2.6834755
17.10457 -21.565376 2.8773444
18.200186 -8.6076651 2.1046066
18.74118 -7.7806387 2.1212356
18.419237 -6.6245356 2.0461969
18.623085 14.700427 2.4801931
19.633652 21.778008 3.0651422
18.711485 21.790102 3.0024109
16.973564 21.812902 2.8892257
16.28294 22.000719 2.8612175
15.48291 22.011217 2.8131664
13.958691 22.031218 2.7263794
13.230458 22.040773 2.6872644
11.490801 20.233505 2.4323955
10.241152 20.249907 2.3721411
9.0839748 20.343344 2.3289745
7.9362793 20.35841 2.2841561
7.3781834 20.365736 2.264339
6.2890625 20.380035 2.2295609
1.6673925 6.5013876 0.70161563
1.1740332 6.5011253 0.69058478
0.062509768 6.4093347 0.67002875
-0.24720703 6.4165931 0.67125463
-0.72299802 6.4927344 0.6829102
-0.88206053 6.4926548 0.68494147
-1.2034863 6.4924936 0.6902523
-1.366289 6.4924154 0.69354665
-1.5307324 6.4923339 0.69728249
-1.6970605 6.4922519 0.70146918
-1.8654979 6.4921703 0.70611852
-2.0362792 6.4920874 0.71124822
-2.2096679 6.492003 0.71687233
-2.3859179 6.49192 0.72301078
-7.9777145 16.569218 1.9223711
-8.9905958 16.575876 1.971227
-9.1937399 16.015844 1.9304534
-13.034116 21.487917 2.6271753
-13.049277 20.386797 2.5303218
-13.063354 19.363398 2.4417124
-13.076474 18.408672 2.36044
-13.088745 17.514973 2.285687
-13.677963 16.571842 2.2461967
-14.371689 16.580622 2.2937343
-15.853442 16.599491 2.399471
-20.27643 16.657637 2.7431455
-16.630919 -6.9948301 1.8860226
-5.4801364 -23.239077 2.4959304
-4.6761522 -22.216326 2.3732717
-2.4034569 -21.577017 2.269506
-0.83211911 -21.579338 2.2574735
0.20969726 -21.576582 2.2556183
1.7752637 -21.572439 2.2626987
2.3010156 -21.577679 2.2684133
2.8289063 -21.576357 2.2747915
1.3750488 -7.6157694 0.8089875
1.6060253 -7.8120041 0.83370781
1.7963085 -7.7807426 0.83475482
2.1788182 -7.7177792 0.83831304
10.258193 -21.561918 2.4960601
10.903809 -21.561953 2.5257895
11.565068 -21.561481 2.5576947
15.160156 -21.554087 2.7546744
16.768837 -21.551455 2.8545272
18.517998 -21.566387 2.9714949
19.442001 -21.567053 3.0353556
20.39035 -21.550009 3.1013174
18.010605 -8.7242565 2.0919921
20.000088 21.773201 3.0905533
17.298788 21.80864 2.9098783
16.465624 21.819567 2.8574803
15.788525 22.007206 2.8313284
15.004717 22.01749 2.7852495
14.245556 22.027452 2.7422183
13.509151 22.037113 2.7020462
12.793525 22.046505 2.6645622
11.100478 20.238628 2.4129794
9.8696089 20.254786 2.3553226
8.7269039 20.34803 2.3144584
8.1544333 20.355547 2.292259
7.01333 20.29228 2.2443717
1.9012598 6.5015125 0.70809728
1.4000391 6.501245 0.69518483
1.074834 6.5010729 0.68881321
0.43833983 6.500741 0.68109548
0.12223633 6.4093628 0.67012185
-0.03243164 6.4092846 0.67000049
-0.34652343 6.4929233 0.67970115
-0.66181642 6.4927649 0.68223488
-0.82052732 6.4926844 0.68410879
-1.6326269 6.4922838 0.69979835
-1.8002245 6.4922018 0.7042675
-1.9700683 6.4921188 0.70920998
-2.1424119 6.4920359 0.71464056
-8.2842865 16.57325 1.9368701
-8.7938862 16.579954 1.9618822
-13.058037 19.749922 2.4750104
-13.071513 18.769674 2.3910103
-13.084106 17.853266 2.313823
-13.096846 16.994873 2.2428842
-14.812519 16.586195 2.3246152
-15.556738 16.5956 2.3778591
-17.155718 16.616611 2.4966805
-18.92725 16.6399 2.6344657
-19.889584 16.652552 2.7116771
-24.400082 16.711855 3.0915723
-14.86729 -7.8411975 1.7570608
-13.914365 -8.6796236 1.7143258
-4.9588866 -22.516876 2.4102092
-4.2759571 -21.921518 2.3347473
-3.137871 -21.581953 2.2797899
-2.0817578 -21.59091 2.2674739
-0.51215822 -21.578491 2.2563446
0.52936524 -21.575735 2.2560968
1.0506641 -21.574354 2.257947
1.5730957 -21.572973 2.2611191
2.0979493 -21.578182 2.2663133
2.6247363 -21.576868 2.2721698
1.2765918 -7.4676809 0.79195881
