# .PCD v0.7 - Point Cloud Data file format
VERSION 0.7
FIELDS x y z
SIZE 4 4 4
TYPE F F F
COUNT 1 1 1
WIDTH 1501
HEIGHT 1
VIEWPOINT 0 0 0 1 0 0 0
POINTS 1501
DATA ascii
-5.8425293 -5.3309917 -1.8823409
-5.7148924 -5.472949 -1.883222
-5.5838766 -5.6119213 -1.8841281
-5.4495606 -5.7478318 -1.8850585
-4.6991796 -6.026649 -1.8188044
-4.4734278 -6.031765 -1.7872485
-3.926914 -6.184155 -1.7434595
-3.7788086 -6.2808275 -1.7444978
-3.475703 -6.4636698 -1.7466263
-3.1638575 -6.6321115 -1.7488208
-2.6811621 -6.8568707 -1.7522259
-2.1826758 -7.0469627 -1.7557522
-2.0134082 -7.1024175 -1.7569518
-1.6707813 -7.2012157 -1.7593828
-1.1480762 -7.3186212 -1.7630997
-0.43878904 -7.4164004 -1.7681575
-0.25992188 -7.4301939 -1.7694354
0.098896481 -7.4448681 -1.7720021
0.27869141 -7.4457235 -1.7732898
0.45856443 -7.4422398 -1.7745789
0.63842773 -7.4344115 -1.7758691
0.99773437 -7.4057136 -1.7784495
2.0644825 -7.2153702 -1.7861346
2.2395508 -7.168541 -1.7873994
2.7578418 -7.0024776 -1.7911506
2.9279785 -6.9386907 -1.7923841
3.4290526 -6.7223969 -1.7960235
3.7542577 -6.557807 -1.7983912
3.9139061 -6.4695182 -1.7995553
4.071445 -6.3772836 -1.8007052
4.379746 -6.1812196 -1.8029592
4.5304489 -6.0774693 -1.8040627
4.9525099 -6.0149131 -1.8543271
5.1956739 -6.0087414 -1.8905265
5.4484763 -6.0021434 -1.9292535
5.6947851 -5.9771867 -1.9648299
5.9829392 -5.7017188 -1.9669579
6.1219726 -5.5586243 -1.9679873
6.2574706 -5.4120765 -1.968992
6.6420898 -4.9525733 -1.9718539
6.9921384 -4.4652143 -1.9744748
7.1007714 -4.296999 -1.975292
7.2052341 -4.1260948 -1.9760798
7.3054786 -3.9525909 -1.9768384
7.4014258 -3.7765934 -1.9775665
7.7410545 -3.0498559 -1.9801685
7.883584 -2.6744082 -1.9812766
8.112031 -1.9040719 -1.9830923
8.1570997 -1.7081432 -1.9834607
8.3088865 -0.71457458 -1.9847791
8.3243752 -0.51396602 -1.984937
8.3348627 -0.31302002 -1.9850589
8.3403616 -0.11184631 -1.985145
8.2682619 1.0923223 -1.9849088
8.2044525 1.4895867 -1.9845442
8.1209764 1.8831189 -1.9840379
8.0719337 2.0781579 -1.983732
7.9594531 2.4641876 -1.9830164
7.7551856 3.0313001 -1.9816852
7.5094724 3.5812433 -1.9800531
7.2237988 4.1109381 -1.9781301
7.1199999 4.2824869 -1.9774265
7.0074997 4.4484892 -1.9754244
6.6644235 4.4598284 -1.9084893
6.0221286 4.6944156 -1.8172545
5.7834373 4.9749174 -1.8156102
5.4006348 5.372282 -1.8129607
5.2667675 5.4981828 -1.8120313
5.1299024 5.6206794 -1.8110795
4.9901266 5.7397232 -1.8101058
4.7022166 5.9671063 -1.8080965
4.5543065 6.075325 -1.8070624
4.4038477 6.1798272 -1.8060091
4.250957 6.2805328 -1.8049372
4.0957322 6.3774042 -1.8038479
3.2883105 6.8028288 -1.7982658
3.1212695 6.8758316 -1.7971308
2.5801659 6.4999957 -1.6643847
2.4003026 6.4999175 -1.6490539
2.2236133 6.4998393 -1.6349446
1.8786426 6.4996853 -1.610209
1.7098535 6.4996085 -1.5995016
1.5431933 6.4995317 -1.589856
1.215371 6.4993792 -1.5736282
1.0537695 6.4993024 -1.5669966
0.41799805 6.4989934 -1.54992
0.26077148 6.4989152 -1.5479498
0.10384765 6.498836 -1.5468848
-0.36176756 6.4074078 -1.5273558
-0.67378902 6.4146585 -1.5350522
-1.4874902 6.4905753 -1.5847687
-1.6532421 6.4904828 -1.5940226
-2.1636913 6.4901943 -1.6282054
-2.5029979 6.9448261 -1.7569095
-2.6679296 6.8775678 -1.7556716
-2.992373 6.7314887 -1.7532253
-3.9168651 6.2052202 -1.7464153
-4.0629101 6.105175 -1.7453457
-4.2064743 6.0017719 -1.7442933
-4.3474512 5.8950443 -1.7432586
-4.4858007 5.7850714 -1.7422422
-4.8841696 5.4363589 -1.7393075
-5.0112109 5.314075 -1.7383692
-5.1352148 5.1888981 -1.7374518
-5.3740234 4.9301372 -1.7356811
-5.4887109 4.7967024 -1.7348285
-5.6001563 4.660655 -1.7339985
-5.7083006 4.5220966 -1.7331918
-5.9022655 4.4482942 -1.75898
-6.1930857 4.4373298 -1.813211
-6.5023632 4.4254727 -1.8719438
-6.631865 4.2832403 -1.8789247
-7.0032129 3.6188531 -1.8761102
-7.0860839 3.4476874 -1.8754768
-7.1648631 3.274688 -1.8748721
-7.438623 2.5661559 -1.8727463
-7.6445799 1.8358386 -1.8711014
-7.6852441 1.650592 -1.8707668
-7.7535348 1.2775726 -1.8701907
-7.8230076 0.71328914 -1.8695619
-7.8373241 0.52430421 -1.8694153
-7.8526464 0.14565735 -1.8692173
-7.853662 -0.043820798 -1.8691659
-7.8300877 -0.61167783 -1.8692029
-7.8133688 -0.80041927 -1.8692786
-7.7666893 -1.1765289 -1.8695253
-7.7367477 -1.3636755 -1.8696963
-7.6637793 -1.7356585 -1.8701324
-7.6207418 -1.9203082 -1.8703976
-7.5217381 -2.2864251 -1.8710215
-7.3412695 -2.8261499 -1.8721886
-7.2727146 -3.0031488 -1.8726383
-7.1231542 -3.3522122 -1.8736285
-6.9572949 -3.6940835 -1.8747369
-6.8683395 -3.8620806 -1.8753351
-6.5779395 -4.3532243 -1.8773006
-6.2533007 -4.8231916 -1.8795167
-6.1377048 -4.9747605 -1.8803095
-5.6400781 -5.5531244 -1.8837391
-5.0352345 -6.0187302 -1.8676007
-3.5409863 -6.4259281 -1.7461674
-3.2309375 -6.597486 -1.7483485
-2.9126854 -6.7542953 -1.7505915
-2.7506933 -6.827055 -1.7517349
-2.5868847 -6.8959808 -1.7528921
-2.4213965 -6.9610233 -1.7540623
-2.254287 -7.022141 -1.755245
-2.0856543 -7.0792961 -1.7564398
-1.9155957 -7.132442 -1.7576454
-1.3976855 -7.2674756 -1.7613238
-1.222832 -7.304234 -1.7625675
-1.0469824 -7.3368182 -1.7638196
-0.33613279 -7.4248495 -1.7688909
-0.15702148 -7.4361758 -1.7701712
0.02243164 -7.4431925 -1.7714547
0.20211914 -7.4458885 -1.7727412
0.56186521 -7.4382744 -1.7753198
0.74166989 -7.4279537 -1.77661
0.92132813 -7.4132748 -1.7779003
1.1007031 -7.3942523 -1.7791896
1.2796875 -7.370872 -1.7804769
1.4581835 -7.3431549 -1.781762
1.8132616 -7.2747126 -1.7843215
1.9896483 -7.2340055 -1.7855945
2.1651464 -7.1889973 -1.7868619
2.3395801 -7.1397114 -1.7881228
2.5128906 -7.0861602 -1.7893767
3.3588574 -6.7553492 -1.7955132
3.6856835 -6.5941892 -1.7978916
3.8461816 -6.5075889 -1.7990614
4.3149314 -6.224226 -1.802485
4.4665623 -6.1220922 -1.8035948
5.0910058 -6.0114198 -1.8748161
5.5983396 -5.9981475 -1.9527138
5.9227052 -5.7615609 -1.9665127
6.0631933 -5.619967 -1.9675518
6.2002931 -5.4748826 -1.9685677
6.5895801 -5.019536 -1.971462
6.7118454 -4.8613648 -1.9723748
7.0550194 -4.368958 -1.9749475
7.1612692 -4.1991811 -1.9757479
7.26332 -4.0267673 -1.9765191
7.3611035 -3.8518188 -1.9772602
7.7838669 -2.942807 -1.9805001
7.8547754 -2.7549267 -1.9810516
7.9210348 -2.565311 -1.9815704
8.0393362 -2.1812942 -1.9825072
8.1384859 -1.7916992 -1.9833081
8.1807909 -1.5951269 -1.9836568
8.2181931 -1.3975298 -1.9839706
8.3183889 -0.59941894 -1.9848741
8.3310061 -0.39860106 -1.9850112
8.3412399 0.0037145994 -1.9851782
8.3190327 0.60689878 -1.9851595
8.2519827 1.2067144 -1.9848188
8.2196779 1.4053015 -1.9846338
7.7867379 2.9517925 -1.9818927
7.7113085 3.1379938 -1.9813955
7.5468163 3.5043645 -1.9803027
7.4578319 3.6842973 -1.9797072
7.3644528 3.8619123 -1.9790796
7.2667284 4.0371037 -1.9784204
7.0584764 4.3797917 -1.9770085
6.8076463 4.4551191 -1.936296
6.477529 4.4659162 -1.8725079
6.1837692 4.4872794 -1.8183643
6.0711327 4.6331744 -1.8175915
5.7124219 5.0532012 -1.8151199
5.4566894 5.3176689 -1.8133496
5.1885056 5.5689492 -1.8114872
5.0499802 5.6894803 -1.810523
4.6175976 6.0297027 -1.8075051
4.1620994 6.3366385 -1.8043139
3.686074 6.6086979 -1.8009512
3.3588965 6.7704935 -1.7987442
3.1925683 6.8452582 -1.7976158
3.0245702 6.9158792 -1.796472
2.4764745 6.4999518 -1.6554288
2.1234863 6.499794 -1.6273763
1.9512109 6.4997187 -1.6150973
1.781455 6.4996414 -1.6039295
1.4483691 6.4994879 -1.5847846
1.2845995 6.4994121 -1.5767486
1.1223925 6.4993339 -1.5697021
0.6430859 6.4991031 -1.5543045
0.48507813 6.4990263 -1.5510343
0.170625 6.4988689 -1.5472279
0.013798828 6.4987893 -1.5466799
-0.29578125 6.407443 -1.5265586
-0.45090818 6.4073615 -1.5286874
-0.7728613 6.4909649 -1.5557247
-0.93216795 6.4908795 -1.5606419
-1.2542773 6.490705 -1.5733294
-1.4174902 6.4906135 -1.5811388
-1.5824511 6.4905229 -1.5899565
-1.9183984 6.4903326 -1.6107259
-2.0898926 6.4902349 -1.6227449
-2.5979199 6.9066792 -1.7561975
-2.761826 6.8371954 -1.7549652
-3.0841308 6.6867361 -1.7525306
-3.3985448 6.5215068 -1.7502013
-3.7044237 6.3418961 -1.7479687
-3.8539355 6.2467632 -1.7468758
-4.0010448 6.1481853 -1.7457989
-4.1456833 6.0462017 -1.7447392
-4.2877731 5.9408832 -1.743697
-4.5640235 5.7204804 -1.7416668
-4.6980176 5.605535 -1.7406802
-4.8291993 5.4875102 -1.7397132
-5.3242478 4.9861383 -1.7360507
-5.4402928 4.8538337 -1.7351887
-5.5531249 4.7188859 -1.734349
-5.6626954 4.5813885 -1.7335321
-5.7916698 4.458952 -1.7395782
-6.3682809 4.4306364 -1.846355
-6.6890135 4.1899848 -1.8784937
-6.8780856 3.8595269 -1.8770623
-6.9667187 3.6911371 -1.8763885
-7.3487401 2.8215125 -1.8734497
-7.4126949 2.64271 -1.87295
-7.4724021 2.4625037 -1.8724803
-7.5278907 2.2809882 -1.8720406
-7.6259274 1.9144135 -1.8712531
-7.668457 1.7295715 -1.8709054
-7.7066698 1.5438129 -1.8705885
-7.7404785 1.3572253 -1.8703028
-7.7949314 0.98204219 -1.8698256
-7.8435349 0.41565794 -1.8693455
-7.8508592 0.22630614 -1.8692489
-7.8537693 0.036845703 -1.869184
-7.8462501 -0.34202269 -1.8691497
-7.8017774 -0.90862304 -1.8693365
-7.7175779 -1.4708184 -1.8698086
-7.4901562 -2.3906732 -1.8712236
-7.1563768 -3.2784843 -1.8734077
-7.0771971 -3.4511435 -1.8739346
-6.9939551 -3.6219597 -1.8744911
-6.9066892 -3.7908068 -1.8750769
-6.1873727 -4.910552 -1.8799685
-6.0696874 -5.0605726 -1.8807766
-5.9484668 -5.20783 -1.8816106
-5.8237791 -5.3522577 -1.88247
-5.139082 -6.0162139 -1.883099
-4.6651464 -6.0274315 -1.8139819
-4.4405665 -6.0324955 -1.7827396
-4.2233396 -6.03723 -1.75351
-3.9050586 -6.1987348 -1.7436126
-3.7566113 -6.294889 -1.7446536
-3.6058593 -6.3875585 -1.7457118
-3.2976367 -6.5621872 -1.747879
-2.6568358 -6.8671088 -1.7523978
-2.4920604 -6.9338117 -1.7535626
-2.3256249 -6.9966044 -1.75474
-1.9881641 -7.1103125 -1.7571309
-1.8172851 -7.1611419 -1.7583429
-0.94562501 -7.3536267 -1.7645417
-0.59068358 -7.4012809 -1.767073
-0.41225585 -7.4187207 -1.7683468
-0.23332031 -7.4318767 -1.7696255
-0.054013669 -7.4407306 -1.7709079
0.12560546 -7.4452658 -1.7721933
0.66513669 -7.432879 -1.7760607
0.84486324 -7.4200578 -1.777351
1.2035253 -7.3813634 -1.7799292
1.3822558 -7.3554907 -1.7812154
1.5604101 -7.3252773 -1.7824985
1.9146777 -7.2518616 -1.7850533
2.0905468 -7.2086835 -1.786323
2.2654588 -7.1612177 -1.7875869
2.6118653 -7.0534892 -1.7900932
2.9531152 -6.9288568 -1.7925665
3.2883692 -6.7875562 -1.7950006
3.4534569 -6.7107377 -1.796201
3.6167479 -6.6298456 -1.7973895
3.9374218 -6.4560685 -1.7997268
4.0946383 -6.3632569 -1.8008746
4.7524705 -6.019855 -1.8253591
4.9880075 -6.0140228 -1.8595477
5.2325683 -6.0077887 -1.8961139
5.7166209 -5.9572272 -1.9649911
5.8618846 -5.8207603 -1.9660631
6.0038376 -5.680676 -1.9671127
6.1422262 -5.5370708 -1.9681373
6.2772751 -5.3900232 -1.9691391
6.4086523 -5.2396178 -1.9701151
6.6602635 -4.9290781 -1.9719895
6.7803125 -4.7691431 -1.9728866
6.8964257 -4.6062231 -1.9737562
7.0085254 -4.4404063 -1.9745977
7.2203903 -4.1004872 -1.9761944
7.3199801 -3.9266055 -1.9769484
7.4153123 -3.7502508 -1.9776722
7.5062499 -3.5715091 -1.9783652
7.5927634 -3.3905232 -1.9790269
7.752275 -3.0222282 -1.9802552
7.8251758 -2.8351464 -1.9808209
8.0157709 -2.2635403 -1.9823191
8.1190033 -1.8750442 -1.9831491
8.1633787 -1.6789459 -1.9835125
8.2028608 -1.4817724 -1.9838412
8.2670898 -1.0846955 -1.9843936
8.3114939 -0.68480408 -1.984805
8.3360052 -0.28315428 -1.9850738
8.3404779 0.11927795 -1.9851996
8.3249311 0.52142638 -1.9851818
8.3096771 0.72208065 -1.9851192
8.289443 0.92230403 -1.985021
8.2641993 1.1219318 -1.9848865
7.9503317 2.4926379 -1.9829574
7.8862205 2.6831391 -1.9825426
7.8174314 2.8719525 -1.9820938
7.5833297 3.4270892 -1.9805462
7.4962597 3.6079717 -1.9799646
7.1042285 4.3077421 -1.9773195
6.9550486 4.4502349 -1.965119
6.1195116 4.5714078 -1.8179235
6.0048633 4.715661 -1.8171359
5.7651758 4.9952655 -1.8154842
5.6402731 5.1304593 -1.8146211
5.3809376 5.3911982 -1.812824
5.1093163 5.6385918 -1.8109361
4.969121 5.7571073 -1.8099594
4.381289 6.1950259 -1.805851
4.2280369 6.2951679 -1.8047765
4.0724902 6.3914652 -1.8036848
3.9147069 6.4838605 -1.8025761
3.7547166 6.5721731 -1.8014123
3.5929003 6.6568179 -1.8003243
3.4291503 6.7374172 -1.7992195
2.9273827 6.954556 -1.7958086
2.373867 6.4999051 -1.6468818
2.0242286 6.4997501 -1.6201867
1.6849804 6.4995975 -1.5980035
1.3541211 6.499445 -1.580047
1.029873 6.49929 -1.5660946
0.86970699 6.4992132 -1.5605651
0.71057618 6.499136 -1.555976
0.23744141 6.4989033 -1.5477352
-0.075175777 6.4075565 -1.5250679
-0.54083008 6.4147296 -1.5320867
-0.70532227 6.4910016 -1.5539155
-0.86421871 6.4909158 -1.5584348
-1.024121 6.4908304 -1.5638919
-1.3478028 6.4906521 -1.5776919
-1.5120019 6.4905634 -1.5860778
-2.0165625 6.4902787 -1.6174911
-2.8551562 6.7955523 -1.7542619
-3.0161622 6.7200384 -1.7530453
-3.3323145 6.5578823 -1.7506843
-3.4872851 6.4714041 -1.7495542
-3.9387207 6.1905704 -1.7462552
-4.084404 6.0900335 -1.7451882
-4.2275977 5.9861221 -1.7441386
-4.3681836 5.8789177 -1.7431065
-4.5061035 5.768465 -1.7420928
-4.7737012 5.5381293 -1.7401227
-5.1533885 5.1700602 -1.7373173
-5.2739062 5.0416474 -1.7364241
-5.6164355 4.6402326 -1.7338772
-6.7449121 4.0959892 -1.8780714
-6.83917 3.9305902 -1.8773577
-7.0157714 3.5935504 -1.8760144
-7.2503123 3.0738397 -1.8742133
-7.3202438 2.8971894 -1.8736714
-7.3859763 2.7190087 -1.8731592
-7.4475098 2.5393872 -1.8726765
-7.6508884 1.8083819 -1.8710496
-7.6909375 1.6230005 -1.8707196
-7.7266111 1.4367615 -1.8704208
-7.7848144 1.0621076 -1.8699167
-7.8390527 0.49621031 -1.8693963
-7.853086 0.11751648 -1.8692077
-7.8408399 -0.45069763 -1.8691632
-7.8105078 -0.82841796 -1.8692926
-7.7887206 -1.0166601 -1.8694049
-7.6969724 -1.577702 -1.8699313
-7.513701 -2.3134291 -1.8710728
-7.3963866 -2.674227 -1.8718292
-7.331367 -2.8525405 -1.8722534
-7.1888475 -3.2044382 -1.8731922
-7.1113963 -3.3778589 -1.8737066
-6.854795 -3.8868625 -1.8754263
-6.7612987 -4.052454 -1.8760574
-6.3488574 -4.6920972 -1.8788627
-6.1202149 -4.9970393 -1.8804295
-6.0005174 -5.1454844 -1.8812524
-5.7506051 -5.4338865 -1.8829751
-5.4871287 -5.7104697 -1.8847983
-4.9993849 -6.0195923 -1.8622962
-4.7631445 -6.0251694 -1.8279278
-4.5352345 -6.0303822 -1.7957852
-4.3149705 -6.035254 -1.765716
-4.1124902 -6.0557098 -1.74216
-3.820117 -6.2543759 -1.744208
-3.0491307 -6.6893659 -1.7496291
-2.7264745 -6.8375344 -1.7519058
-2.0604882 -7.0874443 -1.756618
-1.7185839 -7.1884947 -1.7590436
-0.30954102 -7.4268017 -1.7690808
-0.13039063 -7.437489 -1.7703614
0.22882812 -7.4459167 -1.7729325
1.1273144 -7.3910532 -1.779381
1.3062304 -7.367033 -1.7806683
1.8395116 -7.2689366 -1.7845107
2.0157714 -7.2275944 -1.7857831
2.7104394 -7.0194192 -1.7908071
2.8809764 -6.9567881 -1.7920432
3.383369 -6.7439399 -1.7956914
3.547451 -6.6647816 -1.796885
3.709619 -6.5815892 -1.798066
4.027998 -6.4032388 -1.800388
4.4888768 -6.1066012 -1.8037581
5.3773532 -6.0040174 -1.9182501
5.6377439 -5.9970884 -1.958938
5.9437985 -5.7407455 -1.9666686
6.4824414 -5.1517601 -1.970664
7.2781153 -4.0009418 -1.9766312
7.5564938 -3.46786 -1.978749
7.64042 -3.2856302 -1.9793926
7.7198534 -3.1012847 -1.9800045
7.864912 -2.7268677 -1.9811308
8.0986423 -1.9581909 -1.9829839
8.1866598 -1.5658556 -1.9837055
8.22332 -1.3680841 -1.9840143
8.2550678 -1.1694708 -1.984288
8.2818842 -0.97009945 -1.9845263
8.3037205 -0.7701062 -1.9847293
8.3324604 -0.36874756 -1.9850286
8.3393259 -0.16763854 -1.9851245
8.3411913 0.033589479 -1.9851849
8.3380756 0.23480286 -1.9852093
8.2755566 1.0370221 -1.9849483
8.2474804 1.2362622 -1.9847935
8.2144728 1.4347272 -1.9846033
8.0860348 2.0242016 -1.9838204
7.9761519 2.4110472 -1.9831234
7.9140916 2.6022375 -1.9827234
7.8472848 2.7917833 -1.9822891
7.619072 3.3494036 -1.9807843
7.5338864 3.5312164 -1.9802164
7.4442282 3.7108452 -1.9796159
7.0423632 4.4048162 -1.976899
6.7572069 4.4567814 -1.926481
6.054111 4.6545892 -1.8174745
5.8173242 4.9367766 -1.8158441
5.6938672 5.0732965 -1.8149916
5.4372067 5.3367949 -1.8132145
4.742754 5.9364605 -1.8083798
4.5955467 6.0457063 -1.8073509
4.4457908 6.151237 -1.8063028
3.9821484 6.445003 -1.8030502
3.4991307 6.7035966 -1.7996922
3.3342869 6.7818584 -1.7985775
2.6306348 6.5000176 -1.6688571
2.4498339 6.499938 -1.6531787
2.2722948 6.4998603 -1.6387362
1.9258593 6.4997063 -1.6133701
1.5891894 6.4995522 -1.5924244
1.4239258 6.4994769 -1.5835272
1.098418 6.4993243 -1.5687377
0.93775386 6.4992461 -1.562803
0.3043457 6.4989362 -1.5484058
0.14731444 6.4988565 -1.5470881
-0.16398437 6.4075103 -1.5254512
-0.31879881 6.4074306 -1.5268184
-0.47397459 6.4073491 -1.5290806
-0.63044918 6.4146819 -1.5340146
-0.79644531 6.4909525 -1.5563955
-0.95590818 6.4908671 -1.5614529
-1.1165136 6.4907804 -1.5674576
-1.2784277 6.4906912 -1.5744267
-1.4418848 6.4905996 -1.5823843
-1.7742969 6.4904156 -1.601362
-1.9437207 6.4903193 -1.6124415
-2.1155858 6.4902201 -1.6246266
-2.4569726 6.9627776 -1.7572541
-3.2656834 6.5935879 -1.75117
-3.421582 6.5086637 -1.7500335
-3.5752928 6.4201102 -1.7489119
-4.1669531 6.0307608 -1.7445831
-4.5841017 5.7036052 -1.7415191
-4.7176952 5.5881948 -1.7405354
-4.8484373 5.4697285 -1.7395712
-5.3416891 4.9666433 -1.7359211
-5.4572558 4.8339434 -1.7350625
-6.1106935 4.4404535 -1.7977469
-6.4146481 4.4288568 -1.8551792
-6.7995214 4.0012555 -1.877658
-6.8915234 3.8346281 -1.8769604
-6.9795213 3.6659613 -1.8762908
-7.0635252 3.4953227 -1.8756493
-7.1434569 3.3228252 -1.8750367
-7.2192869 3.1485491 -1.8744529
-7.2909765 2.9725976 -1.8738986
-7.4218163 2.6160436 -1.8728784
-7.5357418 2.2539024 -1.8719782
-7.5862889 2.0710106 -1.8715734
-7.6325097 1.8870196 -1.8711996
-7.7119431 1.5161481 -1.8705442
-7.7451267 1.3294702 -1.8702632
-7.8182321 0.76559079 -1.8696082
-7.8338084 0.5767175 -1.8694528
-7.8448925 0.38754332 -1.8693292
-7.8516212 -0.18075988 -1.8691486
-7.8449903 -0.37011963 -1.8691522
-7.8339257 -0.55927366 -1.8691875
-7.7985153 -0.93659788 -1.8693533
-7.7742186 -1.1245337 -1.8694836
-7.7454977 -1.311864 -1.8696456
-7.7123728 -1.4984894 -1.8698394
-7.5365038 -2.2359402 -1.8709276
-7.4817576 -2.4175849 -1.8712775
-7.2205663 -3.1300807 -1.8729824
-7.0650682 -3.476629 -1.8740156
-6.9812498 -3.6471465 -1.8745762
-6.8934078 -3.8157005 -1.8751663
-6.8015819 -3.9822333 -1.8757852
-6.5028024 -4.4684825 -1.8778121
-6.3956151 -4.6258507 -1.8785433
-6.1701269 -4.9330058 -1.8800869
-5.6763182 -5.5145555 -1.8834888
-5.2705078 -5.919426 -1.886301
-5.1026564 -6.0170999 -1.877643
7.0759177 2.6244934 -1.9767249
6.9378805 2.961375 -1.9758145
6.8626952 3.1270921 -1.9753146
6.7001853 3.452569 -1.9742264
6.6129684 3.6121259 -1.9736389
6.4269238 3.9243901 -1.9723788
6.2258301 4.2268853 -1.9710089
5.212666 4.5449686 -1.8114219
4.9830275 4.7869072 -1.8098332
4.6173143 5.1275249 -1.8072931
4.3602734 5.3389702 -1.8055011
4.0934668 5.5373454 -1.8036363
3.8174999 5.7222028 -1.8017025
3.6763182 5.8094363 -1.8007116
3.5331347 5.8931375 -1.7997055
2.9420116 6.1918011 -1.7955409
2.7901366 6.2572269 -1.7944682
2.3260448 6.4308257 -1.7911845
1.8513964 6.5696917 -1.7877791
1.3688476 6.6737761 -1.7844107
1.0440136 6.7234097 -1.7821261
0.88095701 6.7422833 -1.780974
0.39029297 6.7750454 -1.7774876
0.2265918 6.778029 -1.7763178
0.062958986 6.7770429 -1.7751451
-0.75054687 6.713057 -1.7692651
-1.0720508 6.6601982 -1.7669183
-1.5478516 6.5524015 -1.7634648
-1.7043847 6.5089726 -1.7623335
-1.8597265 6.4618402 -1.7612097
-2.0137889 6.4110293 -1.7600945
-2.1665039 6.3565874 -1.758988
-2.4675195 6.2369375 -1.7568039
-2.615664 6.1718106 -1.7557276
-2.7620995 6.1032095 -1.7546628
-2.9067967 6.0311747 -1.7536095
-3.0496385 5.9557624 -1.752569
-3.4663281 5.7096953 -1.749527
-3.6010449 5.621243 -1.7485415
-3.9915624 5.3373599 -1.7456781
-4.2399216 5.1332378 -1.7438518
-4.3603024 5.0268989 -1.7429647
-4.8150682 4.5745258 -1.739602
-4.9316797 4.4639373 -1.7422978
-5.4038477 4.4364424 -1.8312854
-5.6645117 4.4260635 -1.8828787
-5.7763181 4.2930851 -1.8850552
-5.9720116 4.0063505 -1.8835866
-6.0646582 3.859688 -1.882889
-6.1538086 3.7109282 -1.8822159
-6.3213768 3.4074821 -1.8809447
-6.4743457 3.0966778 -1.8797768
-6.5452633 2.9387364 -1.8792319
-6.6124411 2.7792163 -1.8787136
-6.6758204 2.6182044 -1.8782223
-6.7910743 2.2920501 -1.8773208
-6.8429003 2.1270928 -1.8769113
-6.9347949 1.7938489 -1.8761755
-6.9748435 1.6257489 -1.8758494
-7.1152344 0.77407593 -1.8746456
-7.1432223 0.42990965 -1.8743649
-7.151123 0.25744933 -1.8742683
-7.1550193 0.084854126 -1.8742002
-7.1548338 -0.087778926 -1.8741614
-7.1505957 -0.26035765 -1.8741516
-7.1299706 -0.60498351 -1.8742191
-7.0687499 -1.1192029 -1.8745379
-7.0078611 -1.4591399 -1.874895
-6.9714646 -1.6279669 -1.8751163
-6.7863965 -2.2935643 -1.876287
-6.7303805 -2.4570901 -1.8766502
-6.6068845 -2.7800643 -1.8774595
-6.4682517 -3.0970213 -1.8783789
-6.3933692 -3.2530322 -1.878879
-6.1468067 -3.7101381 -1.8805386
-6.0574512 -3.8585882 -1.881144
-5.9646091 -4.0049372 -1.881775
-5.8683004 -4.1491117 -1.8824313
-5.7685938 -4.2910209 -1.8831123
-5.6655173 -4.4305973 -1.8838183
-5.3366699 -4.8345027 -1.8860797
-5.2207227 -4.9639416 -1.8868802
-4.8545799 -5.3356524 -1.8894161
-4.7266698 -5.4537816 -1.8903048
-4.5959473 -5.568902 -1.8912146
-4.462451 -5.680943 -1.8921444
-4.1874804 -5.8955469 -1.8940643
-4.0461326 -5.997982 -1.8950528
-3.6523826 -6.0217118 -1.8446746
-2.9061816 -6.036231 -1.7547334
-2.7552245 -6.0946307 -1.7518728
-2.6089258 -6.1629558 -1.7529049
-2.3114061 -6.2891502 -1.7550066
-2.1603222 -6.3469453 -1.7560754
-1.8539355 -6.4517193 -1.7582455
-1.6988281 -6.498631 -1.7593457
-1.5425292 -6.5418487 -1.7604551
-1.0674511 -6.6490054 -1.7638329
-0.90732419 -6.6771369 -1.7649734
-0.58495116 -6.7218704 -1.7672721
-0.42292967 -6.7384362 -1.7684288
-0.26041016 -6.7511044 -1.7695899
0.065624997 -6.7647085 -1.7719221
0.2289453 -6.7656226 -1.7730917
0.39237303 -6.7625985 -1.7742629
0.55577147 -6.7556219 -1.7754351
0.71904296 -6.7446933 -1.7766072
0.88211912 -6.7298203 -1.7777786
1.0449023 -6.7109995 -1.7789491
1.3691894 -6.6615171 -1.7812834
1.5304883 -6.6308703 -1.7824457
1.691123 -6.596303 -1.7836045
2.324785 -6.4191065 -1.7881845
2.4805369 -6.3651648 -1.7893127
2.7881348 -6.2458887 -1.7915438
3.2384276 -6.0389233 -1.7948173
3.80916 -6.0138974 -1.8645718
4.0124707 -6.0091166 -1.8925593
4.2219725 -6.0040112 -1.922478
4.4381933 -5.9985576 -1.9544561
4.7308688 -5.7878947 -1.9579697
4.8717089 -5.6750736 -1.9590048
5.0097852 -5.5587773 -1.9600209
5.1450391 -5.4390683 -1.9610174
5.2773728 -5.3160076 -1.9619939
5.4067283 -5.1896796 -1.9629501
5.5329785 -5.0601397 -1.9638846
5.6560841 -4.9274783 -1.964797
5.775908 -4.7917643 -1.9656869
5.8924317 -4.6530781 -1.9665539
6.005537 -4.5115147 -1.967397
6.3237109 -4.0703254 -1.9697787
6.6087208 -3.6062865 -1.9719282
6.6960449 -3.4469621 -1.9725906
6.8588281 -3.1219356 -1.9738324
6.9341793 -2.9564273 -1.9744107
7.0725193 -2.6199439 -1.9754798
7.2986522 -1.9280059 -1.9772607
7.3857713 -1.5742792 -1.977967
7.4552927 -1.2165508 -1.9785483
7.483408 -1.0364715 -1.9787915
7.507031 -0.85573363 -1.979003
7.5261621 -0.67444336 -1.9791821
7.5408106 -0.49271849 -1.9793293
7.5576463 0.053906858 -1.9795769
7.5542088 0.23621643 -1.9795949
7.5462694 0.418385 -1.9795805
7.5168066 0.78184021 -1.979454
7.4389744 1.323092 -1.9790225
7.3648238 1.6799878 -1.9785745
7.3211522 1.8569152 -1.9783028
7.2730956 2.0326805 -1.9779996
7.2207422 2.2071745 -1.9776651
7.164072 2.3802867 -1.9772995
7.0379782 2.7219341 -1.9764758
6.9686618 2.8902545 -1.9760184
6.8176756 3.2213836 -1.975014
6.7361035 3.38398 -1.9744676
6.6505661 3.5444684 -1.9738922
6.5611134 3.7027435 -1.9732882
6.3707032 4.0122809 -1.9719965
6.0433297 4.4473515 -1.9653137
5.2600489 4.4920001 -1.811749
5.0328808 4.7363801 -1.8101786
4.7941895 4.9690738 -1.8085231
4.1510544 5.4962358 -1.8040392
3.8769825 5.6840057 -1.8021197
3.7366796 5.7727265 -1.8011355
3.5943358 5.8579388 -1.8001357
3.4500194 5.9395914 -1.799121
3.3038378 6.017653 -1.798092
3.155869 6.0920682 -1.7970495
2.8549609 6.2298322 -1.7949264
2.7022362 6.2931037 -1.793847
2.2359374 6.4601345 -1.7905459
2.0781543 6.5081244 -1.7894268
1.7595702 6.5923529 -1.7871405
1.2758007 6.6896524 -1.7837576
1.1133202 6.7141767 -1.7826146
0.95041013 6.7347355 -1.7814651
0.62365234 6.7639313 -1.7791495
0.13260742 6.7779474 -1.7756447
-0.030937498 6.774693 -1.7744707
-0.51972657 6.7412858 -1.7709419
-0.68174803 6.722321 -1.7697656
-1.0038671 6.6727395 -1.7674171
-1.3228027 6.6077957 -1.7650784
-1.4808691 6.5697589 -1.7639484
-1.9483594 6.4331059 -1.7605684
-2.10166 6.380208 -1.7594578
-2.2535644 6.3236895 -1.7583566
-2.5528026 6.1999626 -1.7561845
-2.8454199 6.0622563 -1.7540565
-3.1308007 5.9109406 -1.7519772
-3.2705956 5.830296 -1.750957
-3.5439453 5.6592851 -1.7489593
-3.6773925 5.5690327 -1.7479825
-3.8085742 5.4756851 -1.747021
-3.9374218 5.3792987 -1.7460757
-4.0638866 5.2799368 -1.7451468
-4.3093653 5.0725117 -1.7433401
-4.5445018 4.8539143 -1.7416049
-4.6580272 4.7405777 -1.7407655
-4.7687793 4.6246514 -1.7399451
-5.5517869 4.4305754 -1.8604383
-5.7328711 4.3529425 -1.8853801
-5.8338866 4.2116838 -1.8846239
-6.0256348 3.9223857 -1.8831829
-6.2869139 3.472708 -1.8812068
-6.5155272 3.0061748 -1.8794608
-6.5842967 2.8473206 -1.8789313
-6.6492968 2.686928 -1.8784283
-6.7104688 2.5250921 -1.8779526
-6.8212891 2.1974664 -1.8770823
-6.8708887 2.0318408 -1.8766886
-7.0298533 1.3593897 -1.8753935
-7.0854297 1.0184649 -1.8749161
-7.1071873 0.84715205 -1.8747202
-7.1554003 -0.014282227 -1.8741745
-7.1528807 -0.18690124 -1.8741522
-7.1357322 -0.531712 -1.8741949
-7.1023631 -0.87535584 -1.8743539
-7.0796485 -1.0465057 -1.8744768
-6.9061031 -1.8919244 -1.875523
-6.7546973 -2.3876343 -1.8764923
-6.6964841 -2.550401 -1.8768713
-6.5686131 -2.8717172 -1.8777124
-6.4990234 -3.0300975 -1.8781739
-6.425703 -3.1868231 -1.8786627
-6.3486814 -3.3418298 -1.8791783
-6.2680368 -3.4950252 -1.8797202
-6.1837692 -3.6463189 -1.8802886
-6.0959373 -3.7956398 -1.8808831
-5.9097362 -4.0880051 -1.8821487
-5.8114548 -4.230886 -1.8828195
-5.7098045 -4.3714657 -1.8835146
-5.496572 -4.6453986 -1.8849784
-5.3850975 -4.7785916 -1.8857458
-5.1527243 -5.0370574 -1.8873501
-4.7814746 -5.4038534 -1.8899239
-4.5195994 -5.6336246 -1.8917462
-4.3845506 -5.7438726 -1.8926879
-4.1066308 -5.9547715 -1.8946295
-3.3498731 -6.0279202 -1.8062772
-3.1639061 -6.0315228 -1.7839586
-2.982285 -6.0348754 -1.7631527
-2.8169725 -6.0645022 -1.7514377
-2.6714258 -6.134284 -1.7524639
-2.5241601 -6.2006245 -1.7535033
-2.3752539 -6.2634654 -1.7545553
-2.0729101 -6.3785124 -1.7566942
-1.4522949 -6.5649772 -1.7610961
-1.1354004 -6.6358709 -1.7633493
-0.81504881 -6.6915574 -1.7656311
-0.32963866 -6.7461901 -1.7690953
-0.1669043 -6.7566156 -1.7702584
0.15940429 -6.7657175 -1.7725936
0.81273437 -6.736639 -1.77728
0.97564453 -6.7194939 -1.7784508
1.4619141 -6.6443996 -1.7819514
2.1007519 -6.4893689 -1.7865635
2.2581153 -6.4409075 -1.787702
2.5693946 -6.3324685 -1.7899569
2.7231348 -6.2725434 -1.7910719
2.8754101 -6.2088585 -1.7921776
3.3388379 -6.0242572 -1.8040357
3.5290527 -6.0201893 -1.8277878
3.9251952 -6.0111909 -1.8804152
4.1319919 -6.0062256 -1.9094958
4.3453026 -6.0009232 -1.9405819
4.8120704 -5.7235312 -1.9585662
4.9513278 -5.6087132 -1.9595904
5.0877051 -5.4904466 -1.9605949
5.2213864 -5.3688102 -1.9615808
5.3520212 -5.243855 -1.9625454
5.604043 -4.9843359 -1.9644111
5.7252831 -4.8499112 -1.9653109
6.0689454 -4.4289398 -1.9678705
6.1765332 -4.2829971 -1.9686749
6.2805271 -4.134387 -1.9694546
6.3808985 -3.9831882 -1.9702086
6.4775095 -3.829515 -1.9709364
6.5703611 -3.673435 -1.9716378
6.7444043 -3.3544834 -1.9729587
7.0444627 -2.6921566 -1.975262
7.2778416 -2.0027072 -1.9770942
7.3254395 -1.8268975 -1.9774761
7.4419723 -1.2929932 -1.978435
7.5351267 -0.57012939 -1.9792706
7.5471873 -0.38821411 -1.9793993
7.557744 -0.023726195 -1.9795599
7.5562401 0.15861389 -1.9795914
7.5245996 0.70460081 -1.9794918
7.5050292 0.88588196 -1.9793938
7.4524703 1.2466613 -1.9791012
7.4195113 1.4259478 -1.978907
7.3403025 1.7817279 -1.9784224
7.2435641 2.1330512 -1.9778112
7.0662303 2.6497467 -1.9766613
6.9269824 2.9861083 -1.9757421
6.7713184 3.3150115 -1.9747039
6.5996776 3.6356378 -1.9735489
6.5080075 3.7925971 -1.972929
6.2103124 4.2489386 -1.9709027
6.1037598 4.3958917 -1.9701736
5.8787107 4.4530778 -1.9316616
5.1959181 4.5633354 -1.8113061
4.8459277 4.9205484 -1.8088824
4.5985837 5.1436648 -1.8071626
4.3407812 5.354157 -1.8053651
3.9360645 5.6451797 -1.8025339
3.3663085 5.9848638 -1.7985319
2.4589648 6.3850455 -1.7921259
2.3028028 6.4385295 -1.7910199
1.9870605 6.5339313 -1.7887805
1.8276561 6.5756769 -1.7876142
1.5064648 6.6478372 -1.7853744
1.3448144 6.6780071 -1.784242
1.0198144 6.72647 -1.7819554
0.85670894 6.7447453 -1.7808026
0.69329101 6.759047 -1.7796443
0.52967775 6.769383 -1.7784811
0.038671874 6.7765603 -1.7749707
-0.61284178 6.7308674 -1.7702664
-1.2552246 6.6228995 -1.7655751
-1.413711 6.586431 -1.7644335
-1.7275293 6.5022039 -1.7621661
-1.8826855 6.4545269 -1.7610437
-2.1890721 6.3481903 -1.7588245
-3.211328 5.8650322 -1.7513897
-3.3499413 5.7825041 -1.7503774
-3.8828611 5.420701 -1.7464761
-4.2579589 5.1176176 -1.7437189
-4.6100192 4.789156 -1.7411206
-4.9615622 4.4587603 -1.7472057
-5.8903708 4.1295218 -1.8842001
-6.1667576 3.6886578 -1.8821179
-6.2517872 3.5376031 -1.8814737
-6.4110155 3.2298479 -1.8802615
-6.485127 3.0733202 -1.8796942
-6.6220899 2.755393 -1.878639
-6.6849022 2.5941699 -1.8781517
-6.7990136 2.2676275 -1.8772583
-7.0984278 0.92014462 -1.8748001
-7.1178708 0.74856502 -1.8746208
-7.1332908 0.57658142 -1.8744704
-7.1519628 0.23181395 -1.8742563
-7.1552439 0.059210815 -1.8741926
-7.1544628 -0.1134204 -1.874158
-7.1496091 -0.28598022 -1.8741527
-7.1407127 -0.45838684 -1.8741763
-7.1108203 -0.80233395 -1.8743103
-7.0898142 -0.97370845 -1.8744209
-7.064785 -1.144541 -1.8745604
-7.0027246 -1.4842669 -1.8749259
-6.924736 -1.8207793 -1.8754061
-6.8310056 -2.1533513 -1.8760002
-6.7783103 -2.3179376 -1.8763393
-6.5291209 -2.9628644 -1.877974
-6.3819337 -3.2760537 -1.8789554
-6.1337595 -3.732322 -1.8806268
-5.8537011 -4.170331 -1.8825308
-5.7534962 -4.3119001 -1.8832158
-5.6499219 -4.4511213 -1.8839251
-5.2032228 -4.9829407 -1.887001
-4.8357615 -5.353385 -1.8895468
-4.7074313 -5.4710684 -1.8904387
-4.3058105 -5.8057537 -1.8932376
-3.8214452 -6.0180626 -1.8672148
-3.4304492 -6.0263081 -1.8162578
-3.0591016 -6.0334778 -1.7718301
-2.7335839 -6.1049962 -1.7520254
-2.5870702 -6.1728044 -1.753059
-2.4388475 -6.237143 -1.7541059
-2.1377442 -6.3552213 -1.756235
-1.985039 -6.4088864 -1.7573164
-1.6756835 -6.5052853 -1.7595098
-1.5192187 -6.5479541 -1.7606206
-1.2031446 -6.6220465 -1.7628675
-0.88348633 -6.6809835 -1.7651434
-0.5609082 -6.7245793 -1.7674437
-0.39878905 -6.7405624 -1.7686012
0.089873046 -6.7650967 -1.7720958
0.41663086 -6.7618103 -1.774437
0.74327147 -6.7427349 -1.7767811
0.90631837 -6.7272763 -1.7779526
1.0690722 -6.7078686 -1.7791228
1.2313769 -6.6845102 -1.7802908
1.5543945 -6.6259851 -1.782618
2.3479979 -6.4113379 -1.7883526
2.6578417 -6.2985177 -1.7905982
2.8107519 -6.2364292 -1.791708
3.4474902 -6.0219541 -1.8174762
4.2536521 -6.0032244 -1.9270914
4.6088672 -5.8811612 -1.957074
4.8924217 -5.6580148 -1.9591571
5.0300584 -5.5412078 -1.9601701
5.1648731 -5.4210014 -1.9611638
5.6740623 -4.9075089 -1.9649305
5.9094529 -4.6322265 -1.9666808
6.0220313 -4.4902387 -1.9675201
6.1311426 -4.3454599 -1.9683353
6.338623 -4.0478721 -1.9698907
6.4368358 -3.895227 -1.9706297
6.5313087 -3.7401662 -1.9713424
6.8702731 -3.0974703 -1.97392
7.0156446 -2.7640545 -1.975039
7.1444235 -2.4236629 -1.9760406
7.2024803 -2.251127 -1.9764966
7.3056931 -1.901897 -1.9773172
7.3915429 -1.547832 -1.9780145
7.4278808 -1.3692786 -1.9783163
7.4597654 -1.1898547 -1.9785866
7.4871969 -1.0096729 -1.9788249
7.5101461 -0.8288275 -1.9790314
7.5286422 -0.64747006 -1.9792061
7.5426073 -0.46569702 -1.9793484
7.5520506 -0.28362122 -1.9794582
7.5570116 -0.10134277 -1.9795364
7.5574217 0.080994263 -1.9795818
7.5446973 0.44541931 -1.9795755
7.4917769 0.98973995 -1.979323
7.434072 1.349718 -1.9789935
7.2656054 2.0586755 -1.9779519
7.2125878 2.2329674 -1.9776127
7.155283 2.4058783 -1.9772424
6.8839355 3.0813532 -1.9754562
6.80582 3.2456665 -1.9749348
6.6375294 3.5681133 -1.9738045
6.4536133 3.8816814 -1.97256
6.25458 4.1855655 -1.9712051
6.000195 4.4488578 -1.9564624
5.7195215 4.4585481 -1.8994745
5.2435741 4.5105362 -1.8116353
4.8971777 4.8714728 -1.8092381
4.7760057 4.9858708 -1.8083968
4.6521287 5.0972052 -1.8075354
4.5255957 5.2054243 -1.8066543
4.2649412 5.4121966 -1.8048353
4.1309962 5.510644 -1.8038989
3.7156737 5.7856073 -1.800988
3.5730176 5.8702898 -1.7999859
3.4284277 5.9514179 -1.798969
3.2819629 6.0289373 -1.797938
3.13375 6.1028128 -1.7968936
2.9838574 6.1729984 -1.7958363
2.8323827 6.2394671 -1.7947668
2.679414 6.3021841 -1.7936856
2.2125878 6.4675016 -1.7903804
2.0546191 6.5149236 -1.7892599
1.7357616 6.5980048 -1.7869748
1.5750977 6.6337895 -1.7858529
1.0891503 6.7174797 -1.7824445
0.92618161 6.7374516 -1.7812939
0.59934568 6.7654705 -1.7789767
0.43568358 6.7735186 -1.7778114
0.10831054 6.777709 -1.7754705
-0.70577145 6.7191668 -1.769591
-1.1874511 6.63731 -1.7660725
-1.3463379 6.6023688 -1.7649053
-1.661123 6.5213833 -1.7626462
-1.8167773 6.4752712 -1.7615205
-1.9712206 6.4254827 -1.7604028
-2.1243067 6.3720427 -1.7592938
-2.2760057 6.3149896 -1.758194
-2.4261718 6.2543669 -1.7571042
-2.7216895 6.1225724 -1.7549567
-3.0102539 5.9769998 -1.7528559
-3.1516991 5.8991642 -1.7518247
-3.4286034 5.7336578 -1.7498027
-3.563916 5.6460748 -1.7488132
-3.6970215 5.5553608 -1.7478387
-4.0824704 5.264925 -1.74501
-4.2061133 5.1622138 -1.7441006
-4.3271971 5.0566568 -1.7432085
-4.4456935 4.9483147 -1.7423347
-4.6746583 4.7235198 -1.7406423
-5.3340526 4.4391913 -1.8176544
-5.8486032 4.1905093 -1.8845135
-6.0393162 3.9005499 -1.8830798
-6.2160153 3.6021564 -1.881745
-6.2990036 3.4499943 -1.881115
-6.3783593 3.2959623 -1.8805108
-6.6586227 2.6629748 -1.878356
-6.7192383 2.5009398 -1.877884
-6.8289061 2.1729407 -1.8770221
-6.8779297 2.0071392 -1.8766325
-6.922998 1.8402752 -1.8762707
-6.9641404 1.6724334 -1.8759369
-7.0345211 1.3341699 -1.8753542
-7.0889158 0.99305111 -1.8748852
-7.1403122 0.47767454 -1.8743969
-7.1493454 0.30526733 -1.8742921
-7.145 -0.38501769 -1.8741626
-7.118535 -0.72923946 -1.8742721
-7.0759277 -1.0718884 -1.8744975
-7.0486035 -1.2423779 -1.8746536
-6.8522949 -2.0829237 -1.875864
-6.7462888 -2.4118841 -1.8765467
-6.6249218 -2.7356479 -1.8773408
-6.5585155 -2.8953445 -1.8777792
-6.2557516 -3.5176196 -1.8798029
-6.1709375 -3.6686261 -1.8803753
-6.0825877 -3.8176384 -1.8809735
-5.9907031 -3.9645889 -1.8815975
-5.8953419 -4.1093717 -1.8822469
-5.6944337 -4.3921404 -1.8836201
-5.5889549 -4.5299845 -1.8843435
-5.4802146 -4.6653476 -1.8850911
-5.3682618 -4.7981558 -1.8858618
-5.2531738 -4.9283304 -1.8866558
-5.0137305 -5.1805286 -1.8883123
-4.8895407 -5.3023882 -1.8891735
-4.7624121 -5.4213319 -1.8900564
-4.2262111 -5.8665776 -1.8937935
-4.0855861 -5.969914 -1.8947767
-3.7069628 -6.0205474 -1.8518699
-3.3219531 -6.0284715 -1.8028643
-2.9556541 -6.0353537 -1.7601852
-2.6496582 -6.144361 -1.7526175
-2.3530078 -6.2725034 -1.7547125
-2.2023144 -6.3312802 -1.7557782
-2.0502148 -6.3864841 -1.7568548
-1.4288867 -6.5707684 -1.7612623
-0.14270507 -6.7578325 -1.7704315
0.020371092 -6.7637615 -1.7715982
0.18365234 -6.7657647 -1.7727673
0.34704101 -6.7638316 -1.7739381
0.67380857 -6.7481189 -1.7762823
0.8369531 -6.7343392 -1.777454
0.99982423 -6.7166142 -1.7786249
1.3243749 -6.669312 -1.7809606
1.4858496 -6.6397595 -1.782124
1.6466503 -6.6062794 -1.7832837
1.9659277 -6.5275898 -1.7855887
2.1241894 -6.4824185 -1.786733
2.4374804 -6.3805051 -1.7890009
2.7458496 -6.2633233 -1.7912369
3.0484765 -6.1311059 -1.7934352
3.1973534 -6.0594373 -1.7945182
3.3668065 -6.0236697 -1.8074629
3.9555078 -6.0104742 -1.8846114
4.1632614 -6.0054603 -1.9139837
4.3775682 -6.0001059 -1.9453776
4.5471582 -5.9268169 -1.9566215
4.6913571 -5.8185391 -1.9576795
4.9717479 -5.5913563 -1.9597409
5.1078711 -5.4725895 -1.9607435
5.3711619 -5.225028 -1.962687
5.6222653 -4.9645581 -1.9645462
5.8604493 -4.6918197 -1.9663159
5.9745312 -4.5510383 -1.9671656
6.2956738 -4.1120887 -1.9695681
6.3954587 -3.9605234 -1.9703182
6.4915333 -3.8064718 -1.9710422
6.583828 -3.6500518 -1.9717396
6.7567086 -3.3304574 -1.9730524
6.8372169 -3.1674643 -1.9736669
6.986074 -2.835639 -1.9748105
7.0543356 -2.6669953 -1.9753387
7.1782813 -2.324764 -1.9763061
7.2338767 -2.1513944 -1.9767447
7.2851853 -1.9766687 -1.9771529
7.3321481 -1.8006915 -1.9775301
7.3747458 -1.6235589 -1.9778765
7.4467382 -1.2663391 -1.9784753
7.4760742 -1.0864667 -1.9787273
7.500947 -0.90588558 -1.9789474
7.555625 0.18569152 -1.9795935
7.5489159 0.36790526 -1.9795877
7.5377049 0.54989499 -1.9795496
7.5017481 0.91276366 -1.9793764
7.4770312 1.0933936 -1.9792416
7.4478707 1.2733417 -1.9790747
7.4142284 1.4524969 -1.9788754
7.3337207 1.8079834 -1.9783813
7.2356834 2.1589324 -1.9777609
6.9883008 2.8437707 -1.9761484
6.8395505 3.1759551 -1.9751604
6.5863085 3.6590936 -1.9734586
6.4940524 3.8157184 -1.9728345
5.5654688 4.4637775 -1.86867
5.3146482 4.4777374 -1.8202915
5.0650682 4.7031951 -1.8104014
4.9479198 4.8218513 -1.80959
4.5797558 5.1597404 -1.8070315
4.4517674 5.2661247 -1.8061396
4.1883106 5.4691377 -1.8042997
4.0530176 5.5656719 -1.8033531
3.4902148 5.9173126 -1.7994037
3.0478809 6.1435661 -1.796288
2.7446971 6.2759428 -1.7941471
2.5909276 6.3364873 -1.7930598
2.1220019 6.4952092 -1.7897379
1.3207421 6.6821513 -1.7840731
0.83244139 6.7471194 -1.7806307
0.6690039 6.760838 -1.7794719
0.34166014 6.7763467 -1.7771405
0.17796874 6.7781487 -1.7759696
0.014404297 6.7759943 -1.7747964
-0.14897461 6.7698784 -1.7736212
-0.63688475 6.7279668 -1.7700917
-0.79848629 6.7061844 -1.768916
-0.95939451 6.6805315 -1.7677423
-1.9056348 6.4471292 -1.7608775
-2.0593066 6.3952384 -1.7597647
-2.3624315 6.2806072 -1.7575669
-2.5116992 6.2179546 -1.7564831
-2.6593554 6.1517949 -1.75541
-2.8052733 6.0821671 -1.7543488
-2.9494238 6.009119 -1.7532991
-3.0917284 5.9327154 -1.7522622
-3.6406348 5.5943623 -1.7482516
-4.0290918 5.3077717 -1.7454025
-4.2759666 5.101944 -1.7435862
-4.395576 4.9947758 -1.7427046
-4.738369 4.6570401 -1.7401706
-4.9916306 4.453537 -1.7521564
-5.2288184 4.4433002 -1.7972507
-5.9047852 4.1081572 -1.8840919
-6.1795897 3.6663494 -1.8820207
-6.2641211 3.5150042 -1.88138
-6.4222655 3.2067058 -1.8801755
-6.5656052 2.8915105 -1.8790754
-6.63167 2.7315276 -1.8785651
-6.7523141 2.4072809 -1.8776253
-6.8575292 2.0778692 -1.8767951
-6.9471092 1.7440069 -1.8760757
-7.0208788 1.4064355 -1.8754687
-7.1015625 0.89468807 -1.8747717
-7.1459961 0.37868956 -1.8743331
-7.1527147 0.20618346 -1.8742449
-7.1553903 0.033572387 -1.8741856
-7.1485543 -0.31160888 -1.8741542
-7.1390719 -0.48397461 -1.8741821
-7.1079588 -0.82781553 -1.8743249
-7.0863476 -0.99910945 -1.8744398
-7.0607128 -1.1698736 -1.8745837
-7.0310936 -1.339986 -1.8747562
-6.9974704 -1.5093744 -1.8749577
-6.9183297 -1.8456262 -1.8754463
-6.6520114 -2.6672051 -1.8771626
-6.5872459 -2.8275447 -1.8775892
-6.4463964 -3.1435399 -1.8785245
-6.37042 -3.2990463 -1.8790325
-5.8390427 -4.1915035 -1.8826311
-5.7383299 -4.332726 -1.8833195
-5.6342673 -4.47159 -1.8840326
-5.5268946 -4.6080256 -1.8847698
-5.1856642 -5.0018725 -1.8871225
-5.0657129 -5.1277833 -1.8879523
-4.9427633 -5.2508636 -1.8888043
-4.816875 -5.3710546 -1.889678
-4.6881347 -5.4882922 -1.8905729
-4.422256 -5.713634 -1.8924249
-4.2853222 -5.8215857 -1.8933805
-4.145752 -5.9263206 -1.8943559
-3.7916405 -6.0187149 -1.863188
-3.5943162 -6.0229363 -1.8371098
-3.2150097 -6.030549 -1.7899923
-3.032207 -6.0339708 -1.7687722
-2.8570018 -6.0445547 -1.7511555
-2.4167089 -6.2463994 -1.7542623
-1.9622558 -6.4165487 -1.7574779
-1.6525292 -6.5118585 -1.7596742
-1.4958886 -6.553967 -1.7607863
-1.3382031 -6.5923429 -1.7619069
-1.1795312 -6.6269469 -1.7630354
-0.85960937 -6.6847515 -1.7653135
0.11413085 -6.7653947 -1.7722696
0.76750976 -6.7406902 -1.7769552
0.93052733 -6.7246418 -1.7781266
1.0931933 -6.7046494 -1.7792963
1.255459 -6.6807003 -1.7804642
1.4171679 -6.6528239 -1.781629
1.8982714 -6.5456448 -1.7851001
2.2145996 -6.4547272 -1.7873869
2.8333495 -6.2268877 -1.791872
3.6696973 -6.0170746 -1.8459927
4.0740428 -6.0076346 -1.9012399
4.4850097 -5.9718213 -1.9561657
4.7729883 -5.7547479 -1.958279
5.0502048 -5.5235705 -1.9603186
5.1846681 -5.4028592 -1.9613098
5.4445505 -5.1515245 -1.9632298
5.5698924 -5.0210557 -1.9641579
5.6920114 -4.8874769 -1.9650637
5.8108692 -4.7508769 -1.9659469
6.1470408 -4.3237214 -1.9684542
6.2520604 -4.1758423 -1.969241
6.3534374 -4.0253582 -1.9700021
6.8034277 -3.2370987 -1.9734088
7.0257907 -2.7390065 -1.9751174
7.0916405 -2.5693865 -1.9756286
7.2638865 -2.0512161 -1.976983
7.5309958 -0.62049621 -1.9792292
7.5530858 -0.25655943 -1.9794723
7.5573435 -0.074260861 -1.9795451
7.5570993 0.10807617 -1.9795859
7.5523338 0.29035157 -1.9795941
7.5430274 0.47245115 -1.9795698
7.5109081 0.83568358 -1.9794242
7.4881053 1.0165699 -1.9793029
7.3928905 1.5549914 -1.9787463
7.3523145 1.732666 -1.9784969
7.1463962 2.431433 -1.9771847
7.084209 2.6025872 -1.9767791
7.0178223 2.7721143 -1.9763432
6.9472656 2.9399083 -1.9758767
6.8725877 3.1058824 -1.9753805
6.7938476 3.2699022 -1.9748547
6.711123 3.4318781 -1.9742999
6.6244235 3.5917156 -1.9737161
6.5337987 3.7493255 -1.9731036
6.4393554 3.9045916 -1.9724634
6.3411522 4.0574212 -1.9717953
6.2392187 4.207725 -1.9711004
6.1336427 4.3554206 -1.9703784
5.6792188 4.4599237 -1.8913784
5.4162302 4.468781 -1.839172
5.1140528 4.6517963 -1.8107404
4.9981251 4.7716923 -1.8099378
4.8793454 4.8886552 -1.8091143
4.6334863 5.1134892 -1.8074057
4.5065622 5.221221 -1.8065215
4.3771091 5.3257575 -1.8056188
4.110908 5.524982 -1.8037584
3.5516698 5.8825665 -1.7998358
3.4067869 5.9631634 -1.7988168
3.2600682 6.0401406 -1.7977837
2.8097558 6.2490177 -1.7946069
2.6565623 6.3111796 -1.7935241
2.346211 6.4240875 -1.7913274
2.0310547 6.521636 -1.7890927
1.871914 6.5644293 -1.7879215
1.2275684 6.6973529 -1.7834187
0.90194333 6.7400751 -1.7811226
0.73861325 6.7554836 -1.7799658
0.57503903 6.7669182 -1.7788039
0.24764648 6.7778702 -1.7764685
0.084023438 6.7773871 -1.7752961
-0.079472654 6.7729654 -1.7741216
-0.24267578 6.7645864 -1.7729456
-0.40552732 6.7522769 -1.771769
-0.72976559 6.7159357 -1.7694165
-0.89097655 6.6919241 -1.7682416
-1.0514648 6.6640592 -1.7670689
-1.5276464 6.557714 -1.7636108
-1.6843262 6.514771 -1.7624786
-2.146914 6.3637958 -1.7591299
-2.2984083 6.3062067 -1.7580314
-2.7433691 6.1122284 -1.7547991
-3.0313768 5.9656472 -1.7527019
-3.3117187 5.8057075 -1.7506567
-3.4488671 5.7208438 -1.7496548
-3.8470995 5.4473677 -1.7467386
-3.9752538 5.3500896 -1.745798
-4.100986 5.2498527 -1.7448739
-4.3449607 5.0407391 -1.7430778
-4.4630761 4.9319878 -1.7422063
-4.5785155 4.8205204 -1.7413538
-4.6912303 4.706409 -1.7405196
-4.8011327 4.5897183 -1.7397053
-5.630156 4.4274421 -1.8760196
-5.9598241 4.0250592 -1.8836782
-6.2285743 3.5796733 -1.8816497
-6.3110251 3.4272184 -1.8810235
-6.3898239 3.2729301 -1.8804232
-6.5363474 2.9591496 -1.8793006
-6.6678805 2.6389928 -1.878284
-6.784121 2.3131909 -1.8773755
-6.8364453 2.1483886 -1.8769625
-6.8848534 1.9824194 -1.8765771
-7.0065136 1.4785693 -1.8755883
-7.0923142 0.96762508 -1.8748548
-7.1128902 0.79617125 -1.8746676
-7.1294236 0.62430054 -1.8745091
-7.1503515 0.27964476 -1.874279
-7.1550684 -0.065567017 -1.8741648
-7.1513672 -0.23815368 -1.8741512
-7.1317773 -0.5828436 -1.8742114
-7.1159081 -0.75475097 -1.874285
-7.044199 -1.267647 -1.8746792
-6.976367 -1.6062884 -1.8750863
-6.9364843 -1.774364 -1.8753327
-6.8926754 -1.9414667 -1.8756076
-6.7933202 -2.2724297 -1.8762423
-6.7378125 -2.4361174 -1.8766018
-6.5483398 -2.9189296 -1.8778466
-6.4776268 -3.0768259 -1.8783163
-6.403203 -3.2330606 -1.8788131
-6.3251171 -3.3875363 -1.8793365
-6.2433691 -3.5401721 -1.8798864
-6.0691504 -3.8395977 -1.8810648
-5.781611 -4.2728877 -1.8830234
-5.5730176 -4.5502505 -1.8844531
-5.463779 -4.6852341 -1.885204
-5.351367 -4.8176537 -1.8859783
-4.8708396 -5.320241 -1.8893032
-4.7432814 -5.4387436 -1.8901895
-4.6129103 -5.5542545 -1.8910964
-4.4797559 -5.6667085 -1.8920239
-4.0644727 -5.9849854 -1.8949244
-3.8773437 -6.0168285 -1.8748349
-3.4834082 -6.0252318 -1.8229131
-3.1095214 -6.0325437 -1.7776245
-2.9291112 -6.0358262 -1.7572508
-2.773916 -6.0855913 -1.7517413
-2.6278613 -6.1543512 -1.7527713
-2.4800975 -6.2196569 -1.7538145
-2.3307323 -6.2814536 -1.7548699
-1.2471973 -6.6126781 -1.7625539
-0.76718748 -6.6985226 -1.7659723
-0.60576171 -6.7194576 -1.7671237
0.20793945 -6.7657275 -1.7729412
0.69801754 -6.746325 -1.7764561
0.86117184 -6.7319589 -1.7776282
1.0239843 -6.7136416 -1.7787985
1.3483887 -6.665174 -1.7811335
1.6704785 -6.6009707 -1.7834555
1.8304101 -6.5629992 -1.7846099
1.989502 -6.521131 -1.7857592
2.1475878 -6.4753814 -1.7869023
2.4605858 -6.3723178 -1.789168
2.7685254 -6.2540178 -1.7914014
2.9203711 -6.1892166 -1.7925042
3.070703 -6.1206913 -1.7935967
3.5865135 -6.0189276 -1.8351601
3.7834473 -6.0144897 -1.8611071
4.1946678 -6.0046864 -1.9185177
4.4099708 -5.9992795 -1.9502215
4.7125487 -5.8021531 -1.9578352
4.8537302 -5.6897917 -1.9588724
4.9922071 -5.5739417 -1.9598913
5.5169044 -5.0769806 -1.9637655
5.64042 -4.9447212 -1.9646808
5.7606735 -4.8093958 -1.9655737
5.8776169 -4.6710944 -1.9664435
5.9911718 -4.5298953 -1.9672897
6.8488278 -3.1431 -1.9737557
6.9246874 -2.977843 -1.9743377
6.9964938 -2.8106868 -1.9748911
7.2417674 -2.1255255 -1.9768072
7.3387399 -1.7744536 -1.9775835
7.380703 -1.5971746 -1.9779254
7.5239649 -0.69778866 -1.9791609
7.5498824 -0.33411682 -1.9794312
7.5560937 -0.15189391 -1.9795181
7.5475488 0.39497069 -1.9795841
7.519238 0.75850952 -1.9794658
7.4983497 0.93963134 -1.9793584
7.4088473 1.4790313 -1.9788429
7.3701267 1.6571344 -1.9786072
7.3270311 1.8341992 -1.9783396
7.2795215 2.0101464 -1.9780405
7.1715918 2.3580987 -1.9773483
7.1112108 2.5299139 -1.9769557
7.0466113 2.7001464 -1.9765326
6.9048924 3.035445 -1.9755954
6.8278708 3.2003026 -1.9750824
6.7468262 3.363189 -1.9745396
6.5728221 3.6825128 -1.9733676
6.1790333 4.2928691 -1.9706891
5.7957325 4.4559355 -1.9148377
4.686738 5.0666547 -1.8077761
4.5609279 5.175734 -1.8069003
3.6127734 5.8471708 -1.8002652
3.3227637 6.0078058 -1.7982254
3.1750195 6.0826945 -1.7971845
3.0255663 6.1539202 -1.7961307
2.5679882 6.3451591 -1.7928976
2.098496 6.5021658 -1.7895712
1.9398144 6.5467739 -1.788445
1.6196777 6.6242719 -1.7861655
1.4585059 6.6572089 -1.7850388
0.80817384 6.7494073 -1.7804588
0.6447168 6.7625322 -1.7792993
0.31735352 6.7768669 -1.7769669
0.15365234 6.7780766 -1.7757956
-0.33625001 6.7579975 -1.7722702
-0.66093749 6.7249761 -1.7699168
-1.3023926 6.612432 -1.7652284
-1.4605957 6.5748672 -1.7640949
-1.9285351 6.4396524 -1.7607118
-2.234082 6.3311701 -1.7584978
-2.5337501 6.2083392 -1.7563229
-2.8268261 6.0715299 -1.7541919
-2.9706933 5.9979839 -1.7531441
-3.1126757 5.9210782 -1.7521093
-3.2527051 5.8408527 -1.7510877
-3.5266211 5.6706758 -1.7490861
-3.660332 5.5808234 -1.7481074
-3.7918456 5.4878592 -1.7471436
-4.2938867 5.0862017 -1.7434542
-4.413125 4.978621 -1.742575
-4.5296874 4.8683085 -1.7417145
-4.862988 4.5215583 -1.7392461
-5.2652636 4.4418817 -1.8042964
-5.8210645 4.2299881 -1.8847198
-5.9191208 4.0867362 -1.8839843
-6.013711 3.9412701 -1.8832728
-6.1048045 3.7936652 -1.882586
-6.1923828 3.64398 -1.8819238
-6.2763767 3.4923491 -1.8812869
-6.3567381 3.3388383 -1.8806757
-6.4334278 3.1835246 -1.88009
-6.5064259 3.0265002 -1.8795308
-6.6411328 2.7076561 -1.8784916
-6.760654 2.3829961 -1.8775599
-6.8146482 2.2186811 -1.8771349
-6.8647361 2.0532062 -1.8767376
-6.9108982 1.8866339 -1.8763682
-7.082324 1.0404888 -1.8749434
-7.1228809 0.69750059 -1.874573
-7.1370797 0.52542537 -1.8744314
-7.1472559 0.35307983 -1.8743182
-7.1533689 0.18054686 -1.8742343
-7.1534371 -0.16468567 -1.8741534
-7.1473827 -0.33720887 -1.8741566
-7.1373043 -0.50954223 -1.8741888
-7.0827928 -1.0245227 -1.8744594
-7.0263376 -1.3651959 -1.8747845
-6.8157811 -2.2023842 -1.8760978
-6.7041988 -2.5295422 -1.8768209
-6.508193 -3.0098021 -1.878113
-6.3588181 -3.3219736 -1.8791103
-6.2786231 -3.4754057 -1.879649
-6.1074219 -3.7765472 -1.8808054
-6.0165133 -3.9240718 -1.881422
-5.824297 -4.2126279 -1.8827316
-5.618525 -4.4920096 -1.8841406
-5.5106735 -4.6280608 -1.8848814
-5.2853808 -4.8925257 -1.8864335
-5.1680274 -5.020761 -1.8872442
-4.9242477 -5.2688975 -1.8889327
-4.6687598 -5.5054517 -1.8907076
6.4015722 2.5516956 -1.9718777
6.1959863 3.0058727 -1.9705108
