# .PCD v0.7 - Point Cloud Data file format
VERSION 0.7
FIELDS x y z
SIZE 4 4 4
TYPE F F F
COUNT 1 1 1
WIDTH 1485
HEIGHT 1
VIEWPOINT 0 0 0 1 0 0 0
POINTS 1485
DATA ascii
-3.7583301 6.4158077 -0.23031524
-4.4631052 6.4918089 -0.24402305
-4.6976075 6.491683 -0.24820717
-5.1923728 6.4914222 -0.2574839
-5.4541698 6.4912815 -0.26262304
-6.0112891 6.4909863 -0.27403641
-6.3087888 6.4908276 -0.28037682
-6.9480176 6.4904871 -0.29451117
-7.2928219 6.490304 -0.30239907
-7.6568551 6.4901085 -0.31091133
-8.0421877 6.489902 -0.32010445
-8.4512596 6.4896836 -0.3300547
-8.7666798 6.4017162 -0.33624336
-9.8448439 6.4849277 -0.3651596
-10.38123 6.4846396 -0.37914124
-10.960645 6.4843283 -0.39447242
-12.274511 6.4836216 -0.42998686
-19.508223 6.4015503 -0.63597113
-23.50456 6.4752536 -0.75518584
-25.922123 6.4727039 -0.82759923
-28.861307 6.4711156 -0.91618407
-8.8027439 -22.840563 -0.75821698
-7.8428125 -21.91094 -0.72088271
-5.4510837 -21.598198 -0.68999052
-3.2766893 -21.576216 -0.67599565
-2.2181835 -21.573412 -0.67176461
-1.6936718 -21.577362 -0.67042065
-0.64912111 -21.574745 -0.66858655
1.4352245 -21.572788 -0.66970122
2.4847655 -21.570654 -0.67257673
4.6239452 -21.567629 -0.68324584
5.7247949 -21.567791 -0.69120115
7.4307909 -21.565468 -0.70654249
8.0175095 -21.564419 -0.71263862
8.6147461 -21.563354 -0.71926171
9.2236032 -21.562267 -0.72644013
9.8450384 -21.561159 -0.73420334
10.480908 -21.561253 -0.74259365
11.13126 -21.560263 -0.7515921
14.664307 -21.562754 -0.80773586
17.062792 -21.55435 -0.85153073
18.820713 -21.551384 -0.88629586
20.737041 -21.552494 -0.92643672
27.42499 6.5022593 -0.87304717
24.743935 6.5009494 -0.79246217
19.03828 6.5062609 -0.62320542
16.39666 6.5026388 -0.54637533
14.334619 6.5016308 -0.48755631
13.460567 6.5012012 -0.46303099
10.698291 6.50703 -0.38786513
10.138574 6.5067563 -0.37315863
8.6845407 6.5060401 -0.33612046
7.4873633 6.5054493 -0.30723625
7.0213571 6.4042783 -0.29437369
6.7075877 6.4212756 -0.28762442
6.1532125 6.487638 -0.276968
5.5838962 6.4873548 -0.26513419
5.3167677 6.4872227 -0.25980857
5.0600586 6.4870944 -0.25483909
4.8128319 6.4869714 -0.2501989
3.9041209 6.4865184 -0.2345082
3.6938865 6.486412 -0.23121338
3.489326 6.4863095 -0.22814171
3.0955858 6.4861121 -0.22261757
2.9055665 6.4860168 -0.22014259
2.7195995 6.4859238 -0.21784912
2.5373731 6.4858322 -0.21572654
2.3585546 6.4857407 -0.2137696
1.6501172 6.4015942 -0.2047721
1.345332 6.5022449 -0.20567383
1.1825 6.5021615 -0.20470908
1.0210937 6.50208 -0.20387115
0.8609277 6.5019979 -0.20315826
0.54344726 6.5018344 -0.20209724
-0.39950195 6.5013514 -0.20176032
-0.71557617 6.5011888 -0.20259163
-1.0350097 6.5010214 -0.20390616
-1.1964746 6.5009384 -0.20474914
-1.3593652 6.5008531 -0.20572066
-1.6903319 6.5006809 -0.20805579
-1.8588476 6.5005932 -0.20942786
-2.0296874 6.5005054 -0.210941
-2.3794239 6.5003223 -0.21441452
-2.7417383 6.500133 -0.21852058
-2.9283495 6.5000339 -0.2208287
-3.1190722 6.4999352 -0.22331695
-3.6674218 6.4084396 -0.22871047
-4.1432419 6.4919772 -0.23855332
-4.3670897 6.491859 -0.24235198
-4.8375778 6.4916101 -0.25077155
-5.8905172 6.4910507 -0.27150962
-7.1460252 6.4903808 -0.29902083
-7.5017481 6.4901915 -0.30726242
-8.5831442 6.4018149 -0.33167082
-9.0350685 6.405582 -0.34306082
-9.6315136 6.4850426 -0.35966209
-10.151386 6.4847631 -0.37312323
-11.979795 6.4837818 -0.42194143
-13.495537 6.4829659 -0.46375832
-14.187412 6.3988037 -0.48209816
-17.69684 6.4863181 -0.58382612
-18.957655 6.4340734 -0.62011945
-20.712534 6.4767599 -0.67221314
-22.610361 6.4757361 -0.72852296
-24.531078 6.3896642 -0.78522933
-27.555477 6.4718213 -0.87676495
-27.4827 -7.7835464 -0.88477111
-6.8099804 -21.586264 -0.70112759
-6.2359862 -21.566942 -0.69541001
-5.6821384 -21.590851 -0.69155747
-5.1305175 -21.598984 -0.68765646
-1.6586816 -7.8170056 -0.24752524
-4.0372653 -21.578232 -0.67999101
-3.5004394 -21.576807 -0.67708433
-2.9679687 -21.575397 -0.67459768
-2.4390624 -21.573996 -0.67251801
-0.34671873 -21.573986 -0.66835135
0.17379883 -21.57268 -0.66824329
1.215957 -21.570068 -0.66920263
1.7390137 -21.572172 -0.67037231
2.7914159 -21.570028 -0.67371154
3.8567381 -21.567862 -0.67867124
6.6147852 -21.567924 -0.69879055
7.188457 -21.568007 -0.70420635
8.3629389 -21.563803 -0.71641999
10.212168 -21.560503 -0.73896497
11.516397 -21.559683 -0.75711942
12.193252 -21.558651 -0.76719636
17.558973 -21.553514 -0.86113191
6.7208004 -7.8548717 -0.32021284
19.358759 -21.550478 -0.89730972
25.805302 6.5014672 -0.82430601
23.402334 6.5002942 -0.75233674
21.41087 6.5074191 -0.69316387
19.687958 6.506577 -0.64228207
16.894003 6.502883 -0.56072503
15.748379 6.5023217 -0.52775574
14.729424 6.5018234 -0.49872291
13.816084 6.5013766 -0.47297385
12.9921 6.5009713 -0.45000464
11.573857 6.507462 -0.41128525
10.367998 6.5068688 -0.37916061
9.8325195 6.5066051 -0.36521316
8.0270405 6.5057163 -0.32004827
7.1656933 6.4043503 -0.2976934
6.5897851 6.487854 -0.28644538
6.2791696 6.4877014 -0.27966842
5.9827051 6.4875536 -0.27335685
5.6991992 6.487412 -0.26747847
5.1665235 6.4871469 -0.25688231
4.4395118 6.4867859 -0.24348129
4.2133203 6.4866724 -0.23959067
3.3730175 6.4862509 -0.22645561
3.1765528 6.4861536 -0.22371024
15.207568 6.5017357 -0.88545281
13.380234 6.5008726 -0.79640883
12.44833 6.4238281 -0.74995095
11.243183 6.5070457 -0.69546568
10.086396 6.5064964 -0.64259917
9.0909271 6.5060215 -0.59849668
8.6422071 6.5058079 -0.57912129
8.2213964 6.5056067 -0.56128091
7.451992 6.505239 -0.52958226
6.1243844 6.4874487 -0.47763428
5.8347754 6.4873095 -0.46712133
5.5574803 6.4871764 -0.4573217
4.7893066 6.4868031 -0.43168035
4.5516014 6.4866867 -0.42423943
4.3218064 6.4865746 -0.41729149
4.0992966 6.4864659 -0.41079924
3.8834863 6.4863596 -0.40473923
3.6738086 6.4862571 -0.39908439
3.2710059 6.4860582 -0.38890043
2.8873632 6.4858689 -0.38008514
2.7017968 6.4857774 -0.37614945
2.519912 6.4856873 -0.37250921
2.3414061 6.4855981 -0.36915123
2.1659961 6.4855099 -0.36606506
1.7997851 6.4015403 -0.35600486
1.6341991 6.4014573 -0.35370344
1.3295116 6.5021067 -0.35530403
1.1668457 6.5020251 -0.3536576
0.84548825 6.5018625 -0.35101876
0.52818358 6.5017004 -0.34922531
0.37055662 6.5016198 -0.34863883
0.05642578 6.5014596 -0.34807935
-0.25743163 6.5012975 -0.34832993
-0.41470703 6.5012155 -0.34876037
-0.73090822 6.5010509 -0.35023621
-0.89018553 6.5009689 -0.3512876
-1.0505273 6.500886 -0.35254967
-1.3751562 6.5007162 -0.35572752
-1.5398632 6.5006285 -0.35765243
-2.046289 6.5003624 -0.36484337
-2.2199805 6.5002708 -0.3677372
-2.3965623 6.5001769 -0.37089592
-2.7595117 6.4999852 -0.37804884
-3.1376464 6.499784 -0.38639954
-3.6871777 6.4082861 -0.39581978
-3.9467773 6.4919333 -0.40674499
-4.3889747 6.491694 -0.41952133
-4.6209373 6.4915695 -0.4265959
-5.6374316 6.4910169 -0.46027184
-6.8403025 6.4903612 -0.50482243
-9.0794821 6.4053402 -0.59487671
-10.2033 6.4844995 -0.64723235
-12.046162 6.483479 -0.73238808
-16.570482 6.486578 -0.95268142
-17.823999 6.4858799 -1.0154549
-18.983383 6.3935142 -1.0724171
-20.881474 6.476244 -1.1704594
-22.809008 6.4751673 -1.2693753
-24.769804 6.3902817 -1.3695234
-28.821049 5.2475095 -1.5683563
-28.922812 4.5480847 -1.567467
-29.075937 -6.0739017 -1.5902417
-28.360073 -7.3682647 -1.5687187
-28.192675 -8.0556097 -1.5697545
-22.595991 -19.524603 -1.5987616
-20.291172 -21.277269 -1.5740727
-19.702612 -21.684286 -1.5685529
-19.109394 -22.07896 -1.5632908
-18.48835 -22.433136 -1.5563217
-17.732222 -22.605385 -1.538138
-16.992378 -22.772875 -1.5211896
-16.274639 -22.945713 -1.5060623
-15.583789 -23.134956 -1.493364
-14.907207 -23.325884 -1.4820391
-14.236856 -23.508223 -1.4713656
-13.572372 -23.68219 -1.4613284
-12.259326 -24.005981 -1.4430932
-9.993701 -23.652388 -1.3746709
-9.4077053 -23.854939 -1.3728502
-8.0996971 -22.085064 -1.259369
-6.1822653 -21.569532 -1.2012597
-5.6290817 -21.593412 -1.194679
-1.8151269 -7.7214103 -0.42464781
-3.9851854 -21.57806 -1.1747605
-3.4488475 -21.576643 -1.1698099
-2.3881347 -21.573833 -1.1620529
-1.3393066 -21.576244 -1.1573504
-0.29641601 -21.573633 -1.1550941
0.74483395 -21.57102 -1.1555336
1.7896289 -21.572212 -1.1588751
2.8425097 -21.570068 -1.1647792
3.9086621 -21.5679 -1.1734897
4.4487109 -21.568535 -1.1790174
4.994082 -21.568621 -1.1852667
6.1039939 -21.568794 -1.2000762
7.2446384 -21.568979 -1.2181351
9.0259571 -21.563101 -1.2514763
12.260058 -21.559423 -1.3277998
12.95752 -21.558378 -1.3466026
13.678203 -21.561611 -1.3670241
14.41956 -21.56208 -1.3887092
19.452246 -21.553286 -1.554354
28.041483 6.4182091 -1.540068
25.551571 6.5008297 -1.4115335
22.920185 6.4239035 -1.2743773
19.533583 6.5061011 -1.1022499
16.776308 6.5024753 -0.963256
12.916221 6.5006528 -0.77413481
12.017812 6.4164391 -0.72936475
11.510459 6.5071716 -0.70789093
10.31416 6.5066037 -0.65288281
9.2881832 6.5061169 -0.60711706
8.8267775 6.5058956 -0.58704925
8.3946581 6.5056896 -0.56858563
7.9886522 6.5054955 -0.55155957
7.6060448 6.5053134 -0.53582555
6.7946677 6.4039841 -0.49987289
6.2497654 6.4875097 -0.48227027
5.9546485 6.4873681 -0.47143957
5.6723142 6.4872313 -0.46134695
5.1417089 6.4869738 -0.44315299
4.6502733 6.4867358 -0.4272975
4.4172363 6.4866223 -0.42014626
4.1917481 6.4865112 -0.41346732
3.7610059 6.4863 -0.40140778
3.5546777 6.4861984 -0.39597771
3.35375 6.4861012 -0.39091757
3.157783 6.4860034 -0.38620695
2.5957422 6.4857249 -0.37400085
1.5389941 6.4014096 -0.35247719
1.3840234 6.4362607 -0.35245696
1.2348731 6.502059 -0.35432097
1.0730274 6.5019774 -0.35280266
0.75300777 6.5018139 -0.35041136
0.43658203 6.5016537 -0.34886009
0.12220703 6.501493 -0.34812844
-0.034677733 6.501411 -0.34806761
-0.34871092 6.5012512 -0.3485553
-0.50624025 6.5011683 -0.34910461
-0.82328123 6.5010047 -0.35082114
-1.1441993 6.5008359 -0.35338187
-1.3066015 6.5007529 -0.35498855
-1.4705859 6.5006652 -0.35681832
-1.8041797 6.5004907 -0.36117002
-2.8676171 6.499928 -0.38034514
-3.2248535 6.4481297 -0.38598022
-3.400703 6.4084396 -0.38839981
-3.6014159 6.4083309 -0.39355078
-4.2939649 6.4917469 -0.41669616
-5.2587595 6.4912229 -0.44724953
-7.3845801 6.4900608 -0.52633208
-8.1450682 6.4896436 -0.55754757
-8.469883 6.4206018 -0.56900829
-9.47124 6.4849033 -0.61452627
-11.117383 6.483994 -0.68902129
-12.460957 6.4832482 -0.75201321
-13.230244 6.482821 -0.78876835
-16.089687 6.4868455 -0.92876315
-20.159609 6.4766479 -1.1336113
-21.96245 6.4756408 -1.2258437
-24.085966 6.474453 -1.3352636
-28.516958 6.9323692 -1.5711714
-28.425835 -7.0791326 -1.5683161
-28.088661 -8.45331 -1.5704051
-27.897909 -9.1354637 -1.5716089
-18.802509 -7.7033114 -1.0878347
-10.581094 -7.7165952 -0.70112026
-22.832689 -19.32917 -1.601596
-21.694912 -20.241144 -1.5885018
-21.118134 -20.678286 -1.5823534
-19.949976 -21.515139 -1.5708356
-19.358734 -21.91502 -1.5654649
-18.762896 -22.302572 -1.5603514
-18.045103 -22.531124 -1.5454241
-14.517187 -23.432796 -1.475763
-12.532939 -23.940693 -1.4467187
-8.4983492 -22.466356 -1.2859538
-7.6419725 -21.775988 -1.2355248
-6.9976754 -21.593796 -1.2152522
-6.4193845 -21.570513 -1.2048711
-2.0825489 -21.573023 -1.1603197
-1.0360546 -21.575483 -1.1564164
-0.5147754 -21.574177 -1.1553438
0.526416 -21.571568 -1.15522
1.5700976 -21.57266 -1.1579895
3.1504395 -21.569443 -1.1670145
3.6837597 -21.568359 -1.1714262
5.8689551 -21.568756 -1.1967083
6.4316993 -21.568848 -1.204976
7.0026169 -21.568939 -1.214063
7.5813379 -21.565668 -1.2238224
8.1706543 -21.564619 -1.2345971
11.30207 -21.560862 -1.3032774
11.973281 -21.559853 -1.3202975
13.374072 -21.56142 -1.3583605
14.861094 -21.562355 -1.4020015
16.445116 -21.556133 -1.4515431
17.282402 -21.554733 -1.4791028
20.007227 -21.553257 -1.5744157
26.680399 6.5013599 -1.4701792
24.129053 6.5001621 -1.3378481
22.025381 6.5072727 -1.22956
20.214384 6.5064206 -1.1368933
16.102314 6.5021567 -0.92969722
14.099766 6.5012121 -0.83123517
12.316377 6.4165807 -0.74350035
11.78748 6.5073032 -0.72084236
11.142802 6.5069971 -0.69081742
10.000634 6.5064564 -0.63874251
8.5725098 6.505775 -0.57614404
8.1559076 6.5055761 -0.55853325
7.7637887 6.5053868 -0.5422734
7.393652 6.5052123 -0.52723283
6.3776169 6.4875708 -0.48704481
5.7892284 6.4872875 -0.46549278
5.5138183 6.4871545 -0.4558019
4.5140038 6.4866695 -0.42308593
4.2854295 6.4865575 -0.41621253
3.6405175 6.4862423 -0.39820808
3.2393749 6.4860435 -0.38814002
3.0460937 6.4859471 -0.38362333
2.8571582 6.4858541 -0.37943029
2.3129003 6.4855833 -0.36863548
1.444414 6.4013619 -0.3513234
1.3031542 6.5020933 -0.35502318
1.1407129 6.5020118 -0.353412
0.97965819 6.5019298 -0.35202041
0.50269532 6.501688 -0.34911767
0.34515625 6.5016074 -0.34856445
0.18801758 6.5015268 -0.34821457
-0.12578125 6.5013647 -0.34812585
-0.4401367 6.5012035 -0.3488484
-0.91599607 6.5009556 -0.35147613
-1.4016309 6.5007019 -0.35602286
-2.4253418 6.5001621 -0.37143242
-2.6056249 6.5000658 -0.37490967
-2.7894237 6.4999695 -0.37867659
-3.3180761 6.4084849 -0.38635048
-3.7247655 6.4156809 -0.39716208
-4.2002149 6.4917965 -0.41395041
-4.425879 6.4916744 -0.42063048
-6.8938184 6.4903316 -0.50690275
-7.5964842 6.4899449 -0.53490186
-7.9782128 6.4897361 -0.55059218
-8.3832417 6.4895115 -0.56757325
-8.6951561 6.4015441 -0.57806158
-9.2688379 6.4850168 -0.60562181
-13.712626 6.4825535 -0.81203145
-14.626631 6.4876609 -0.8566348
-15.632392 6.4871006 -0.9061079
-16.762163 6.4864707 -0.96223813
-18.041958 6.4857569 -1.026425
-19.230165 6.3933778 -1.0849262
-21.171953 6.4760828 -1.1853213
-23.151049 6.4749765 -1.2869976
-25.498169 6.4724193 -1.4083835
-28.937788 4.4350681 -1.5673338
-28.629229 -6.0970359 -1.5670916
-28.164242 -8.1662483 -1.5699319
-27.979668 -8.8498592 -1.5710913
-21.935263 -20.054159 -1.5911585
-21.360722 -20.496532 -1.5848993
-20.781059 -20.926411 -1.5789011
-20.196537 -21.343832 -1.5731634
-18.363876 -22.459642 -1.5531864
-17.612402 -22.633593 -1.535376
-16.875614 -22.800837 -1.5186573
-16.159931 -22.973019 -1.5037103
-14.798584 -23.355892 -1.4802725
-13.465664 -23.709526 -1.4597644
-12.154219 -24.030722 -1.4417259
-11.048457 -23.218903 -1.3766245
-9.8991213 -23.685303 -1.3743335
-9.0488863 -23.209438 -1.3336601
-7.9699707 -21.995893 -1.2525344
-7.2642965 -21.666645 -1.2234265
-6.6606641 -21.580225 -1.2091177
-1.7869922 -7.7368908 -0.42511496
-1.6106055 -7.8301163 -0.42797646
-3.8983104 -21.577831 -1.1739128
-3.3627245 -21.576416 -1.1690795
-2.8312109 -21.575005 -1.1649626
-1.2549804 -21.576035 -1.1570666
-0.73322266 -21.574726 -1.1557107
1.8742187 -21.572041 -1.1592492
2.3997169 -21.570971 -1.1619655
3.4596484 -21.568813 -1.1694881
3.9954295 -21.567724 -1.1743138
5.6352148 -21.56872 -1.193483
6.1947947 -21.568808 -1.2014108
6.7621775 -21.568901 -1.2101547
7.3371973 -21.566103 -1.2195745
8.5177927 -21.564003 -1.2412714
9.1246967 -21.562923 -1.2535176
9.744072 -21.561823 -1.2667612
10.377753 -21.56225 -1.281118
11.025663 -21.561279 -1.2964936
11.689707 -21.56028 -1.313012
15.31122 -21.562635 -1.4158257
18.674257 -21.55241 -1.5267254
20.576807 -21.55323 -1.5953152
15.23125 -7.7520871 -0.91497374
22.930664 -7.7526608 -1.2958523
27.594198 6.429038 -1.5168716
20.939444 6.5067625 -1.1739117
15.473574 6.5018601 -0.89856893
14.483701 6.5013938 -0.84994859
11.905918 6.4163852 -0.72407544
11.406446 6.5071225 -0.70304656
10.792402 6.5068307 -0.67468017
9.7003517 6.5063133 -0.62532449
9.2115717 6.5060802 -0.60376197
8.755146 6.5058627 -0.58396643
8.3274412 6.5056577 -0.56574398
6.5080371 6.4876342 -0.49196729
6.2012205 6.4874864 -0.48046836
5.9082518 6.4873462 -0.46976188
5.6278806 6.4872093 -0.45978355
5.3590426 6.4870787 -0.45047691
5.1006932 6.4869542 -0.44179189
4.8520017 6.4868336 -0.43368369
3.938535 6.4863868 -0.40626335
3.5219042 6.4861827 -0.39513755
3.1265917 6.4859872 -0.38547766
2.9358592 6.4858932 -0.38115066
2.3871582 6.485621 -0.36999136
2.2109668 6.4855332 -0.36683533
2.0166991 6.4186654 -0.36019546
1.8428613 6.4015622 -0.35663626
1.3717285 6.5021276 -0.35576454
1.2086523 6.5020456 -0.35406074
1.0470409 6.5019641 -0.3525776
0.72738278 6.5018005 -0.35025617
0.5689258 6.5017209 -0.34941
0.25386718 6.5015588 -0.34833708
-0.059980467 6.5013986 -0.34807739
-0.6899609 6.5010729 -0.3499999
-1.6633105 6.5005651 -0.35923079
-1.831455 6.5004759 -0.36156112
-2.001914 6.5003867 -0.36413839
-2.3507226 6.5002027 -0.37005532
-2.7119141 6.500011 -0.37706077
-2.8978906 6.4999108 -0.38100052
-3.4327343 6.4084215 -0.38920692
-4.107666 6.4918466 -0.41128233
-4.7982516 6.4914746 -0.43216544
-5.0448046 6.4913402 -0.44013435
-6.1342187 6.490747 -0.47812307
-7.0901661 6.4902234 -0.51460218
-7.8154688 6.4898252 -0.54386389
-10.618213 6.4842701 -0.66607952
-11.217442 6.4839377 -0.69365245
-11.86874 6.4835777 -0.72404033
-12.580254 6.483181 -0.75768209
-24.206493 6.4058971 -1.3405502
-28.538887 6.8200974 -1.5709076
-28.671747 6.1246567 -1.5696261
-28.898037 4.7286682 -1.5676858
-28.549639 -6.4994712 -1.5675665
-28.400795 -7.1904864 -1.5684692
-28.237236 -7.8785996 -1.5694773
-18.714102 -7.7523265 -1.0844573
-22.741768 -19.404648 -1.6004994
-21.602251 -20.312542 -1.5874909
-21.024731 -20.747684 -1.5813843
-20.442261 -21.170292 -1.575538
-19.854872 -21.58049 -1.5699518
-18.666328 -22.363964 -1.5595499
-17.924429 -22.55987 -1.5426017
-16.458612 -22.901762 -1.5098711
-14.409169 -23.46203 -1.4740548
-13.082792 -23.806038 -1.4542795
-12.427529 -23.965998 -1.44531
-9.5587988 -23.803032 -1.3732564
-8.3328419 -22.290659 -1.2740324
-6.3269529 -21.56679 -1.2032787
-5.7712107 -21.58728 -1.1963048
-5.2193847 -21.59889 -1.1896135
-3.5867674 -21.577007 -1.1710175
-2.5241797 -21.574194 -1.1628932
-1.9977636 -21.572798 -1.1598806
-1.4741699 -21.576582 -1.1578375
-0.43072265 -21.573967 -1.1552314
1.1317383 -21.570049 -1.1563836
1.654541 -21.572487 -1.1583153
2.1790721 -21.571421 -1.1607435
3.2362597 -21.569267 -1.1676779
3.7702148 -21.568184 -1.1722122
5.4027438 -21.568684 -1.190396
5.9592481 -21.568769 -1.1979901
6.5233006 -21.568861 -1.2063855
7.6757712 -21.565498 -1.2255013
8.8687792 -21.563379 -1.2482678
9.4827633 -21.562286 -1.2610816
10.752099 -21.561689 -1.2899139
12.083271 -21.559687 -1.3231601
13.490635 -21.561493 -1.3616668
14.226103 -21.561958 -1.3829757
14.985312 -21.562433 -1.40579
17.420546 -21.554501 -1.4837295
19.208632 -21.551517 -1.5456161
21.71332 6.5071263 -1.213541
19.947372 6.5062962 -1.1232922
18.424952 6.5055785 -1.0460991
17.091581 6.5026245 -0.9790166
15.923193 6.5020728 -0.92081177
13.956416 6.5011449 -0.82427025
13.119091 6.5007482 -0.78385466
11.679677 6.5072522 -0.71579146
10.45793 6.5066724 -0.65940541
9.9158783 6.5064158 -0.63494259
9.4123726 6.5061755 -0.61257631
8.9428415 6.5059509 -0.59206432
7.2219238 6.4041905 -0.5167653
6.6268945 6.4737878 -0.49597427
5.7439842 6.4872656 -0.4638826
5.4704199 6.4871335 -0.45430061
5.2077928 6.4870067 -0.44536147
4.9551563 6.4868832 -0.43701637
4.7116895 6.4867649 -0.42922309
4.2492285 6.4865394 -0.41514695
3.8151464 6.4863267 -0.4028717
3.6073534 6.4862256 -0.39734235
3.2078612 6.4860277 -0.38738877
3.0153222 6.4859324 -0.38292593
2.8270507 6.4858384 -0.37878218
2.642705 6.4857483 -0.37494385
2.4619336 6.4856591 -0.37139517
2.2844825 6.48557 -0.36812598
2.1099999 6.4854822 -0.36512464
1.5812012 6.4014316 -0.35301176
1.2768457 6.5020809 -0.3547473
1.1146387 6.5019994 -0.35317236
0.79405272 6.5018358 -0.35067222
0.47723633 6.5016732 -0.34901375
0.31978515 6.5015926 -0.34849396
0.0057910155 6.5014329 -0.3480655
-0.15109375 6.5013523 -0.34815422
-0.30815428 6.5012717 -0.34844688
-1.1025293 6.5008578 -0.35300353
-1.2645605 6.5007739 -0.35455254
-1.428125 6.5006871 -0.35632339
-1.7606835 6.5005126 -0.36055487
-1.9301367 6.5004249 -0.36302748
-2.102041 6.5003333 -0.36574936
-3.2002635 6.4997497 -0.38786772
-3.7582421 6.4156628 -0.398067
-4.2361717 6.4917784 -0.41499725
-4.4629979 6.4916553 -0.42175215
-5.1922364 6.4912596 -0.44501653
-6.3086133 6.4906516 -0.48458007
-6.9478221 6.4903011 -0.50901014
-7.6566305 6.489912 -0.53735173
-8.4509954 6.4894748 -0.57044333
-8.766387 6.401505 -0.58113223
-10.960224 6.4840808 -0.6817677
-12.274004 6.4833517 -0.74314851
-16.957817 6.486361 -0.9720158
-19.506977 6.4011497 -1.0991445
-28.616665 6.4162402 -1.5700872
-29.540594 4.409801 -1.5990399
-28.607626 -6.2089782 -1.5672199
-28.465034 -6.901051 -1.5680776
-28.307621 -7.5904479 -1.5690417
-28.135464 -8.2767658 -1.5701119
-18.944981 -7.6243219 -1.0933102
-22.413115 -19.673468 -1.5966128
-21.267569 -20.566763 -1.5839132
-20.68705 -20.994585 -1.5779582
-20.101772 -21.40999 -1.5722626
-19.511744 -21.81308 -1.5668248
-18.917021 -22.203749 -1.5616466
-18.239643 -22.485928 -1.5500811
-17.492022 -22.660364 -1.5325608
-14.690156 -23.385693 -1.4785213
-13.359014 -23.736601 -1.4582214
-12.70167 -23.899843 -1.4490011
-9.8045502 -23.718147 -1.3740094
-7.84166 -21.90769 -1.2457466
-7.1606345 -21.636633 -1.2201477
-6.5676074 -21.576479 -1.2074659
-6.0030274 -21.577271 -1.1990528
-5.4511132 -21.598324 -1.1925656
-1.7588183 -7.7524095 -0.42558759
-3.8115721 -21.577602 -1.1730847
-3.2766795 -21.576185 -1.1683692
-2.7457519 -21.57478 -1.1643627
-0.64911133 -21.574516 -1.1555551
-0.12839843 -21.573208 -1.1549813
0.39213866 -21.571903 -1.1550834
1.9588476 -21.571867 -1.159644
2.4847753 -21.570795 -1.1624701
3.013535 -21.569721 -1.1659935
3.5458398 -21.568638 -1.1702181
4.6241407 -21.568562 -1.1809537
6.8545508 -21.568916 -1.2116293
7.4309473 -21.565931 -1.2211896
8.0176849 -21.564892 -1.23173
10.481308 -21.562094 -1.2835284
11.131699 -21.561117 -1.2990791
11.798496 -21.560116 -1.3157912
14.663955 -21.562231 -1.3960356
17.063368 -21.555099 -1.4718095
17.924843 -21.553661 -1.5008132
27.422655 6.5017076 -1.5088241
24.74205 6.5004492 -1.3695664
17.399296 6.4189782 -0.99287993
16.3958 6.502296 -0.94428891
15.306191 6.5017819 -0.89031065
13.459961 6.5009103 -0.8002528
12.669335 6.500536 -0.76234829
11.868867 6.4562035 -0.72334701
10.697881 6.5067859 -0.67035109
9.6191015 6.5062742 -0.62171674
8.2608986 6.5056262 -0.56294084
7.8627148 6.5054355 -0.54634511
7.4871383 6.5052562 -0.53100109
6.7074022 6.4210935 -0.49710846
6.1530466 6.487462 -0.47868964
4.812705 6.486814 -0.43242636
4.3436618 6.4865856 -0.41794014
4.1204786 6.4864755 -0.41140714
3.6938086 6.4862671 -0.39961463
3.4892578 6.486167 -0.39430535
3.0955272 6.4859715 -0.38475752
2.905498 6.4858789 -0.38048157
2.3585057 6.4856067 -0.36946356
1.3453125 6.5021152 -0.3554737
1.0210742 6.5019507 -0.35235929
0.86090821 6.5018702 -0.3511261
0.70173824 6.5017896 -0.3501049
0.54342771 6.5017076 -0.34929192
0.071562499 6.5014672 -0.34808722
-0.39950195 6.501224 -0.34870949
-0.55721676 6.5011425 -0.34932539
-1.0349804 6.5008945 -0.35241896
-1.1964452 6.5008106 -0.35387611
-1.3593359 6.5007248 -0.35555404
-1.5238965 6.5006371 -0.35745612
-1.690293 6.5005517 -0.35958961
-2.0296483 6.500371 -0.36457708
-2.2030859 6.5002794 -0.36744681
-2.5588086 6.5000916 -0.37398544
-2.7416797 6.4999948 -0.3776764
-2.9282811 6.4998951 -0.38166541
-3.1190038 6.4997935 -0.38596687
-3.2676854 6.4085107 -0.38511786
-3.4649119 6.4084044 -0.39002287
-3.6673338 6.4082971 -0.39528891
-5.0854392 6.4913168 -0.44147155
-5.342998 6.4911766 -0.4501
-5.8903513 6.4908786 -0.46925721
-6.1821971 6.4907203 -0.47989073
-6.4878125 6.4905529 -0.49131072
-6.8084764 6.4903769 -0.50358695
-7.1458106 6.4901938 -0.51680505
-7.5015135 6.4899988 -0.53104788
-7.8776464 6.4897909 -0.54642928
-8.2763863 6.4895716 -0.56306183
-9.0347748 6.405365 -0.59291923
-9.6311617 6.4848156 -0.62160778
-10.151035 6.4845285 -0.6448741
-10.711689 6.4842186 -0.67035514
-11.318799 6.4838815 -0.69835395
-11.979297 6.4835153 -0.72924048
-18.960884 6.4351697 -1.0719795
-20.711185 6.4763389 -1.1617572
-22.608768 6.4752784 -1.2590688
-24.529175 6.3891711 -1.3570341
-28.560469 6.7078419 -1.5706465
-28.913671 4.6156735 -1.567548
-28.526646 -6.6111994 -1.5677049
-27.485615 -7.7843714 -1.5293756
-28.028725 -8.6738424 -1.5707818
-27.833271 -9.3549032 -1.5720196
-18.710312 -7.8362212 -1.0859934
-22.650581 -19.479807 -1.5994101
-22.082642 -19.937988 -1.5928171
-20.931055 -20.816679 -1.5804242
-20.347734 -21.237314 -1.5746194
-19.166874 -22.04141 -1.5637873
-17.80409 -22.588417 -1.539801
-17.062901 -22.756655 -1.5227517
-12.976669 -23.832363 -1.4527932
-10.625957 -23.40189 -1.3759727
-8.177969 -22.138866 -1.2635254
-6.2360544 -21.567211 -1.2019397
-5.6822267 -21.59112 -1.1952814
-1.6563964 -7.8061986 -0.4272238
-4.0372558 -21.578203 -1.1752753
-1.3897558 -21.576372 -1.1575254
-0.34671873 -21.573757 -1.1551393
0.17378905 -21.572451 -1.1549605
1.7390039 -21.572313 -1.1586633
2.7914159 -21.570175 -1.1644334
3.3221581 -21.569094 -1.1683593
4.3964157 -21.568529 -1.1784586
5.4920607 -21.568695 -1.1915678
6.0497165 -21.568783 -1.1992888
7.1887794 -21.56897 -1.2171731
8.3631248 -21.564278 -1.2382649
10.212393 -21.560991 -1.2772475
11.516874 -21.560539 -1.3086424
12.193749 -21.559523 -1.3260537
12.889297 -21.558481 -1.3447195
13.607773 -21.561567 -1.3650017
14.346982 -21.562031 -1.3865527
15.110244 -21.562511 -1.4096199
15.899776 -21.563007 -1.4343373
16.711895 -21.555689 -1.4602277
20.321856 -21.553242 -1.5859222
28.72419 6.5040536 -1.5767392
25.803223 6.5009484 -1.4245944
21.409443 6.5069833 -1.1979635
18.198584 6.5054736 -1.0346745
16.893076 6.5025306 -0.96909118
15.747568 6.5019894 -0.91211116
13.815449 6.5010791 -0.8174333
12.991533 6.5006886 -0.7777403
12.085556 6.416471 -0.73256302
11.573388 6.5072021 -0.71082622
10.945957 6.5069041 -0.68173552
9.8321676 6.5063758 -0.63120031
8.4351759 6.5057092 -0.57030332
8.0268068 6.5055137 -0.55314583
7.1654882 6.4041638 -0.51450765
6.2789941 6.4875231 -0.48335615
5.9825292 6.4873829 -0.47245079
5.6990528 6.4872446 -0.46229041
5.4273338 6.487113 -0.45281669
4.9152536 6.4868641 -0.43572271
4.6731834 6.4867468 -0.42801467
4.439404 6.4866333 -0.42081657
4.2132225 6.4865222 -0.414092
3.993994 6.4864135 -0.40781334
3.7812207 6.4863095 -0.40195251
3.1764843 6.4860129 -0.38664588
11.86666 6.4908557 -1.0300357
11.242743 6.5067906 -0.98921949
10.641542 6.506516 -0.94985908
10.086035 6.5062609 -0.91402388
8.6419239 6.5055957 -0.82374012
8.2211523 6.5054026 -0.79836059
7.8252831 6.5052185 -0.77493834
6.9881735 6.4038925 -0.72182691
6.6759863 6.4208984 -0.70537609
6.4273243 6.4874167 -0.69544226
6.1242185 6.4872742 -0.67938691
5.834609 6.4871387 -0.6644336
5.5573339 6.4870081 -0.65049481
5.2912889 6.4868822 -0.63749176
5.0355368 6.4867611 -0.62535679
4.5514941 6.4865317 -0.6034407
3.6737206 6.4861107 -0.56766081
3.4697168 6.4860129 -0.56016064
3.0769238 6.4858227 -0.54667413
2.7017283 6.4856396 -0.53503805
2.3413575 6.4854636 -0.52508438
2.165957 6.4853768 -0.52069402
1.9728417 6.4185128 -0.51135445
1.799746 6.4014096 -0.50638413
1.6341699 6.401329 -0.50311184
1.4706151 6.4012461 -0.50017071
1.1668164 6.5018954 -0.50304586
0.84547848 6.5017333 -0.49929267
0.68641603 6.5016527 -0.49786863
0.5281738 6.5015736 -0.49674225
0.37054688 6.501493 -0.49590811
0.056416016 6.5013318 -0.49511108
-0.10044922 6.5012512 -0.4951458
-0.25743163 6.5011706 -0.49546751
-0.41470703 6.5010877 -0.49607962
-0.89017576 6.5008421 -0.49967438
-1.2120898 6.5006714 -0.50357497
-1.375127 6.500587 -0.5059908
-1.5398437 6.5004992 -0.50872803
-1.7064452 6.500411 -0.51179433
-1.8751659 6.5003209 -0.51520056
-2.2199414 6.5001364 -0.52307379
-2.5762498 6.4999447 -0.53244901
-2.7594628 6.4998474 -0.53773946
-3.1375682 6.4996424 -0.54961705
-3.4841309 6.4082518 -0.55546957
-4.3888769 6.4915414 -0.5967291
-5.3682518 6.4909997 -0.64145291
-5.6372852 6.4908495 -0.6546917
-6.2109275 6.4905286 -0.68411487
-6.51791 6.4903564 -0.70047027
-7.179111 6.4899864 -0.73698974
-7.9148631 6.4895701 -0.77943891
-8.315937 6.4893432 -0.80328113
-8.6243849 6.4013743 -0.81791329
-9.0791798 6.4051242 -0.84614271
-10.202929 6.4842639 -0.92061442
-10.767744 6.4839416 -0.95718175
-16.569584 6.4862304 -1.3550549
-17.822964 6.4855075 -1.4443327
-20.283178 6.8312511 -1.6298735
-20.425659 6.3348532 -1.6285663
-20.559063 5.836422 -1.6274977
-22.868311 3.5960217 -1.7628894
-22.940067 3.0421741 -1.7622482
-23.046743 1.9309814 -1.7612283
-23.081659 1.3741254 -1.7608496
-23.112627 -0.29860413 -1.7602401
-23.098305 -0.85608274 -1.760213
-23.032856 -1.9694895 -1.7604218
-22.981728 -2.5249295 -1.7606579
-22.654917 -4.7325749 -1.7624792
-20.381783 -6.3594751 -1.6259316
-20.234125 -6.8532891 -1.6268715
-19.905874 -7.8314872 -1.6289886
-19.725389 -8.3154335 -1.6301651
-19.534067 -8.795661 -1.6314199
-19.331944 -9.2719069 -1.6327528
-20.657211 -10.527889 -1.7656271
-20.365395 -11.005988 -1.7628757
-20.064203 -11.477075 -1.7602617
-19.753637 -11.940949 -1.7577875
-17.438091 -14.347798 -1.719686
-17.032042 -14.716933 -1.714168
-16.203251 -15.42698 -1.7037446
-15.780751 -15.767856 -1.6988394
-15.353183 -16.099298 -1.6941373
-14.920586 -16.421299 -1.6896384
-13.143359 -17.614475 -1.6736649
-12.688046 -17.889038 -1.6701748
-12.228701 -18.154133 -1.6668844
-11.55373 -19.077824 -1.6984882
-10.96752 -20.254599 -1.754058
-9.3625002 -20.747587 -1.7334073
-8.7186909 -20.634779 -1.7059109
-8.2347364 -20.880659 -1.7093101
-7.7441797 -21.115757 -1.7127589
-7.2472949 -21.339907 -1.7162553
-6.7442575 -21.552954 -1.7197986
-6.1823535 -21.569805 -1.7087451
-1.6369824 -7.8043256 -0.60725468
-0.81732422 -21.574707 -1.6441561
-0.29641601 -21.573399 -1.6430297
0.22410156 -21.572094 -1.6428676
0.74482423 -21.570787 -1.6436547
1.2663476 -21.569477 -1.6454059
2.3147461 -21.571289 -1.6521497
4.448916 -21.569471 -1.6771529
4.9943066 -21.569561 -1.6860417
5.5458298 -21.569653 -1.6960171
6.670361 -21.569843 -1.7193574
7.8273826 -21.565701 -1.7471188
8.4211521 -21.564648 -1.7629837
9.0261526 -21.56358 -1.7801855
9.6434469 -21.562487 -1.7987841
11.496513 -21.402296 -1.8501039
13.095761 -20.643419 -1.8617014
13.617656 -20.3629 -1.8654939
14.13332 -20.068729 -1.8692448
18.542305 -19.574148 -2.0532513
19.533827 -18.723093 -2.0605299
20.014091 -18.277704 -2.0640633
20.941601 -17.34831 -2.0709033
21.388086 -16.864899 -2.074204
23.432734 -14.27228 -2.0894086
23.80163 -13.720901 -2.092171
15.200302 -7.8110104 -1.3014389
24.822548 -12.007666 -2.09986
25.133154 -11.418134 -2.1022153
24.144434 -8.2679234 -1.9434817
24.555555 -7.105382 -1.9466879
24.738125 -6.5157371 -1.9481286
27.210234 -5.7793036 -2.1183586
27.357246 -5.1240721 -2.1195607
27.486835 -4.4648595 -2.1206393
27.770321 -2.4682605 -2.1231275
27.829374 -1.7980822 -2.1237047
27.870537 -1.1264093 -2.1241548
27.893847 -0.45378235 -2.1244774
27.886738 0.89233947 -2.1247394
27.856201 1.5647924 -2.1246774
27.741737 2.9059472 -2.1241715
27.657784 3.5736194 -2.1237268
27.556084 4.2386813 -2.1231551
25.324961 4.5234532 -1.9591024
25.139023 5.1189208 -1.9536936
24.839121 6.3195252 -1.9518307
22.918535 6.4234362 -1.8125731
19.532373 6.5056982 -1.5677841
16.7754 6.5021214 -1.3701005
14.635468 6.501152 -1.219546
13.731679 6.500741 -1.156968
12.915654 6.500371 -1.1011109
12.017314 6.416173 -1.0374242
11.509999 6.5069127 -1.0068898
10.313788 6.5063658 -0.92864883
9.2878609 6.5058947 -0.86355752
8.8264837 6.505682 -0.83501369
6.7944727 6.4038024 -0.71101707
6.2495899 6.4873328 -0.6859805
5.9544921 6.487196 -0.67057568
5.6721678 6.4870629 -0.65622032
5.4015331 6.4869347 -0.64283437
5.141582 6.4868126 -0.6303435
4.8913965 6.4866929 -0.61868149
4.650166 6.4865794 -0.60779023
4.1916599 6.486361 -0.58811706
3.9730957 6.4862547 -0.57924646
3.7609179 6.4861546 -0.57096577
3.5545995 6.4860535 -0.56324136
2.9662988 6.4857702 -0.54311264
2.4158106 6.4854989 -0.52703798
2.0654101 6.4853258 -0.51831543
1.3829687 6.4313316 -0.50095755
1.2348437 6.5019298 -0.50398892
1.0730078 6.5018492 -0.50182939
0.12221679 6.5013647 -0.49518308
-0.034667969 6.5012865 -0.4950965
-0.19158202 6.5012035 -0.49529746
-0.66435546 6.500958 -0.49764219
-0.82327145 6.500875 -0.49901152
-1.4705566 6.500536 -0.50754118
-1.8041308 6.5003586 -0.5137307
-2.1467676 6.5001755 -0.52130234
-2.3220994 6.5000815 -0.52563518
-2.5004687 6.4999866 -0.53035301
-2.8675487 6.4997873 -0.54100502
-3.0569043 6.4996862 -0.5469774
-3.2260253 6.4504623 -0.54922599
-3.400625 6.408298 -0.55246347
-3.8119433 6.4154892 -0.56828904
-4.2938671 6.4915943 -0.59271032
-4.7591891 6.4913363 -0.6129567
-5.0042677 6.4912009 -0.62416548
-5.2586231 6.4910607 -0.63616931
-7.0348043 6.4900684 -0.72887832
-7.3843651 6.4898705 -0.74865216
-7.7536325 6.4896631 -0.76998883
-8.4716015 6.4218993 -0.8095448
-8.8815432 6.4012289 -0.83371854
-9.4709082 6.4846802 -0.87409681
-12.460449 6.4829736 -1.0696448
-15.033955 6.487113 -1.2469136
-16.088858 6.4865074 -1.3210378
-17.277836 6.4858212 -1.4054055
-20.366425 6.5430775 -1.6290376
-20.504467 6.0457349 -1.6279362
-20.631416 5.5458312 -1.6269134
-20.747162 5.0435596 -1.6259701
-20.851763 4.5391574 -1.625106
-22.74544 4.379498 -1.7639488
-22.911459 3.2745781 -1.7625065
-22.976128 2.7199755 -1.7619158
-23.028456 2.1642737 -1.7614131
-23.105785 -0.62235653 -1.7602137
-23.084364 -1.179621 -1.7602373
-23.050644 -1.7362914 -1.7603488
-22.946396 -2.8469276 -1.7608355
-22.875912 -3.4004028 -1.7612103
-20.14332 -7.1386642 -1.6274536
-19.418007 -9.0727224 -1.6321844
-20.776709 -10.325354 -1.766822
-20.488939 -10.806394 -1.764012
-20.191631 -11.280419 -1.7613407
-19.884991 -11.747338 -1.7588078
-19.56912 -12.207007 -1.7564138
-19.244169 -12.65928 -1.7541593
-17.606646 -14.190233 -1.7220607
-17.202993 -14.563296 -1.7164568
-16.793657 -14.926978 -1.7110572
-14.667138 -16.603905 -1.6871194
-13.782227 -17.208481 -1.6789634
-13.333008 -17.496552 -1.6751876
-11.960088 -18.303663 -1.6650665
-11.666758 -18.8318 -1.6870081
-11.392519 -19.420563 -1.7146211
-11.097646 -20.008791 -1.7424071
-9.7523632 -21.041122 -1.7660873
-8.4384766 -20.778879 -1.7078786
-6.4193749 -21.570482 -1.7138519
-5.3084764 -21.598799 -1.6937608
-1.7110742 -7.7656603 -0.6055637
-4.2114649 -21.578634 -1.674279
-3.6731932 -21.577206 -1.6668067
-3.1393945 -21.575792 -1.6603606
-2.6093946 -21.574389 -1.6549243
-2.0825391 -21.572992 -1.6504816
-1.0360352 -21.575253 -1.6449139
2.6208594 -21.570665 -1.6547489
3.1504784 -21.56959 -1.6600147
3.6837792 -21.568506 -1.6662937
6.431982 -21.569801 -1.7140784
7.0029297 -21.569902 -1.7270148
7.5814939 -21.566137 -1.740853
8.7710152 -21.56403 -1.7728062
10.007978 -21.561842 -1.8102531
10.647968 -21.562693 -1.8313624
11.269355 -21.498369 -1.8484591
11.809677 -21.265162 -1.8523721
12.345058 -21.018002 -1.856253
13.917831 -20.19368 -1.8676766
15.210166 -19.937309 -1.9096712
15.97998 -19.930338 -1.9453747
6.6951561 -7.9494061 -0.79147124
17.611309 -19.914917 -2.0245237
18.329512 -19.745707 -2.0516918
18.834209 -19.332586 -2.055392
19.329315 -18.905956 -2.059027
19.814034 -18.466026 -2.0625908
20.288017 -18.013067 -2.0660813
21.202343 -17.069078 -2.0728302
21.641815 -16.578552 -2.0760827
22.06916 -16.076168 -2.0792513
22.483789 -15.562083 -2.0823319
22.885508 -15.036714 -2.0853229
23.273935 -14.500361 -2.0882213
23.648632 -13.953337 -2.0910244
24.009434 -13.396076 -2.0937307
24.355927 -12.828915 -2.0963368
24.687735 -12.252184 -2.0988405
25.306503 -11.071816 -2.1035335
23.816132 -9.0778475 -1.9409491
24.270067 -7.9328189 -1.9444567
24.663456 -6.7636027 -1.9475378
24.83704 -6.1710029 -1.948915
27.297655 -5.3993258 -2.1190712
27.434628 -4.7417393 -2.1202021
27.5541 -4.0804291 -2.1212089
27.740253 -2.7487187 -2.1228476
27.871201 1.2829279 -2.1247191
27.83036 1.9548187 -2.1245835
27.771708 2.6253319 -2.1243203
27.600809 3.9601512 -2.1234097
25.193817 4.8651624 -1.954026
24.907295 6.0692515 -1.9522594
18.655264 6.5053 -1.5045515
15.044316 6.5013375 -1.2480683
14.099111 6.5009069 -1.1823277
11.787002 6.5070395 -1.0253104
10.548965 6.5064745 -0.94384903
10.000273 6.5062232 -0.90854055
9.4908981 6.5059886 -0.87626958
8.1556444 6.5053711 -0.79445481
7.7635546 6.5051904 -0.77132773
7.3934374 6.5050182 -0.74993438
6.9337597 6.4038672 -0.71877503
6.3774509 6.4873939 -0.69277221
6.0766015 6.4872522 -0.67690182
5.2493553 6.4868627 -0.63547665
4.9951758 6.486742 -0.62347466
4.7502832 6.4866257 -0.61226791
4.0639353 6.4862986 -0.5828914
3.84916 6.486196 -0.57436842
3.6404295 6.4860959 -0.56641591
3.2393064 6.4859009 -0.55209321
2.4908299 6.4855371 -0.52906251
2.3128514 6.4854488 -0.52435058
2.1379101 6.4853625 -0.52002037
1.7728808 6.4013963 -0.50583267
1.303125 6.5019641 -0.50498766
0.97963864 6.5018015 -0.50071669
0.81974608 6.50172 -0.49904212
0.66082031 6.5016394 -0.49766693
0.50268555 6.5015612 -0.49658766
0.34514648 6.5014806 -0.49580008
0.18801758 6.5013986 -0.49530485
0.031103514 6.501318 -0.49509764
-0.12577148 6.5012379 -0.49517882
-0.28278321 6.5011559 -0.49554777
-0.44012696 6.5010753 -0.49620613
-0.59797847 6.5009937 -0.49715704
-1.0764941 6.5007434 -0.50178969
-1.2383008 6.500658 -0.50394189
-1.4016016 6.5005722 -0.50641072
-1.7335156 6.5003967 -0.51232213
-1.9025977 6.5003061 -0.51578271
-2.425293 6.5000267 -0.52832747
-2.605576 6.499929 -0.53327459
-2.7893651 6.4998312 -0.53863281
-2.9770019 6.4997287 -0.54441857
-3.3179979 6.4083433 -0.54954535
-3.7246776 6.4155369 -0.56492752
-4.2001171 6.4916453 -0.58880502
-4.4257812 6.4915209 -0.59830624
-4.6589942 6.4913926 -0.60847986
-4.9004197 6.4912596 -0.61937195
-5.1507812 6.4911203 -0.63103527
-5.4109278 6.4909763 -0.64352804
-7.2354879 6.4899535 -0.74017972
-7.9779687 6.4895358 -0.78316009
-9.7612791 6.4845152 -0.89242321
-10.291133 6.4842138 -0.92628986
-10.863144 6.4838867 -0.96341109
-11.4833 6.4835339 -1.0042411
-12.15875 6.4831467 -1.0493232
-12.898164 6.4827232 -1.0993137
-13.711992 6.4822569 -1.1550101
-14.625917 6.4873486 -1.2184498
-15.631611 6.4867697 -1.288818
-16.761269 6.4861202 -1.3686562
-20.306566 6.7512217 -1.6296279
-20.579502 5.7557359 -1.627333
-22.798685 4.0593662 -1.7634943
-22.950497 2.9526782 -1.762153
-23.008026 2.3974078 -1.7616131
-23.053226 1.8411754 -1.7611612
-23.025444 -2.0591872 -1.7604537
-22.637617 -4.8210297 -1.7625822
-22.397324 -5.9122791 -1.7640449
-20.048822 -7.4229245 -1.6280624
-19.000235 -7.5607567 -1.5572722
-19.6952 -8.3931866 -1.6303626
-19.298321 -9.3483963 -1.6329752
-19.381538 -12.470559 -1.7550875
-17.774151 -14.030998 -1.7244718
-16.553427 -15.133862 -1.7080152
-16.13542 -15.482636 -1.7029392
-15.71209 -15.821984 -1.6980669
-15.283691 -16.151896 -1.6933978
-14.412109 -16.783361 -1.6846678
-13.521885 -17.376909 -1.6767465
-13.070166 -17.659435 -1.6730878
-11.509462 -19.172806 -1.7029417
-11.225126 -19.764578 -1.7309384
-10.915586 -20.347488 -1.7584054
-10.146074 -21.322495 -1.7982297
-8.1560059 -20.919306 -1.7098634
-7.6644335 -21.152666 -1.7133198
-7.1665134 -21.375029 -1.7168242
-6.6606641 -21.5802 -1.7198941
-6.0926561 -21.573677 -1.7071576
-5.5404296 -21.597515 -1.6979673
-1.7843847 -7.7255869 -0.60381466
-1.6083593 -7.8192625 -0.60792595
-3.8983202 -21.577805 -1.6698123
-3.3627148 -21.576385 -1.6629406
-2.8311913 -21.574978 -1.6570846
-2.3031151 -21.573578 -1.652228
-1.2549511 -21.575802 -1.6458364
-0.73322266 -21.574497 -1.6439099
0.82890624 -21.570576 -1.6438736
1.3508886 -21.57325 -1.6460829
3.9954491 -21.567871 -1.670401
4.5365429 -21.569485 -1.678514
7.3373632 -21.56657 -1.7348065
8.5179787 -21.564478 -1.7656695
9.7442865 -21.562309 -1.801929
12.121191 -21.123325 -1.8546298
13.18039 -20.599096 -1.8623163
13.701299 -20.316357 -1.866102
14.215869 -20.019989 -1.8698455
16.440468 -19.926071 -1.9672465
18.110352 -19.910034 -2.0496218
19.122959 -19.086452 -2.0575113
20.090624 -18.204628 -2.0646269
20.558193 -17.744152 -2.068073
21.014473 -17.27117 -2.0714417
21.459042 -16.785727 -2.0747292
22.311464 -15.779039 -2.0810509
23.112705 -14.726569 -2.0870175
23.859892 -13.630968 -2.092608
24.212334 -13.06791 -2.0952559
15.19831 -7.7353239 -1.2986779
24.873642 -11.913121 -2.1002469
25.181757 -11.322133 -2.1025848
25.474628 -10.722739 -2.1048152
23.713427 -9.314539 -1.9401606
23.954004 -8.7480993 -1.9420103
22.926094 -7.7511144 -1.8429562
24.586044 -7.0105591 -1.9469275
25.563036 -5.9724283 -1.9991235
27.235086 -5.6738834 -2.1185606
27.379345 -5.0179558 -2.1197431
27.506151 -4.3581758 -2.1208019
27.875498 -1.0179187 -2.1242154
27.895937 -0.34521177 -2.1245177
27.898397 0.32793638 -2.1246915
27.882998 1.0008776 -2.1247377
27.798475 2.3443506 -2.1244464
27.729355 3.013844 -2.1241081
27.642509 3.6811583 -2.1236429
27.538008 4.3457212 -2.1230507
25.245722 4.6108046 -1.9543376
25.117157 5.2163978 -1.9535601
24.972616 5.8182044 -1.9526676
19.28124 6.5055847 -1.5496463
14.483007 6.5010839 -1.2089416
13.594423 6.5006785 -1.1475296
12.79124 6.5003138 -1.0926552
11.905419 6.4161215 -1.0299102
11.405986 6.5068665 -0.99999982
9.2112598 6.5058594 -0.85878468
8.7548733 6.5056491 -0.83062881
8.327178 6.5054502 -0.80471128
7.9251561 6.5052648 -0.78080457
7.0761228 6.403933 -0.72678542
5.9080954 6.487174 -0.6681909
5.6277246 6.487042 -0.65399766
5.3589063 6.4869151 -0.64075989
4.6120114 6.4865623 -0.60610116
4.3802638 6.4864511 -0.59604186
4.1559277 6.4863424 -0.58664364
3.1265233 6.485847 -0.54830647
2.9358008 6.485754 -0.54215056
2.7492285 6.4856639 -0.53644174
2.5664258 6.4855738 -0.53115654
2.3870995 6.4854846 -0.52627873
2.2109179 6.4853992 -0.52179033
1.6766796 6.4013486 -0.50392377
1.2086231 6.5019164 -0.50361943
1.0470313 6.5018358 -0.50151008
0.727373 6.5016732 -0.49820769
0.56891602 6.5015926 -0.49700424
0.41115233 6.5015149 -0.49609533
-0.21692382 6.5011911 -0.49535736
-0.37410155 6.5011096 -0.49589401
-0.53170896 6.501029 -0.4967227
-0.68995118 6.500946 -0.49784368
-1.3329296 6.5006089 -0.50533742
-1.6632812 6.5004344 -0.51097238
-1.8314258 6.5003443 -0.51428938
-2.1748536 6.5001612 -0.52197546
-2.7118456 6.4998717 -0.53633511
-2.8978319 6.4997716 -0.54193884
-3.2362304 6.4083872 -0.54671317
-3.4326658 6.4082799 -0.55361027
-3.6342187 6.4081702 -0.56101853
-4.1075683 6.4916954 -0.58500934
-4.3302832 6.4915733 -0.59424353
-4.7981443 6.4913158 -0.61471367
-5.3006053 6.4910364 -0.63818413
-5.5668454 6.4908895 -0.65118897
-5.8442774 6.4907346 -0.66512877
-6.1340623 6.4905725 -0.68008268
-7.8152146 6.4896264 -0.77358878
-8.5132513 6.4014368 -0.8111372
-8.9604006 6.4051914 -0.83877403
-10.06416 6.4843421 -0.91171712
-10.617812 6.4840269 -0.94742095
-11.217002 6.483685 -0.98663956
-11.868271 6.4833117 -1.0298629
-16.271034 6.4864025 -1.3339136
-20.389473 6.4630003 -1.6288543
-20.525726 5.9652195 -1.6277658
-20.650835 5.4649267 -1.626756
-22.847813 3.7386584 -1.7630688
-22.92272 3.185147 -1.7624054
-23.035757 2.0744805 -1.7613401
-23.113129 0.40296081 -1.7603995
-23.114336 -0.15478149 -1.7602612
-23.044071 -1.8260547 -1.760375
-22.996107 -2.3817744 -1.7605883
-22.863417 -3.4896059 -1.7612787
-22.778711 -4.0412388 -1.7617556
-22.681845 -4.5910859 -1.7623198
-22.451714 -5.6842985 -1.7637094
-21.679111 -6.0487809 -1.7139888
-18.680483 -7.7384014 -1.5398022
-19.584394 -8.6721258 -1.6310891
-20.730938 -10.403442 -1.7663592
-20.142813 -11.356236 -1.7609226
-19.517294 -12.280466 -1.7560409
-18.855669 -13.175083 -1.7517157
-18.511665 -13.610945 -1.7497622
-16.311338 -15.337509 -1.7050434
-15.890204 -15.68084 -1.7000853
-15.463964 -16.014719 -1.6953306
-14.596464 -16.654123 -1.6864305
-14.155518 -16.959597 -1.682285
-11.885849 -18.345612 -1.6646614
-11.346416 -19.515629 -1.7191033
-10.340019 -21.175253 -1.7945415
-8.3601751 -20.818262 -1.7084286
-7.8713379 -21.056156 -1.7118646
-7.3760352 -21.28315 -1.7153491
-6.8745704 -21.499043 -1.7188803
-5.7712693 -21.587549 -1.7016901
-5.2194138 -21.599016 -1.6921697
-1.6826172 -7.7805161 -0.60620594
-4.124248 -21.578403 -1.6730012
-3.5867577 -21.576977 -1.6656976
0.089863278 -21.572432 -1.6428192
0.61045897 -21.571125 -1.6433634
1.1317285 -21.569817 -1.6448631
1.6545606 -21.572632 -1.6476437
4.3087111 -21.567236 -1.6748712
7.0958886 -21.569916 -1.7292082
8.2669334 -21.564922 -1.7587676
9.4829683 -21.562773 -1.7938496
10.110156 -21.561663 -1.8135229
11.356904 -21.461674 -1.849093
12.430996 -20.97682 -1.8568765
12.960166 -20.713564 -1.8607167
14.589043 -19.947447 -1.8819799
15.33252 -19.936214 -1.9152701
16.107002 -19.929171 -1.9513665
6.6894336 -7.8801317 -0.78712934
19.408203 -18.835842 -2.0596066
19.891201 -18.393806 -2.0631588
20.363476 -17.93882 -2.0666373
20.82457 -17.470991 -2.0700388
21.71163 -16.498281 -2.0765998
22.136913 -15.994014 -2.0797544
22.54952 -15.478075 -2.0828209
22.949043 -14.950881 -2.0857966
23.335331 -14.412798 -2.0886803
23.707811 -13.864128 -2.0914679
24.066309 -13.305203 -2.0941579
15.203476 -7.9326382 -1.3059127
25.637499 -10.370933 -2.1060603
24.086952 -8.4160938 -1.9430368
24.304052 -7.8393197 -1.9447213
24.505928 -7.256608 -1.9462984
24.692509 -6.6683073 -1.9477675
27.169472 -5.9476018 -2.1180284
27.320946 -5.2935147 -2.119262
27.455097 -4.6352534 -2.1203732
27.571777 -3.973434 -2.1213601
27.81583 -1.9711053 -2.1235678
27.861641 -1.2998065 -2.1240511
27.899511 0.045711059 -2.124634
27.891649 0.71877319 -2.1247342
27.865858 1.3914587 -2.124706
27.82209 2.0631287 -2.1245496
27.760546 2.7333989 -2.1242657
27.583984 4.0674415 -2.1233144
26.164141 4.5054698 -2.0218019
25.173018 4.9629235 -1.9539002
24.712353 6.7605624 -1.9510689
19.946102 6.5058846 -1.5977118
18.423866 6.5051975 -1.4879193
17.090645 6.502264 -1.3925145
15.922373 6.5017371 -1.3097275
13.955771 6.5008435 -1.1724194
13.118515 6.5004625 -1.1149337
11.043301 6.5066991 -0.97609973
9.9155273 6.5061827 -0.90313518
9.4120407 6.5059519 -0.87132299
7.7024021 6.5051622 -0.76776218
7.2217088 6.4040012 -0.73504472
6.8797946 6.4038415 -0.71576154
6.029326 6.4872313 -0.6744436
4.4764843 6.4864964 -0.60017705
4.2491212 6.4863877 -0.59050667
4.0288377 6.4862814 -0.58147633
3.8150682 6.4861789 -0.57304692
3.607285 6.4860787 -0.56518257
3.4050097 6.4859815 -0.55785179
3.2078028 6.4858861 -0.55102468
3.0152636 6.4857922 -0.54467595
2.826992 6.4857016 -0.53878272
2.4618945 6.4855223 -0.52827603
2.2844336 6.4854355 -0.52362508
2.1099608 6.4853492 -0.51935637
1.9182714 6.4184852 -0.51014626
1.7460742 6.4013844 -0.50529128
1.5811719 6.4013009 -0.50212759
1.4182227 6.4012203 -0.49929082
1.2768164 6.5019507 -0.50459629
1.1146191 6.5018702 -0.50235707
0.0058007813 6.5013061 -0.49509117
-0.15109375 6.5012255 -0.49521789
-0.30814451 6.5011435 -0.49563468
-0.62350583 6.5009799 -0.49733824
-0.78218746 6.5008969 -0.49863014
-1.4281055 6.5005579 -0.5068385
-1.5933985 6.5004697 -0.50968164
-1.9300976 6.5002918 -0.51637405
-2.1020019 6.5002003 -0.52024496
-2.276582 6.5001059 -0.52448118
-3.0076659 6.4997129 -0.5453946
-3.2001953 6.499608 -0.55170584
-3.5490429 6.4082174 -0.55784702
-3.7581542 6.4155188 -0.566212
-4.0162206 6.4917469 -0.58132309
-4.2360544 6.4916258 -0.5902952
-4.4628906 6.4914999 -0.59990162
-4.6973829 6.4913707 -0.6101886
-5.1921091 6.4910975 -0.63299495
-5.4538965 6.4909506 -0.64562577
-5.7265234 6.4907994 -0.65916455
-6.0109668 6.4906406 -0.67368305
-6.3084373 6.4904747 -0.68926632
-6.6201563 6.4902987 -0.70600778
-6.9476171 6.4901147 -0.72401565
-7.2923923 6.4899216 -0.74340928
-7.6564159 6.4897165 -0.7643283
-8.0416794 6.4894996 -0.78692716
-8.4507132 6.4892688 -0.81139493
-8.7660933 6.4012928 -0.82660252
-9.8441401 6.4844675 -0.89768434
-10.380468 6.4841623 -0.93205088
-12.273477 6.4830809 -1.0570395
-13.024159 6.4826512 -1.1078937
-13.717656 6.4197059 -1.153374
-18.263603 6.4852548 -1.4759071
-20.329662 6.6710815 -1.6293845
-20.469952 6.1742835 -1.6282126
-20.825834 4.6694336 -1.6253215
-22.161602 4.4102879 -1.7207648
-23.091099 -1.0359368 -1.7602226
-23.060537 -1.5928034 -1.7603116
-23.01771 -2.1488628 -1.7604883
-22.815737 -3.8101621 -1.7615447
-22.620029 -4.9094286 -1.7626873
-22.503984 -5.4558496 -1.7633892
-22.375805 -5.9998722 -1.7641783
-20.603926 -6.061182 -1.6355315
-20.335318 -6.5191832 -1.6262263
-18.910673 -7.6105156 -1.5523471
-19.664789 -8.4708433 -1.6305618
-19.264423 -9.4247532 -1.6331996
-19.964991 -11.627583 -1.7594479
-18.656996 -13.429131 -1.7505643
-17.307686 -14.467983 -1.7178822
-16.89978 -14.83405 -1.7124308
-16.486309 -15.190759 -1.7071829
-16.06748 -15.538027 -1.7021393
-15.64332 -15.875894 -1.697299
-15.214111 -16.20425 -1.6926632
-14.779912 -16.523193 -1.6882297
-13.897363 -17.132643 -1.67997
-12.996865 -17.70414 -1.6725165
-12.540235 -17.97566 -1.6690905
-11.464902 -19.268179 -1.7074361
-11.176601 -19.858801 -1.7353665
-10.515713 -20.993744 -1.7880836
-10.029795 -21.29143 -1.7923017
-8.5632124 -20.715275 -1.7070025
-7.5844922 -21.189274 -1.7138822
-7.0855761 -21.409914 -1.7173941
-1.7562402 -7.7410722 -0.60448557
-4.3511133 -21.579004 -1.6763753
-3.2766795 -21.576157 -1.6619282
