# .PCD v0.7 - Point Cloud Data file format
VERSION 0.7
FIELDS x y z
SIZE 4 4 4
TYPE F F F
COUNT 1 1 1
WIDTH 1504
HEIGHT 1
VIEWPOINT 0 0 0 1 0 0 0
POINTS 1504
DATA ascii
7.5388379 -5.3189173 -1.9774058
7.6687107 -5.1379538 -1.9783654
7.7941113 -4.9537158 -1.9792944
7.9149704 -4.7663541 -1.9801919
8.0312109 -4.5759807 -1.9810574
8.249424 -4.1866007 -1.9826897
8.3512793 -3.9878664 -1.9834558
8.7086525 -3.168721 -1.9861712
9.0384665 -2.1001112 -1.9887499
9.0883694 -1.8817788 -1.9891531
9.1327925 -1.6622131 -1.989518
9.1717672 -1.4415911 -1.9898447
9.2051849 -1.2200298 -1.9901325
9.2554779 -0.77465087 -1.990591
9.2834768 -0.32725462 -1.9908929
9.2891407 0.12104797 -1.9910368
9.2835646 0.34516418 -1.9910496
9.2724123 0.56908876 -1.9910227
9.2054882 1.238133 -1.9907053
9.0887499 1.9001257 -1.9900341
9.038867 2.1185791 -1.9897323
8.9228907 2.5512798 -1.9890133
8.7855568 2.9775145 -1.9881419
8.7090034 3.1878576 -1.9876498
8.6272459 3.3961906 -1.9871205
8.448369 3.8062286 -1.9859518
8.3513765 4.007709 -1.9853131
7.8043747 4.4666753 -1.9272259
7.4052148 4.478858 -1.8548135
7.0610743 4.7505693 -1.8239644
6.8174996 5.081131 -1.8223199
6.4225974 5.5527945 -1.8196392
6.2834764 5.7031803 -1.818691
5.994463 5.9931927 -1.8167161
5.6918554 6.2682562 -1.8146417
5.5356445 6.4000068 -1.8135685
5.0490427 6.7714138 -1.8102934
4.3655567 6.4858279 -1.6756076
4.1416407 6.4857364 -1.6492743
3.9245508 6.4856462 -1.6246902
3.7137108 6.4855585 -1.6017452
3.5086033 6.4854703 -1.5803469
3.3088086 6.4853849 -1.5604103
3.1138866 6.4853005 -1.5418572
2.7370703 6.485136 -1.5086247
1.8556445 6.4847379 -1.4456022
1.6874316 6.4846597 -1.436085
1.3431348 6.4177361 -1.4052584
1.0200585 6.4005671 -1.3890899
0.8622461 6.4004898 -1.3841531
0.71657223 6.5012078 -1.4017862
0.24310546 6.5009723 -1.3942715
0.086103514 6.5008917 -1.3934028
-0.070781246 6.5008097 -1.3933454
-0.38499999 6.5006475 -1.3956693
-0.54267579 6.5005631 -1.3980566
-0.70098633 6.5004787 -1.4012696
-0.86012691 6.5003934 -1.4053169
-1.0202832 6.500308 -1.4102113
-1.5088378 6.5000396 -1.4301374
-1.6750878 6.4999466 -1.4385942
-2.0140722 6.4997549 -1.4583844
-2.3633301 6.4995551 -1.4822243
-2.5425 6.4994512 -1.4957608
-2.7250488 6.4993448 -1.5104343
-2.9113476 6.4992352 -1.5262955
-3.1017187 6.4991217 -1.5434023
-4.5242968 6.7559528 -1.7426444
-4.682754 6.6401715 -1.7414279
-5.1409473 6.2720208 -1.7380967
-5.8413281 5.5911088 -1.7329897
-6.3395896 4.991508 -1.7293295
-6.455039 4.8346853 -1.7284775
-6.5666699 4.6752839 -1.7276516
-6.9367771 4.4506426 -1.7664015
-7.9468455 3.6028192 -1.8700536
-8.1061525 3.2131317 -1.8688376
-8.1788673 3.0156896 -1.868278
-8.3689547 2.414248 -1.8667949
-8.4228516 2.211071 -1.8663671
-8.6450977 0.97159725 -1.8645087
-8.6651564 0.76262754 -1.8643185
-8.6959276 0.13379394 -1.863955
-8.6963768 -0.076077268 -1.8639032
-8.649209 -0.9139685 -1.8640418
-8.5625782 -1.5376135 -1.8645092
-8.4324312 -2.1538706 -1.8652858
-8.3794823 -2.3571367 -1.8656127
-8.2593355 -2.7598 -1.8663682
-8.1922169 -2.9589701 -1.8667963
-8.0440235 -3.3524997 -1.8677518
-7.6929297 -4.1172667 -1.8700552
-7.3830762 -4.6680994 -1.8721167
-7.2711816 -4.8468356 -1.8728659
-7.1550684 -5.0229845 -1.8736454
-6.9104686 -5.3670654 -1.8752939
-6.7820992 -5.5348239 -1.8761621
-6.3643847 -6.011333 -1.8762921
-5.7917771 -6.0251389 -1.7911909
-5.5239844 -6.0313478 -1.7528864
-5.1731248 -6.2265277 -1.7349669
-4.7176657 -6.5963058 -1.7380993
-4.5599704 -6.712431 -1.7391865
-4.3994923 -6.8248606 -1.7402945
-4.2362595 -6.9335175 -1.7414227
-4.0703712 -7.0383658 -1.7425704
-3.7310643 -7.2363067 -1.7449222
-3.5578125 -7.3292894 -1.7461247
-3.0247655 -7.583508 -1.7498323
-2.8429198 -7.6598382 -1.7510995
-2.2508886 -7.7405124 -1.7276847
-1.7155957 -8.0258522 -1.7589803
-1.3284179 -8.1117792 -1.7616961
-0.73990232 -8.2058496 -1.7658329
-0.54211915 -8.2277956 -1.7672253
-0.34365234 -8.2449989 -1.7686236
-0.1447168 -8.2574434 -1.7700266
0.054609373 -8.2650881 -1.7714332
0.2542578 -8.2679462 -1.7728432
0.65390623 -8.2591915 -1.7756692
0.8536914 -8.2475729 -1.7770838
1.0533007 -8.2311096 -1.7784981
1.2526171 -8.2098227 -1.7799113
1.4515234 -8.1836843 -1.781323
1.649873 -8.1527205 -1.7827318
2.0444922 -8.0763216 -1.7855378
2.2405663 -8.0309057 -1.7869339
2.435586 -7.9807029 -1.7883235
2.629492 -7.9257336 -1.7897066
2.8221581 -7.8660059 -1.7910818
3.2032323 -7.7324357 -1.7938055
4.4804587 -7.1200042 -1.8029728
4.8254199 -6.9050512 -1.8054603
4.9940138 -6.7911839 -1.8066779
5.4829001 -6.4247007 -1.8102175
5.6398826 -6.2944736 -1.811357
6.222568 -6.0072389 -1.8536996
6.8373241 -5.9910998 -1.9483588
7.2158594 -5.7316275 -1.9750277
7.3558984 -5.5587335 -1.9760574
7.7501268 -5.0194573 -1.9789683
7.8726072 -4.8332038 -1.979877
7.9904981 -4.6438675 -1.980754
8.2120895 -4.2565012 -1.9824096
8.3156834 -4.0586777 -1.9831878
8.5966797 -3.4502175 -1.9853146
8.8317776 -2.8219109 -1.9871217
8.8996773 -2.6086545 -1.987651
8.9622555 -2.393739 -1.9881433
9.0194626 -2.1772768 -1.9885976
9.1939745 -1.2987415 -1.9900347
9.2669525 -0.63049132 -1.9907057
9.2877636 -0.18268676 -1.9909567
9.2897654 0.041484375 -1.9910229
9.2622557 0.71335083 -1.9909844
9.2419138 0.93661922 -1.9908926
9.1845608 1.381206 -1.9905906
9.1475878 1.6022815 -1.9903808
9.1051264 1.8223199 -1.9901317
9.0038376 2.2588074 -1.9895175
8.880908 2.6895361 -1.9887488
8.7367678 3.1134522 -1.9878286
8.5717773 3.5294402 -1.9867595
8.1810541 4.33357 -1.9841855
7.9535155 4.4620709 -1.9545529
7.5434179 4.4746637 -1.879764
7.2167187 4.5198002 -1.8250107
7.1025681 4.6906538 -1.8242438
6.8618846 5.0233817 -1.8226204
6.3332615 5.6502275 -1.8190304
5.8983006 6.0835905 -1.8160577
5.7464843 6.220572 -1.8150167
5.1079493 6.7293377 -1.8106741
4.941113 6.8465447 -1.809594
4.771543 6.9595428 -1.8084909
4.220293 6.4857693 -1.6584141
3.7878418 6.485589 -1.609705
2.8027539 6.4851651 -1.5141603
2.4385157 6.4850039 -1.484889
2.2614453 6.4849234 -1.4719436
2.0873144 6.4848456 -1.4600648
1.9158789 6.484766 -1.4492117
1.7468749 6.4846878 -1.4393523
1.4151758 6.4845319 -1.4224855
1.2391698 6.4176874 -1.4008535
1.0763574 6.4005938 -1.3910458
0.91810542 6.400517 -1.3858089
0.6142773 6.5011563 -1.3995423
0.14178711 6.5009198 -1.393618
-0.17204101 6.5007572 -1.3937386
-1.2864844 6.5001626 -1.4201465
-1.4502832 6.500071 -1.4273592
-1.615869 6.4999785 -1.435487
-1.7834375 6.4998856 -1.4445508
-1.9532324 6.4997892 -1.454585
-2.3005273 6.4995914 -1.4776863
-2.8448143 6.4992752 -1.520528
-3.4247167 6.49893 -1.574422
-3.6276562 6.4988065 -1.5951408
-4.4673924 6.7961454 -1.7430803
-4.783535 6.5636711 -1.74069
-5.6597657 5.7835073 -1.7343173
-5.9255662 5.4975286 -1.7323728
-6.0532227 5.3500481 -1.7314363
-6.1773243 5.1996698 -1.7305245
-7.1669431 4.4423652 -1.807182
-7.5374899 4.4238811 -1.8731371
-7.7359667 4.0518489 -1.8716482
-7.8285837 3.8625383 -1.8709499
-8.2233105 2.8874524 -1.8679342
-8.2883692 2.6874378 -1.8674279
-8.5422945 1.6683929 -1.865397
-8.6101751 1.2539105 -1.8648211
-8.636816 1.0456439 -1.8645846
-8.6586132 0.83684325 -1.864382
-8.6755075 0.62758911 -1.8642142
-8.6875095 0.41803282 -1.8640807
-8.6945801 0.20827392 -1.8639818
-8.6967869 -0.0016131592 -1.8639175
-8.673955 -0.63068968 -1.8639327
-8.6565428 -0.8398608 -1.8640072
-8.6342773 -1.0485632 -1.8641162
-8.5382519 -1.6708673 -1.8646502
-8.4965525 -1.8766589 -1.8648971
-8.4500875 -2.0814726 -1.8651779
-8.3988085 -2.2851522 -1.8654928
-8.1464453 -3.0866416 -1.8670901
-7.3113766 -4.7837133 -1.8725964
-7.1967773 -4.9607801 -1.8733652
-7.0779781 -5.1351938 -1.8741641
-6.5622654 -5.8042674 -1.8776529
-6.1739159 -6.0160022 -1.8475238
-5.6177344 -6.0291934 -1.7661792
-5.0774903 -6.3087053 -1.7356235
-4.7729492 -6.5542374 -1.7377185
-4.456748 -6.7853808 -1.7398992
-4.1295605 -7.0016012 -1.7421608
-3.9620214 -7.1039376 -1.7433209
-3.6195898 -7.2967529 -1.7456959
-3.444834 -7.3870983 -1.7469096
-3.2678905 -7.4733348 -1.7481399
-2.7246094 -7.7067957 -1.7519245
-2.4860351 -7.6116195 -1.7161478
-1.0066992 -8.1685877 -1.7639563
-0.80994141 -8.1969213 -1.7653401
-0.6123535 -8.2205524 -1.7667308
-0.016152343 -8.2629242 -1.7709337
0.58297849 -8.2621498 -1.7751675
0.78281248 -8.2522488 -1.7765819
1.1819237 -8.2179317 -1.7794099
1.579541 -8.1642637 -1.782232
1.7774999 -8.130188 -1.7836387
2.1710937 -8.0475664 -1.7864392
2.3664942 -7.9990635 -1.7878311
2.5608203 -7.9457779 -1.7892165
2.7539258 -7.8877468 -1.7905945
2.945703 -7.8249822 -1.7919644
3.3248241 -7.6853485 -1.7946757
3.5119336 -7.6085606 -1.7960156
3.8806736 -7.4411936 -1.7986599
4.0620313 -7.3507066 -1.7999624
4.24125 -7.2557287 -1.8012509
4.418242 -7.1563272 -1.8025247
4.5928516 -7.0525475 -1.8037826
4.7649512 -6.9444461 -1.8050238
4.9344821 -6.8320622 -1.8062479
5.1013184 -6.715488 -1.8074539
5.2653317 -6.5947666 -1.8086408
5.426455 -6.4699554 -1.8098083
5.5845313 -6.3411441 -1.8109553
5.8912206 -6.0717816 -1.8131847
6.1195211 -6.0098705 -1.8382702
6.4143357 -6.0022826 -1.8827581
6.7237301 -5.9941349 -1.9305471
7.0195212 -5.9601097 -1.9735873
7.3067088 -5.6205006 -1.9756955
7.443984 -5.4453254 -1.9767061
7.9492087 -4.7113986 -1.9804466
8.064043 -4.5201654 -1.9813025
8.1741791 -4.3260431 -1.9821258
8.2794924 -4.12918 -1.9829156
8.4753714 -3.7276919 -1.984393
8.5658102 -3.5232971 -1.9850796
8.7313862 -3.1079106 -1.9863461
8.8064156 -2.8971436 -1.986925
8.8761911 -2.6845345 -1.9874674
8.9406538 -2.4701958 -1.9879729
8.9997854 -2.2542477 -1.9884409
9.0535154 -2.0368686 -1.9888709
9.1446772 -1.5982758 -1.9896168
9.1820412 -1.3773681 -1.9899322
9.2609377 -0.70981812 -1.9906447
9.2856836 -0.26222229 -1.9909234
9.2809076 0.41018736 -1.991046
9.2681341 0.63402402 -1.9910077
9.2497559 0.85744691 -1.9909297
9.2258396 1.0803326 -1.9908123
9.1963568 1.3025556 -1.9906558
9.1613474 1.5239367 -1.9904597
9.1208401 1.7443529 -1.9902246
8.9042873 2.6135705 -1.9888965
8.8367376 2.8270824 -1.9884685
8.7638769 3.0387731 -1.9880029
8.5141897 3.6617742 -1.9863833
8.4207325 3.8649626 -1.9857701
8.3222952 4.065722 -1.9851211
8.1069822 4.4573112 -1.9828089
7.6853614 4.4703279 -1.9055247
7.3003416 4.4855852 -1.8363748
7.1434665 4.6303511 -1.8245187
7.0267382 4.7993097 -1.823733
6.6518946 5.2876606 -1.8211977
6.5191212 5.4439468 -1.8202959
6.3826075 5.5968132 -1.8193667
6.2424216 5.7461734 -1.8184109
6.0986328 5.8919587 -1.8174288
5.9513865 6.0340557 -1.8164213
5.8007617 6.1723967 -1.815389
5.6468163 6.3069 -1.8143325
5.4897265 6.4375043 -1.8132528
4.8320312 6.9199295 -1.808885
4.2998338 6.4858027 -1.6677785
4.0779395 6.4857097 -1.6419626
3.2517481 6.4853616 -1.5548853
2.8689063 6.4851947 -1.5198476
2.6836913 6.4851127 -1.5042095
1.9764258 6.4847941 -1.4529481
1.806582 6.4847159 -1.44274
1.6390039 6.4846368 -1.4335023
1.2962891 6.4177141 -1.4032307
0.97414058 6.4005437 -1.3875699
0.51228517 6.5011063 -1.3976451
0.35468748 6.5010271 -1.395382
0.19750977 6.500948 -1.3939351
0.040546875 6.5008674 -1.3933027
-0.27335936 6.5007048 -1.3944721
-0.7470898 6.5004544 -1.4023567
-1.0669824 6.5002823 -1.4117929
-1.2287304 6.5001945 -1.4178027
-1.3919727 6.500103 -1.4246963
-1.5568945 6.5000129 -1.4324958
-2.966162 6.4992023 -1.5311292
-3.157783 6.4990888 -1.5486108
-3.7614942 6.4987273 -1.609303
-4.7282028 6.6058722 -1.7410779
-4.8831153 6.4857221 -1.7399682
-5.1838379 6.2347331 -1.737785
-5.3295312 6.1041055 -1.7367251
-5.6111817 5.8329535 -1.7346721
-5.7470212 5.6925955 -1.7336794
-6.0083399 5.4027143 -1.7317657
-6.1336913 5.2533636 -1.7308453
-6.2554393 5.1011786 -1.7299496
-6.4878321 4.7886763 -1.728235
-7.0390525 4.4469743 -1.7844728
-7.4079785 4.4336176 -1.8503261
-7.7020602 4.118505 -1.8719033
-7.7962303 3.9299614 -1.8711941
-7.8859472 3.7393389 -1.8705158
-8.0517378 3.3522332 -1.8692545
-8.4375677 2.1518798 -1.8662493
-8.4852924 1.9472485 -1.8658645
-8.5662985 1.5350244 -1.8651965
-8.5995407 1.3276715 -1.8649136
-8.6279202 1.119627 -1.8646646
-8.6789551 -0.5563879 -1.8639147
-8.663291 -0.76567626 -1.8639767
-8.6173143 -1.1829199 -1.864205
-8.5870209 -1.3906397 -1.8643707
-8.5119143 -1.8037524 -1.8648055
-8.3632126 -2.4159217 -1.8657141
-8.0209761 -3.4090376 -1.8679016
-7.8517966 -3.7943175 -1.8690075
-7.6646676 -4.1714721 -1.8702422
-7.3510351 -4.7202463 -1.8723309
-7.2379003 -4.8982511 -1.8730891
-7.1206055 -5.0736127 -1.8738772
-6.6105762 -5.7468467 -1.8773248
-5.7128906 -6.0269852 -1.7798018
-5.4483399 -6.0330706 -1.7422513
-4.6722069 -6.6303854 -1.7384124
-4.3523827 -6.8567901 -1.7406199
-4.1883788 -6.9643478 -1.7417538
-3.681035 -7.2637057 -1.7452693
-3.5071192 -7.3555079 -1.7464767
-3.3309276 -7.4432111 -1.7477014
-3.1525879 -7.5267668 -1.7489423
-2.972168 -7.6061015 -1.7501986
-2.3744726 -7.6727862 -1.7213938
-2.0425489 -7.9378958 -1.7566905
-1.2718457 -8.1227198 -1.7620934
-0.6825586 -8.2127085 -1.7662365
-0.28597656 -8.2491007 -1.7690305
0.31221679 -8.267868 -1.7732528
0.51206052 -8.2645063 -1.7746658
0.71186525 -8.2563143 -1.7760795
0.91165036 -8.2432938 -1.7774942
1.5091602 -8.1751986 -1.7817321
1.7073339 -8.1428299 -1.7831399
2.1015038 -8.063633 -1.7859437
2.4919727 -7.965241 -1.7887255
2.8777831 -7.8477993 -1.7914791
3.0686619 -7.7819896 -1.7928431
3.8158104 -7.4722204 -1.7981945
4.1778903 -7.2899518 -1.8007954
4.3557029 -7.1921082 -1.8020746
5.8377538 -6.1206994 -1.8127956
6.0181446 -6.0124388 -1.8232189
6.6121774 -5.9970927 -1.9131936
7.2569432 -5.6818042 -1.9753298
7.5303025 -5.3304987 -1.9773428
7.660449 -5.1497278 -1.9783044
7.7861423 -4.9657321 -1.9792352
7.9073043 -4.7785578 -1.9801348
8.023818 -4.5883875 -1.9810024
8.3448238 -4.0008039 -1.9834071
8.4420509 -3.7996626 -1.9841409
8.6214647 -3.3902678 -1.9855037
8.7803802 -2.9721596 -1.9867238
8.9183884 -2.5464544 -1.9877979
8.979414 -2.3310592 -1.9882789
9.2542086 -0.78910154 -1.9905785
9.2892971 0.10656067 -1.9910349
9.2841015 0.33070433 -1.9910501
9.2733002 0.55460751 -1.9910257
9.2569237 0.77820736 -1.9909619
9.234951 1.0012792 -1.9908584
9.1744041 1.44547 -1.9905337
9.135849 1.6662273 -1.9903126
9.0917873 1.8859643 -1.9900521
8.454463 3.7931242 -1.9859918
7.4301267 4.4781046 -1.8593029
6.9491696 4.9066987 -1.8232101
6.6980662 5.2314081 -1.821511
6.4314647 5.5429568 -1.8196995
6.2925878 5.6935587 -1.8187531
6.0040331 5.9840546 -1.8167818
5.7018356 6.2596097 -1.8147104
5.0598044 6.7637897 -1.8103632
4.8921876 6.8797708 -1.8092762
4.3802829 6.4858356 -1.6773726
4.1558886 6.4857426 -1.6509231
3.7271483 6.4855642 -1.6031805
3.5216992 6.4854765 -1.5816839
3.1263378 6.4853067 -1.5430154
2.3868065 6.4849796 -1.4810196
2.2106249 6.4849014 -1.4683881
2.0372949 6.4848223 -1.4568105
1.866582 6.4847431 -1.4462483
1.532002 6.4845877 -1.4280457
1.0303028 6.4005718 -1.389438
0.72683591 6.5012126 -1.4020303
0.5683496 6.5011334 -1.3986468
0.09623047 6.5008965 -1.3934338
-0.060634766 6.5008144 -1.3933247
-0.21760742 6.5007353 -1.3940266
-0.69073242 6.5004849 -1.4010361
-0.84981441 6.5003996 -1.40503
-1.1711621 6.5002251 -1.4155691
-1.3338574 6.5001359 -1.4221475
-1.4981347 6.5000458 -1.4296223
-1.8324804 6.4998574 -1.4473633
-2.0029492 6.4997625 -1.4576814
-2.1760058 6.4996624 -1.4690112
-2.3518748 6.4995608 -1.4813887
-2.5308008 6.4994583 -1.4948521
-3.2837889 6.4990139 -1.5605857
-4.352529 6.8751397 -1.7439581
-4.5139647 6.7633085 -1.7427237
-4.8284569 6.5288005 -1.7403643
-4.9814353 6.4062982 -1.7392551
-5.4218063 6.0180693 -1.7360531
-5.5621676 5.8820148 -1.7350297
-5.6991796 5.742775 -1.7340292
-6.2126465 5.1555085 -1.7302647
-6.4476657 4.8449101 -1.7285317
-6.5595798 4.6856585 -1.7277042
-6.6676168 4.5239019 -1.7269031
-6.9142575 4.4514494 -1.7624329
-7.2740035 4.4384904 -1.8262914
-7.5673633 4.3704534 -1.8729135
-8.0236425 3.4214678 -1.8694689
-8.1012793 3.225852 -1.868875
-8.3063478 2.6291118 -1.8672874
-8.3653021 2.4273272 -1.866824
-8.4194918 2.2242377 -1.8663938
-8.4689159 2.0199754 -1.8659973
-8.5533295 1.6084325 -1.8653052
-8.6184177 1.1935364 -1.8647488
-8.6436424 0.98508543 -1.8645222
-8.6640139 0.77612609 -1.8643298
-8.6900682 0.35716125 -1.8640484
-8.6957321 0.14733826 -1.8639597
-8.6923733 -0.27235779 -1.8638859
-8.6268845 -1.1090264 -1.8641543
-8.5983496 -1.3169971 -1.8643078
-8.52666 -1.7306824 -1.8647183
-8.3830366 -2.3440332 -1.8655905
-8.1966896 -2.9461443 -1.8667675
-8.1251955 -3.1438658 -1.8672268
-7.8831344 -3.7265172 -1.8688018
-7.7933788 -3.9169075 -1.869392
-7.6991696 -4.1051764 -1.870014
-7.6005077 -4.2912807 -1.8706678
-7.4974704 -4.4750848 -1.8713533
-7.3901563 -4.656466 -1.8720694
-7.2785349 -4.8353806 -1.8728166
-7.0427341 -5.1852946 -1.8744015
-6.9186425 -5.3561292 -1.8752387
-6.5223923 -5.8509431 -1.8779238
-5.8094726 -6.0247235 -1.7937567
-5.5409861 -6.0309587 -1.7552856
-5.328115 -6.0878468 -1.7339038
-5.1826367 -6.2182322 -1.7349017
-4.8823729 -6.4687152 -1.7369649
-4.7277536 -6.5886874 -1.7380297
-4.2468748 -6.9266257 -1.7413491
-4.0811915 -7.0317016 -1.7424955
-3.5691016 -7.3233905 -1.7460464
-2.8547363 -7.6550274 -1.7510171
-2.4359276 -7.6390924 -1.7184526
-1.5351269 -8.068325 -1.7602457
-1.3410058 -8.1092949 -1.7616078
-1.1458105 -8.1456318 -1.7629788
-0.75265622 -8.2042675 -1.765743
-0.55490232 -8.2265253 -1.7671353
-0.15759765 -8.2567797 -1.7699357
0.24133788 -8.2679005 -1.772752
0.44113281 -8.2662525 -1.7741642
0.84077144 -8.2484665 -1.7769922
1.6370703 -8.1548719 -1.7826408
1.834834 -8.1193829 -1.7840464
2.0317969 -8.0790882 -1.7854475
2.4230175 -7.9840817 -1.7882341
2.6169825 -7.9294271 -1.7896173
2.809746 -7.8700118 -1.7909932
3.1910155 -7.7370434 -1.7937181
3.3793261 -7.6635337 -1.7950658
4.1142478 -7.3236041 -1.8003379
4.2928615 -7.227334 -1.8016223
4.4691696 -7.1266527 -1.8028915
4.6430469 -7.0216236 -1.8041445
4.8144431 -6.9122667 -1.8053809
4.9832129 -6.7986627 -1.8066
5.149209 -6.6808786 -1.8078003
5.6298141 -6.3030224 -1.8112839
5.7838573 -6.1691403 -1.8124036
5.9346094 -6.0314116 -1.8135009
7.0622168 -5.911737 -1.9739001
7.4830465 -5.3938451 -1.9769939
7.6147656 -5.2142534 -1.9779665
7.8648338 -4.8453321 -1.9798193
8.0964937 -4.4641252 -1.9815447
8.2052441 -4.2691913 -1.9823583
8.5021486 -3.6686065 -1.9845959
8.5911226 -3.463542 -1.9852722
8.6749802 -3.2563007 -1.985913
8.7537012 -3.0469322 -1.9865179
8.8272161 -2.8356104 -1.9870863
8.8954487 -2.6225069 -1.9876179
9.0680952 -1.9735311 -1.9889886
9.1148243 -1.7544585 -1.9893698
9.1560936 -1.5342499 -1.9897125
9.2220697 -1.0910279 -1.9902816
9.2467775 -0.86825866 -1.9905077
9.2874317 -0.19714904 -1.9909509
9.289814 0.02699768 -1.9910198
9.2865725 0.25117737 -1.9910492
9.2633791 0.69890809 -1.9909891
9.2178316 1.1449292 -1.9907708
9.1501465 1.5880249 -1.9903954
9.0604486 2.0270953 -1.9898635
8.9490232 2.4610155 -1.9891771
8.8852243 2.6757183 -1.9887762
8.7417574 3.0998523 -1.9878607
8.6621771 3.3090496 -1.987347
8.3926659 3.9234881 -1.9855853
8.1880178 4.320889 -1.9842317
7.9811521 4.4612164 -1.9596272
7.5689549 4.473886 -1.8843865
7.2239552 4.5086455 -1.8250592
7.1100879 4.679698 -1.8242944
6.8699021 5.012825 -1.8226745
6.6137204 5.3333817 -1.8209388
6.3422751 5.6405363 -1.8190919
6.201035 5.7888737 -1.8181285
5.9079981 6.0746088 -1.8161242
5.7564259 6.211823 -1.8150849
5.6015429 6.3452153 -1.8140216
5.4435349 6.4746685 -1.812935
5.1186132 6.7216153 -1.8107431
4.7825975 6.9523625 -1.8085629
4.0148144 6.4856839 -1.6347972
3.3919921 6.4854217 -1.5685995
3.1950879 6.4853373 -1.5494756
2.8147557 6.4851704 -1.5151836
2.2727735 6.4849296 -1.4727465
2.098496 6.484849 -1.4608014
1.926875 6.4847722 -1.4498831
1.7577147 6.4846931 -1.439959
1.249541 6.4176922 -1.4012765
1.086621 6.4005985 -1.3914125
0.46648437 6.5010834 -1.3969045
-0.0049804687 6.500844 -1.3932699
-0.16188475 6.5007634 -1.3936852
-0.63448238 6.5005145 -1.3998196
-1.1137793 6.500257 -1.4134468
-1.4396679 6.5000772 -1.4268663
-1.6051074 6.4999857 -1.4349321
-1.772539 6.4998918 -1.4439372
-1.9421972 6.4997954 -1.4539076
-2.2891309 6.4995975 -1.4768742
-3.0213671 6.4991703 -1.5360718
-3.2142284 6.4990559 -1.5539281
-3.6144042 6.4988151 -1.593761
-4.4570017 6.8034267 -1.7431598
-4.7735057 6.571403 -1.7407626
-5.0785055 6.3253922 -1.7385502
-5.6509571 5.7925296 -1.7343816
-5.7857809 5.6512856 -1.7333959
-5.9171872 5.5069561 -1.732434
-6.1693945 5.2094841 -1.7305828
-6.5203028 4.7424674 -1.7279948
-6.6297264 4.5815864 -1.7271843
-7.6325097 4.2509928 -1.8724254
-7.7298141 4.0640116 -1.8716944
-7.8227344 3.8748381 -1.870994
-7.9949803 3.4904692 -1.8696874
-8.1489353 3.0987213 -1.8685088
-8.3449316 2.4991002 -1.8669845
-8.4519339 2.0925879 -1.866134
-8.6352539 1.0591229 -1.8645986
-8.6573534 0.85033143 -1.8643941
-8.674551 0.64114076 -1.8642238
-8.6868649 0.43158448 -1.8640883
-8.6967964 0.011965943 -1.8639207
-8.6943941 -0.19790344 -1.8638889
-8.6870995 -0.40765929 -1.8638917
-8.674902 -0.61716002 -1.8639293
-8.6578217 -0.82635617 -1.8640014
-8.635849 -1.0351105 -1.8641082
-8.540781 -1.6575537 -1.8646355
-8.4532223 -2.0682614 -1.8651587
-8.4022655 -2.2720053 -1.8654715
-8.3465528 -2.4745679 -1.8658181
-8.2860842 -2.6758149 -1.8661987
-8.2209377 -2.8755982 -1.8666126
-8.151123 -3.073889 -1.8670599
-8.0766306 -3.2705371 -1.8675406
-7.6360254 -4.225493 -1.8704321
-7.42874 -4.5923691 -1.8718116
-7.0857811 -5.1239905 -1.8741115
-6.8363671 -5.4648142 -1.8757949
-6.7057419 -5.6308322 -1.8766793
-5.9076171 -6.0224028 -1.8080652
-5.6349216 -6.0287962 -1.7686331
-5.2346091 -6.1723437 -1.734545
-4.4671583 -6.7781401 -1.7398273
-4.3050585 -6.8884015 -1.7409469
-3.8030467 -7.1961088 -1.7444227
-3.6308105 -7.2907605 -1.745618
0.78022462 -7.4246192 -1.7767558
0.95983398 -7.4089332 -1.7780285
1.1391504 -7.3888907 -1.7793002
1.4964551 -7.335772 -1.7818375
1.8512597 -7.2653055 -1.7843609
2.0274706 -7.2235923 -1.7856154
2.202744 -7.1775875 -1.7868649
2.8922069 -6.9509668 -1.7917892
3.228545 -6.8124771 -1.7941982
3.8802245 -6.4864602 -1.7988784
4.0381641 -6.3949804 -1.8000158
4.3473825 -6.200376 -1.8022459
4.4984469 -6.0973544 -1.8033373
5.1395602 -6.0033951 -1.8808519
5.3901267 -5.9968863 -1.919017
5.6510448 -5.9899249 -1.9598666
5.9523435 -5.728466 -1.9661002
6.0919824 -5.5860577 -1.9671201
6.4897165 -5.1383491 -1.9700346
6.7362695 -4.8236966 -1.9718498
7.0765719 -4.3293123 -1.9743692
7.1818261 -4.1589308 -1.9751525
7.2828808 -3.9859402 -1.9759066
7.3796287 -3.8104315 -1.9766312
7.7226562 -3.085465 -1.9792233
7.9924903 -2.3292229 -1.9813056
8.0481539 -2.136152 -1.9817437
8.0990133 -1.9417169 -1.9821484
8.14501 -1.7460412 -1.9825189
8.2537594 -1.1528149 -1.9834249
8.2801561 -0.95342159 -1.9836578
8.3294725 -0.35205382 -1.9841461
8.3359175 -0.15095703 -1.984238
8.3373728 0.050240476 -1.9842952
8.3338375 0.25141478 -1.9843169
8.3117476 0.65318722 -1.9842541
8.2932129 0.85353267 -1.9841696
8.2696972 1.0533416 -1.9840499
8.2078218 1.4508587 -1.983705
8.1694918 1.6483092 -1.9834802
8.1262789 1.8447229 -1.9832203
7.8379493 2.8069201 -1.9814066
7.7661228 2.9945366 -1.9809424
7.6896677 3.1802654 -1.9804453
7.5231247 3.5456145 -1.9793533
7.3387594 3.9020562 -1.9781333
7.1370993 4.2486992 -1.9767889
7.0299315 4.4180789 -1.976071
6.7366209 4.4640727 -1.9233524
6.041543 4.6658683 -1.8167406
5.4233689 5.3467646 -1.8125308
5.0146189 5.7162089 -1.8097281
4.8726072 5.8324065 -1.8087518
4.7278318 5.9450092 -1.8077548
4.58041 6.053957 -1.8067384
3.3177733 6.7876105 -1.7980756
3.1510546 6.8614326 -1.7969598
2.6070409 6.4849358 -1.6634282
2.4269335 6.4848566 -1.6479025
2.2500489 6.4847784 -1.6336051
2.0761132 6.4847002 -1.620489
1.7359862 6.4845452 -1.5976324
1.2287695 6.4175482 -1.5550843
0.90791011 6.4003801 -1.5385047
0.60403317 6.5010185 -1.5538701
-0.025253905 6.500701 -1.547142
-0.18217774 6.5006194 -1.5477185
-0.81381834 6.5002847 -1.5591089
-1.1346484 6.5001101 -1.5703816
-1.2969824 6.500021 -1.5774648
-1.4608984 6.4999294 -1.5855381
-1.6266016 6.4998355 -1.5946287
-1.9642481 6.4996452 -1.6159742
-2.1366894 6.4995441 -1.6282991
-3.282666 6.5856342 -1.7512736
-3.5920703 6.4115129 -1.7490737
-3.7433887 6.3190274 -1.7479829
-3.8923924 6.2230229 -1.7469077
-4.0389743 6.1235733 -1.745849
-4.1830759 6.0207343 -1.7448068
-4.3245897 5.9145598 -1.7437822
-4.4634862 5.8051362 -1.7427752
-4.599668 5.6925039 -1.7417867
-4.9912109 5.3361211 -1.7389374
-5.1158299 5.2114019 -1.7380279
-5.3558884 4.9534931 -1.7362716
-5.471211 4.8204618 -1.7354259
-5.6920309 4.5466142 -1.733802
-6.152451 4.4456425 -1.80652
-6.459033 4.4339261 -1.8645697
-6.7165723 4.1487088 -1.8788738
-6.8121386 3.9839141 -1.8781604
-6.903779 3.8169708 -1.8774741
-7.2300196 3.1296825 -1.8750091
-7.3012986 2.9534459 -1.8744645
-7.3684177 2.7756426 -1.8739489
-7.4313378 2.5963538 -1.8734628
-7.544404 2.2337365 -1.8725796
-7.594492 2.0505919 -1.8721832
-7.6402535 1.8663757 -1.871817
-7.6816993 1.6811602 -1.8714809
-7.7514648 1.3081757 -1.8709015
-7.7797556 1.1205981 -1.8706583
-7.8231053 0.74378049 -1.8702643
-7.8549218 0.1759021 -1.8699075
-7.8566504 -0.013689575 -1.8698514
-7.8467479 -0.39273986 -1.8698332
-7.7737889 -1.1474127 -1.8701736
-7.7108493 -1.5214429 -1.8705314
-7.6304393 -1.8921887 -1.8710134
-7.5326853 -2.2588632 -1.8716192
-7.4773922 -2.4404225 -1.8719676
-7.4178123 -2.6206863 -1.8723468
-7.3540235 -2.7995272 -1.872756
-7.2860446 -2.9768655 -1.8731952
-7.2138963 -3.1526058 -1.8736643
-7.1376071 -3.326654 -1.8741629
-7.0572362 -3.498903 -1.8746907
-6.9728026 -3.6692727 -1.8752477
-6.8844042 -3.8376687 -1.8758333
-6.7920213 -4.003984 -1.8764474
-6.4915428 -4.4896121 -1.8784579
-6.383779 -4.6467366 -1.8791831
-6.1571484 -4.9533601 -1.880713
-5.9161425 -5.2492228 -1.8823473
-5.7903709 -5.3929019 -1.8832028
-5.6611228 -5.5336399 -1.8840832
-5.5286622 -5.671361 -1.8849875
-5.3928514 -5.8059812 -1.8859156
-5.0659862 -6.0114074 -1.8709753
-4.5972166 -6.0223989 -1.8031781
-4.3749118 -6.0273609 -1.7725329
-4.0114942 -6.1283002 -1.7431979
-3.7155273 -6.3221197 -1.7452443
-3.5640135 -6.4137902 -1.7462935
-3.4102929 -6.5018926 -1.7473593
-3.2544043 -6.5863695 -1.7484411
-3.0964746 -6.6671667 -1.7495384
-2.936543 -6.7442265 -1.7506506
-2.6111133 -6.886961 -1.7529168
-2.2788086 -7.0141811 -1.7552356
-2.1102734 -7.0718708 -1.756413
-1.9403515 -7.1255536 -1.7576013
-1.5964745 -7.2207513 -1.7600092
-1.4227442 -7.2621927 -1.7612271
-1.2479589 -7.2994909 -1.7624533
-0.71820313 -7.3862114 -1.7661766
-0.3615039 -7.4228005 -1.7686887
-0.1824121 -7.4346666 -1.7699513
-0.0029492187 -7.4422269 -1.7712176
0.716416 -7.4291406 -1.7763038
1.2546191 -7.3736572 -1.7801198
1.6112207 -7.3149352 -1.7826532
2.1406543 -7.1943989 -1.7864221
2.315254 -7.1456256 -1.787667
2.4887207 -7.0925851 -1.7889053
2.8318944 -6.973804 -1.7913576
3.0013866 -6.908114 -1.7925707
3.1693358 -6.8382587 -1.7937738
4.2932029 -6.2360263 -1.801855
4.445117 -6.1343431 -1.8029519
4.5944433 -6.028903 -1.8040316
4.8150587 -6.0115476 -1.8330832
5.052949 -6.0056019 -1.8679157
5.3000684 -5.9992456 -1.9051782
5.5571971 -5.9924493 -1.9450494
5.7577147 -5.915719 -1.9646816
6.0427833 -5.6369925 -1.9667605
6.1803708 -5.4923406 -1.9677664
6.9273629 -4.5557871 -1.9732623
7.5293651 -3.5165226 -1.9777576
7.6951461 -3.1511569 -1.9790137
8.0815039 -2.0108709 -1.9820086
8.1292677 -1.8156109 -1.9823914
8.1721382 -1.619204 -1.9827399
8.271347 -1.0242523 -1.983579
8.3127537 -0.62410951 -1.9839648
8.334219 -0.22234496 -1.9842095
8.3003607 0.78249574 -1.9842036
8.2786036 0.98250365 -1.9840965
8.1421576 1.7751428 -1.9833163
8.0958004 1.9708252 -1.9830344
8.0446186 2.1652679 -1.9827178
7.988584 2.3583374 -1.9823666
7.9278221 2.5499284 -1.9819818
7.8623142 2.7399144 -1.9815631
7.6379099 3.2990363 -1.9801071
7.3727536 3.8394976 -1.978359
7.1741309 4.1879435 -1.9770364
7.0684471 4.358283 -1.9763293
6.524199 4.4710126 -1.8823489
5.9665036 4.7580252 -1.8162318
5.8473434 4.8984294 -1.8154224
5.7247849 5.0358024 -1.8145883
4.4839649 6.1222773 -1.8060727
4.3324022 6.2250857 -1.8050257
4.1784763 6.32408 -1.8039612
4.0222263 6.4192142 -1.802879
3.8638084 6.5104399 -1.8017808
3.5408299 6.6810393 -1.799562
3.3765135 6.7604194 -1.7984679
3.2104199 6.835711 -1.7973574
3.0426269 6.9068584 -1.7962317
2.3124707 6.4848051 -1.6385412
1.965332 6.4846501 -1.612633
1.7956543 6.4845734 -1.6013699
1.6282226 6.4844952 -1.5911822
1.2858496 6.4175749 -1.5577033
0.96389645 6.4004068 -1.5404377
0.80647457 6.4003301 -1.5352875
0.66024411 6.5010452 -1.5551717
0.030429687 6.5007291 -1.5471548
-0.1264746 6.5006485 -1.5474104
-0.28351563 6.500567 -1.5485685
-0.4408789 6.500484 -1.550633
-0.75734371 6.5003152 -1.5575045
-1.5675781 6.4998698 -1.5912852
-1.7345409 6.4997768 -1.6010448
-1.9036719 6.4996796 -1.6118704
-2.0751758 6.4995804 -1.6237946
-2.4154687 6.9793987 -1.757731
-2.581367 6.9142475 -1.7565042
-2.7455566 6.8451996 -1.7552862
-2.9079492 6.7722821 -1.7540777
-3.2269237 6.6150885 -1.7516922
-3.3834472 6.5311213 -1.7505755
-3.8398046 6.2574897 -1.7472873
-3.987246 6.1592569 -1.7462229
-4.2746873 5.9526153 -1.7441436
-4.4144921 5.8443327 -1.7431306
-4.6860156 5.6181803 -1.7411597
-4.9462304 5.379683 -1.7392654
-5.0719528 5.2559977 -1.7383484
-5.1946092 5.1294208 -1.737452
-5.314209 5.0000639 -1.7365772
-5.4306641 4.86798 -1.7357235
-5.5438766 4.7332392 -1.7348922
-5.7756739 4.4680805 -1.7379397
-6.0481443 4.4495845 -1.7870104
-6.5809078 4.368422 -1.8798835
-6.7786813 4.0426445 -1.8784103
-6.9607615 3.708189 -1.8770461
-7.0458298 3.5379217 -1.8764055
-7.1268163 3.3657756 -1.8757931
-7.3451071 2.8389122 -1.8741283
-7.409492 2.6601441 -1.8736318
-7.5255761 2.2984424 -1.8727276
-7.6245117 1.9318725 -1.8719435
-7.66749 1.7469915 -1.8715968
-7.7061229 1.5611987 -1.8712807
-7.7956738 0.99926877 -1.8705174
-7.816709 0.81078064 -1.870325
-7.8454881 0.43262756 -1.8700339
-7.8532324 0.24317382 -1.8699349
-7.8565426 0.05358215 -1.8698677
-7.8554001 -0.13601135 -1.8698317
-7.8498144 -0.32552186 -1.8698273
-7.8253121 -0.70391721 -1.8699124
-7.8064356 -0.89257872 -1.8700022
-7.7831054 -1.0807593 -1.8701231
-7.7233005 -1.4552881 -1.8704588
-7.6459665 -1.8266809 -1.870919
-7.600781 -2.0109441 -1.8711954
-7.5512986 -2.1941249 -1.8715026
-7.4394431 -2.5568719 -1.8722088
-7.3771482 -2.7362237 -1.8726074
-7.3106441 -2.9141061 -1.8730358
-7.003252 -3.6090405 -1.8750466
-6.825254 -3.9452035 -1.8762262
-6.7303219 -4.1101499 -1.8768588
-6.6315036 -4.2728553 -1.8775191
-6.5288868 -4.4332547 -1.8782071
-6.422451 -4.5912681 -1.8789226
-6.3122654 -4.746778 -1.879665
-6.1984372 -4.8997154 -1.8804338
-5.7073436 -5.4840326 -1.8837683
-5.4414062 -5.7585654 -1.8855834
-4.677949 -6.0205555 -1.814558
-4.2353415 -6.0303888 -1.7538142
-4.0630174 -6.0924735 -1.7428422
-3.618037 -6.3816648 -1.7459191
-3.4650977 -6.4710364 -1.746979
-2.993535 -6.717308 -1.7502542
-2.5046289 -6.9297051 -1.7536595
-2.3382225 -6.9927554 -1.7548205
-2.1702733 -7.0518546 -1.7559936
-2.0008202 -7.1069589 -1.7571783
-1.8299707 -7.1580429 -1.7583737
-1.6578516 -7.2050509 -1.7595792
-0.95835936 -7.351748 -1.7644876
-0.60338867 -7.3998814 -1.7669847
-0.24600585 -7.4309525 -1.7695026
-0.066679686 -7.4400401 -1.7707679
0.11296875 -7.4448123 -1.7720361
0.29279298 -7.4452543 -1.7733067
0.83237302 -7.4205127 -1.777125
1.0119238 -7.4035654 -1.7783979
1.191123 -7.3822641 -1.779669
1.3698926 -7.3566098 -1.7809383
1.5481249 -7.3266239 -1.7822044
1.9024901 -7.2536426 -1.7847257
2.0784376 -7.2106814 -1.7859787
2.4272754 -7.111897 -1.7884666
2.5999901 -7.0561194 -1.7897002
3.2768066 -6.7910061 -1.794544
3.7668457 -6.5489979 -1.7980628
4.0836134 -6.3676915 -1.8003433
4.2387204 -6.2711973 -1.8014617
4.5418553 -6.0667515 -1.8036512
4.9675388 -6.0077577 -1.8552895
5.2112794 -6.0015502 -1.8916665
5.851162 -5.8273802 -1.9653625
6.2670312 -5.3971949 -1.9684008
6.3985839 -5.2469668 -1.9693654
6.5264354 -5.0934682 -1.9703043
6.650527 -4.9367766 -1.9712176
6.7707715 -4.7770085 -1.9721044
6.9993553 -4.4485831 -1.9737959
7.1075583 -4.2801313 -1.9745996
7.2115917 -4.1089921 -1.9753745
7.5847945 -3.3996043 -1.9781762
7.6670408 -3.2165892 -1.9787998
7.8178515 -2.8445952 -1.9799521
7.8863182 -2.6558135 -1.9804797
7.9500976 -2.4653606 -1.9809746
8.0634079 -2.079843 -1.9818646
8.1128712 -1.8850433 -1.9822593
8.1972065 -1.4919305 -1.9829468
8.2320404 -1.2938873 -1.9832388
8.3218555 -0.49464476 -1.9840591
8.3318653 -0.2937091 -1.9841763
8.336875 0.10863952 -1.984305
8.3218842 0.51075071 -1.9842925
8.3068752 0.71138793 -1.984233
8.2619333 1.111228 -1.9840084
8.197197 1.5082629 -1.9836433
8.1574411 1.7054229 -1.9834082
8.112812 1.9015259 -1.9831384
8.0090237 2.2899768 -1.9824951
7.8861032 2.6726813 -1.9817153
7.8175583 2.8615587 -1.981275
7.7444043 3.0486505 -1.9808015
7.5842772 3.416934 -1.9797555
7.4061813 3.7766387 -1.9785806
7.3105664 3.9529865 -1.9779459
7.2105956 4.1268487 -1.9772799
7.1064258 4.2981448 -1.9765835
5.768662 4.9874077 -1.814887
5.5160742 5.2549319 -1.8131644
5.3849998 5.3838434 -1.812268
4.3864746 6.1890335 -1.8053994
3.7603807 6.5670171 -1.8010174
3.5986814 6.6518912 -1.7999463
3.4350293 6.7327175 -1.7988578
3.1023533 6.8820853 -1.796633
2.9335155 6.9505558 -1.7954977
2.5544238 6.4849124 -1.6587931
2.0261426 6.4846783 -1.6168977
1.8556055 6.4846001 -1.6052417
1.6873926 6.4845233 -1.5946749
1.521289 6.4844451 -1.5851644
1.1790723 6.4005108 -1.5489169
1.0200391 6.400435 -1.5424905
0.86221677 6.4003582 -1.5370086
0.55812496 6.5009966 -1.5528915
0.40038085 6.500916 -1.5501128
0.24310546 6.5008392 -1.548244
0.086103514 6.5007586 -1.5472795
-0.54266602 6.5004301 -1.552447
-0.70096678 6.5003457 -1.5560145
-0.86010742 6.5002604 -1.56051
-1.1816113 6.5000834 -1.5723368
-1.5087988 6.4999027 -1.588071
-1.6750488 6.4998088 -1.5974613
-2.0140331 6.4996171 -1.6194367
-3.0116894 6.7232242 -1.7533036
-3.1708984 6.6440716 -1.7521124
-3.6362305 6.3850346 -1.7487555
-3.7868946 6.2915177 -1.747669
-3.935205 6.1945181 -1.7465986
-4.0810447 6.0940714 -1.7455447
-4.6386719 5.6592193 -1.7415036
-4.7712207 5.5425711 -1.7405398
-4.9009275 5.4228778 -1.7395957
-5.0276856 5.3002191 -1.7386714
-5.1514454 5.1746588 -1.7377677
-5.6151853 4.644958 -1.7343678
-5.7230172 4.5060453 -1.7335736
-6.2394919 4.4423356 -1.8228904
-6.5441794 4.4252667 -1.8801562
-6.6463866 4.2643232 -1.8793967
-7.0985446 3.427083 -1.8760073
-7.1769042 3.2537529 -1.8754132
-7.2511425 3.0786986 -1.874848
-7.3212204 2.902 -1.8743118
-7.3871288 2.7237561 -1.8738047
-7.4487987 2.5440478 -1.8733273
-7.5062203 2.3630023 -1.8728794
-7.6527243 1.8127117 -1.8717164
-7.8097653 0.87771362 -1.8703897
-7.8279395 0.6889441 -1.8702172
-7.8510056 0.31043029 -1.8699664
-7.8558788 0.12087097 -1.8698879
-7.8523045 -0.25827697 -1.8698252
-7.8438473 -0.4477008 -1.869841
-7.8309665 -0.63686275 -1.8698881
-7.7657323 -1.2018701 -1.8702177
-7.7351952 -1.3890368 -1.8703902
-7.7002439 -1.5754724 -1.8705938
-7.6173239 -1.9456683 -1.8710938
-7.5693555 -2.1292429 -1.87139
-7.4605269 -2.4928856 -1.8720745
-7.3997359 -2.6727321 -1.8724624
-7.2655172 -3.028044 -1.8733282
-7.0331445 -3.5485535 -1.8748493
-6.9475684 -3.7183554 -1.8754147
-6.8579884 -3.8861666 -1.8760087
-6.7644529 -4.0518665 -1.8766311
-6.4606347 -4.5354729 -1.8786656
-6.1230564 -4.9969859 -1.8809439
-6.0032811 -5.1455016 -1.8817558
-5.4895606 -5.7107639 -1.8852545
-5.3528223 -5.8444691 -1.8861896
-5.2128906 -5.9749622 -1.8871481
-4.7596874 -6.0186677 -1.8262045
-4.5319042 -6.0238738 -1.7940724
-4.3117676 -6.028739 -1.7640109
-3.9691308 -6.1572819 -1.7434906
-3.8216307 -6.2549195 -1.7445101
-3.5196092 -6.439733 -1.7466012
-3.20875 -6.6102047 -1.7487582
-2.7274218 -6.8380609 -1.7521064
-2.3974707 -6.9708319 -1.7544072
-2.0610938 -7.0878687 -1.7567569
-1.5461718 -7.2332101 -1.7603616
-1.3721093 -7.273447 -1.7615821
-0.84416014 -7.3691278 -1.7652905
-0.66655272 -7.3925815 -1.7665399
-0.48833984 -7.411777 -1.767795
-0.13035156 -7.4373126 -1.7703185
0.049179688 -7.4436135 -1.7715857
0.22895508 -7.4455914 -1.7728556
0.40884766 -7.4432306 -1.7741271
0.58875978 -7.4365368 -1.7754
0.76861328 -7.4254813 -1.7766736
0.94824219 -7.4100757 -1.7779462
1.1275684 -7.3903222 -1.7792181
1.4849511 -7.3377585 -1.7817557
1.6627636 -7.3049717 -1.7830197
2.0161133 -7.2264185 -1.7855346
2.1914258 -7.1806865 -1.7867841
2.5388477 -7.0763927 -1.7892632
3.050293 -6.8882599 -1.7929209
3.2177734 -6.817214 -1.7941209
3.5476367 -6.6627903 -1.7964873
3.709785 -6.5795097 -1.7976526
3.8699412 -6.4922361 -1.7988046
4.0280175 -6.4010119 -1.7999427
4.1839161 -6.3058724 -1.8010664
4.3375392 -6.2068992 -1.8021749
4.4887695 -6.1041293 -1.8032675
4.883203 -6.0098619 -1.842955
5.1237106 -6.0038004 -1.8784741
5.6338573 -5.9903889 -1.9571431
5.7999315 -5.8761597 -1.9649889
5.9431934 -5.737534 -1.9660336
6.4814939 -5.1483002 -1.9699742
6.6069336 -4.9927402 -1.9708966
6.7285252 -4.8340588 -1.9717926
6.8462501 -4.6723356 -1.972662
7.0696287 -4.3402314 -1.9743176
7.2764745 -3.9971902 -1.9758587
7.3735352 -3.8218527 -1.9765854
7.4662304 -3.6440814 -1.9772818
7.5545311 -3.4640231 -1.9779475
7.6383691 -3.2817776 -1.9785821
7.9279981 -2.5331376 -1.9808025
7.9887204 -2.3416393 -1.9812762
8.0447073 -2.1486673 -1.9817165
8.0958691 -1.9543213 -1.9821233
8.1422167 -1.7587128 -1.982496
8.183672 -1.5619971 -1.9828347
8.2202444 -1.3642749 -1.983139
8.278594 -0.96632016 -1.9836438
8.3003511 -0.76635009 -1.9838439
8.3374414 0.037232056 -1.9842927
8.2945509 0.84060973 -1.984176
8.2713766 1.0404522 -1.9840587
8.2432032 1.2396436 -1.983906
8.2101173 1.4380744 -1.9837183
8.1721096 1.6355853 -1.9834957
8.1292086 1.8320653 -1.9832382
8.0814257 2.0274065 -1.9829458
7.909287 2.6052361 -1.9818636
7.8424315 2.7947423 -1.9814352
7.7708883 2.9824693 -1.9809735
7.6140232 3.3521991 -1.9799507
7.4390817 3.7134807 -1.9787985
7.3449802 3.8906963 -1.9781747
7.246572 4.0654521 -1.9775198
7.143867 4.2376604 -1.9768341
7.0369725 4.407227 -1.9761181
6.7584081 4.463356 -1.9275805
6.0489841 4.6565766 -1.8167911
5.9322653 4.7990923 -1.8159994
5.5618358 5.2083917 -1.8134769
5.4318652 5.3384686 -1.8125888
5.162715 5.5886369 -1.8107449
4.8818455 5.8250089 -1.8088152
4.4402246 6.1525016 -1.8057709
3.976455 6.4461002 -1.8025619
3.8174121 6.5361786 -1.801459
3.4933202 6.7044988 -1.7992461
2.9936132 6.9267263 -1.7959023
2.6187987 6.4849405 -1.6644745
2.4384766 6.4848623 -1.648867
2.2613964 6.4847832 -1.6344922
2.0872753 6.484705 -1.621302
1.91583 6.4846282 -1.609251
1.7468359 6.48455 -1.5983034
1.4151562 6.484396 -1.5795746
0.760957 6.4003081 -1.5339661
0.61425781 6.5010233 -1.554098
0.45628905 6.5009451 -1.5509949
0.29885742 6.5008659 -1.5488038
0.14178711 6.5007868 -1.5475192
-0.015117187 6.5007062 -1.5471362
-0.6447168 6.5003762 -1.5546436
-1.1241992 6.5001154 -1.569958
-1.4502636 6.4999356 -1.5849857
-1.7833984 6.4997478 -1.6040761
-2.1254687 6.4995513 -1.6274688
-2.4638085 6.9608917 -1.7573739
-2.6292186 6.8946085 -1.7561495
-2.792871 6.8244314 -1.7549345
-3.1146386 6.6725922 -1.7525337
-3.5822167 6.4173722 -1.7491447
-3.8828514 6.2293277 -1.7469766
-4.0295701 6.1300993 -1.7459168
-4.1738377 6.0274758 -1.7448736
-4.4545898 5.8122964 -1.7428399
-4.5909376 5.6998749 -1.7418503
-4.8552246 5.4656916 -1.7399284
-4.983037 5.3440814 -1.7389971
-5.1078711 5.2195487 -1.7380861
-5.2296677 5.092154 -1.7371958
-5.4638476 4.8291411 -1.73548
-5.5761423 4.6936407 -1.7346549
-5.8459373 4.4571552 -1.749573
-6.1333203 4.4463677 -1.802929
-6.438652 4.4347124 -1.8606776
-6.7102637 4.1592937 -1.8789209
-6.8060741 3.9946246 -1.8782055
-6.8979783 3.8278227 -1.8775175
-6.9858789 3.6589715 -1.8768573
-7.0697556 3.4881451 -1.8762248
-7.14957 3.3154669 -1.8756207
-7.2968359 2.9648759 -1.8744988
-7.4863377 2.4273901 -1.873035
-7.5410156 2.245523 -1.8726063
-7.6791601 1.69315 -1.8715017
-7.7780566 1.1327282 -1.8706728
-7.8022461 0.94460267 -1.8704584
-7.8373046 0.56695557 -1.8701228
-7.8482032 0.37764829 -1.8700018
-7.8546581 0.18815124 -1.8699123
-7.854238 -0.19103454 -1.869827
-7.8473535 -0.38050354 -1.8698318
-7.8202829 -0.75872618 -1.8699353
-7.800117 -0.94725949 -1.870034
-7.7465329 -1.3227056 -1.8703254
-7.7131443 -1.5094024 -1.870518
-7.6754098 -1.6952863 -1.8707415
-7.6333008 -1.8802752 -1.870996
-7.5868649 -2.0642328 -1.8712814
-7.4217868 -2.6090801 -1.8723215
-7.3582616 -2.7880123 -1.8727287
-7.2186813 -3.1413078 -1.873633
-7.0625587 -3.487823 -1.8746556
-6.7981052 -3.9932995 -1.8764068
-6.2795997 -4.7914424 -1.8798853
-6.0461817 -5.0931249 -1.8814648
-5.9241309 -5.2398443 -1.8822931
-5.6696286 -5.5246348 -1.8840252
-5.5373144 -5.6625633 -1.8849282
-5.4017186 -5.7973766 -1.8858551
-4.6118455 -6.0220661 -1.8052315
-4.3890429 -6.02705 -1.7744489
-3.2645409 -6.5810266 -1.7483708
-3.1067576 -6.6620584 -1.749467
-2.7852244 -6.8128943 -1.7517037
-2.6217382 -6.882586 -1.7528428
-2.1212206 -7.0682621 -1.7563365
-1.7801367 -7.1721125 -1.7587225
-1.6076562 -7.2179303 -1.7599307
-1.4340136 -7.2596374 -1.761148
-1.2593067 -7.2972031 -1.7623738
-1.0836035 -7.3305979 -1.7636076
-0.72966796 -7.3847451 -1.7660959
-0.19399413 -7.4340286 -1.7698697
-0.014550781 -7.441874 -1.7711357
0.16515625 -7.4453855 -1.7724048
0.52494138 -7.439405 -1.7749484
1.0639648 -7.3978343 -1.7787669
1.2430761 -7.375267 -1.7800378
1.4216894 -7.3483558 -1.7813061
1.5997363 -7.3171039 -1.7825716
1.7771094 -7.281517 -1.7838331
2.1293359 -7.1974087 -1.7863415
2.304004 -7.1489053 -1.7875869
2.8208983 -6.9778976 -1.7912791
2.9904883 -6.9124799 -1.7924926
3.1585448 -6.8428984 -1.7936963
3.3249512 -6.7691894 -1.7948893
3.4896288 -6.6913843 -1.7960709
3.6524413 -6.6095295 -1.7972406
3.8133397 -6.5236669 -1.7983973
4.1288571 -6.3400779 -1.8006696
4.2832813 -6.242465 -1.8017832
4.5849805 -6.0358319 -1.8039632
4.7999802 -6.011919 -1.830911
5.037334 -6.0059977 -1.8655971
5.2838087 -5.9996696 -1.902693
5.5402732 -5.9929028 -1.9423904
6.4360838 -5.2027402 -1.9696405
7.1381931 -4.2307248 -1.9748275
7.2410154 -4.0588217 -1.9755939
7.3395896 -3.8843465 -1.976331
7.4338183 -3.7074316 -1.9770379
7.5236912 -3.5281847 -1.9777148
7.6900778 -3.1630816 -1.9789751
7.8382125 -2.7899816 -1.9801086
7.9053221 -2.6006966 -1.9806266
7.9677243 -2.4097757 -1.981112
8.0253906 -2.2173154 -1.9815639
8.1263275 -1.8282665 -1.9823676
8.1695013 -1.6319305 -1.9827183
8.2932034 -0.83738524 -1.9837769
8.333828 -0.23534179 -1.9842037
8.3373928 -0.034160767 -1.9842758
8.3294821 0.36813721 -1.9843134
8.3180275 0.56902951 -1.984279
8.3015814 0.76955199 -1.9842093
8.2224312 1.3677533 -1.983789
8.1861811 1.5655987 -1.9835788
8.14501 1.7624584 -1.9833336
8.0989351 1.9582281 -1.9830536
7.992363 2.3459027 -1.9823904
7.9318848 2.5376024 -1.9820075
7.5595508 3.4696941 -1.9795932
7.4714255 3.6500421 -1.9790123
7.3788767 3.8280816 -1.9783996
7.1808004 4.1768427 -1.9770809
7.0753808 4.3473625 -1.9763757
6.879746 4.4593501 -1.9512261
6.5450778 4.470335 -1.8863586
5.974072 4.7488494 -1.8162831
5.7328124 5.0270185 -1.814643
5.4783497 5.292685 -1.8129065
5.3463669 5.4206452 -1.8120037
4.9325094 5.784102 -1.8091638
4.6425681 6.008698 -1.8071671
4.1884861 6.3177958 -1.8040303
3.8741014 6.5046649 -1.8018521
3.5513768 6.675777 -1.799632
3.0535157 6.9023929 -1.7963049
2.5020702 6.4848895 -1.6542631
2.1487305 6.4847317 -1.6258496
1.9763769 6.4846549 -1.6133996
1.8065526 6.4845767 -1.6020652
1.4734472 6.4844241 -1.5825971
1.2962598 6.4175811 -1.5581939
0.97411132 6.4004116 -1.5408022
0.81661129 6.4003348 -1.5355927
0.35468748 6.5008941 -1.5494773
0.19749999 6.5008144 -1.5478714
0.040556639 6.5007343 -1.5471681
-0.11633789 6.5006537 -1.5473669
-0.27334961 6.5005717 -1.5484674
-0.4307031 6.5004888 -1.5504725
-0.90648437 6.5002346 -1.5619901
-1.0669531 6.5001469 -1.5677003
-1.2287011 6.5000591 -1.5743746
-1.3919433 6.4999676 -1.5820291
-1.7236913 6.4997821 -1.6003827
-1.892666 6.4996843 -1.6111386
-2.404707 6.9834757 -1.7578106
-3.0581055 6.7006378 -1.7529569
-3.2167284 6.6203971 -1.7517686
-3.6801953 6.3582535 -1.7484385
-3.8301952 6.2637153 -1.7473567
-3.9777832 6.1657085 -1.746291
-4.4055467 5.8514285 -1.7431954
-4.5428615 5.7401385 -1.7421994
-4.9380274 5.3875775 -1.7393252
-5.0639257 5.2640676 -1.7384069
-5.1867871 5.1376848 -1.7375093
-5.5366797 4.7420206 -1.7349451
-6.0293846 4.4502897 -1.7835157
-6.6753416 4.2171769 -1.8791811
-6.8658199 3.8872626 -1.8777584
-7.2719235 3.0275707 -1.8746893
-7.4659081 2.4916277 -1.8731942
-7.664834 1.7589654 -1.8716183
-7.7037497 1.573233 -1.8713003
-7.8448534 0.44486326 -1.8700411
-7.8528805 0.25542235 -1.8699404
-7.8405566 -0.50264281 -1.8698514
-7.8263965 -0.69170958 -1.8699076
-7.7573242 -1.2562726 -1.8702645
-7.6892867 -1.6294317 -1.8706586
-7.5546093 -2.1823409 -1.871482
-7.3813086 -2.7246795 -1.8725805
-7.3150487 -2.9026687 -1.8730073
-7.2446384 -3.0790899 -1.873464
-7.1701169 -3.2538517 -1.87395
-7.0087204 -3.5980463 -1.8750105
-6.9219823 -3.7672718 -1.875584
-6.8312497 -3.9344795 -1.8761865
-6.7365723 -4.0995531 -1.876817
-6.6380076 -4.2624102 -1.8774755
-6.4294333 -4.5811319 -1.8788755
-6.3195114 -4.7368073 -1.879616
-6.0886521 -5.040381 -1.8811768
-5.8435254 -5.3329763 -1.8828409
-5.5846481 -5.6139655 -1.8846049
-4.467236 -6.0253196 -1.7851386
-4.2491794 -6.0300913 -1.755654
-3.9265721 -6.185976 -1.7437844
-3.7783787 -6.2826147 -1.7448093
-3.0038476 -6.7123594 -1.7501825
-2.8428514 -6.7872362 -1.7513027
-2.6799707 -6.8582897 -1.752437
-2.5153222 -6.9255042 -1.7535849
-1.4957812 -7.245306 -1.7607147
-0.96979493 -7.3499088 -1.7644073
-0.61490232 -7.3985949 -1.7669036
-0.43651366 -7.4165444 -1.7681599
-0.25759766 -7.4302149 -1.7694211
-0.078261718 -7.4395847 -1.770686
0.10132812 -7.4446344 -1.7719538
0.64096677 -7.4337726 -1.7757696
0.82077146 -7.4214597 -1.777043
1.0003515 -7.4047904 -1.7783157
1.3583691 -7.3584013 -1.7808563
1.7142187 -7.2946415 -1.7833858
2.0671093 -7.2135806 -1.7858981
2.7603514 -7.0001178 -1.7908462
3.0990624 -6.8680735 -1.7932701
3.266084 -6.7958188 -1.7944671
3.4313769 -6.7194576 -1.795653
3.594873 -6.6390467 -1.7968267
3.7564647 -6.5545945 -1.7979883
4.3816795 -6.177454 -1.8024937
4.5321875 -6.0736017 -1.8035814
4.9520798 -6.0081439 -1.8530204
5.1951952 -6.0019646 -1.8892368
5.6962399 -5.9723406 -1.964234
5.9841404 -5.6966424 -1.9663323
6.1229882 -5.5534348 -1.9673468
6.518281 -5.1034703 -1.9702444
6.6426072 -4.947011 -1.9711593
6.7631054 -4.7874274 -1.9720478
6.8796678 -4.6248407 -1.9729092
7.1006832 -4.2911029 -1.9745485
7.2049999 -4.1201463 -1.9753252
7.6618652 -3.2284799 -1.9787606
7.7398534 -3.0435905 -1.9793545
7.882041 -2.668067 -1.9804465
7.9461327 -2.4777341 -1.9809436
8.0054684 -2.2857897 -1.9814074
8.0600586 -2.0923901 -1.981838
8.1098042 -1.8976867 -1.9822347
8.2299414 -1.306731 -1.9832209
8.2601557 -1.1078869 -1.9834805
8.3313665 -0.3066864 -1.9841698
8.3370113 0.095636591 -1.9843031
8.3323431 0.29680359 -1.9843169
8.2883301 0.89864439 -1.9841456
8.2637014 1.09833 -1.9840178
8.2341309 1.2973242 -1.9838552
8.1995993 1.4954711 -1.9836572
8.11584 1.8888879 -1.9831568
8.0666895 2.0838404 -1.9828546
8.0126858 2.2775121 -1.9825183
7.9539161 2.4697521 -1.9821475
7.8903809 2.6603992 -1.9817429
7.8221383 2.8494067 -1.9813045
7.6717772 3.221889 -1.9803287
7.589746 3.4051616 -1.9797915
7.4122262 3.7651446 -1.9786209
7.2171874 4.115705 -1.9773239
7.0040817 4.4552178 -1.9755942
6.1296873 4.5536566 -1.8173373
6.015449 4.6982489 -1.8165638
5.5244431 5.2464714 -1.8132216
5.3935447 5.3756123 -1.8123267
5.1226659 5.6238031 -1.8104702
4.9828124 5.7427411 -1.8095095
4.6948142 5.9699063 -1.8075273
4.5467968 6.0780301 -1.8065066
4.0880275 6.3797822 -1.803335
3.7707715 6.5613909 -1.8010861
3.6091795 6.6465216 -1.8000132
2.5661132 6.4849176 -1.6598157
2.3867481 6.484838 -1.6445702
2.0372558 6.4846821 -1.6176894
1.8665234 6.4846048 -1.6059613
1.6982129 6.4845281 -1.595327
1.5319726 6.4844513 -1.5857476
1.3535546 6.4176078 -1.5609562
1.0302832 6.4004388 -1.5428774
0.87240231 6.400362 -1.5373355
0.72680664 6.5010796 -1.5568606
0.41056639 6.5009222 -1.5502654
-0.21760742 6.5006008 -1.547973
-0.53244138 6.5004349 -1.5522485
-0.69071287 6.5003519 -1.5557564
-1.1711426 6.5000896 -1.5718945
-1.664248 6.499815 -1.5968221
-2.0029101 6.4996219 -1.6186551
-2.5119922 6.94205 -1.7570177
-2.6769042 6.8746414 -1.755796
-3.1606543 6.6493049 -1.752189
-3.3179686 6.566668 -1.7510083
-3.6263964 6.390965 -1.7488263
-3.9256835 6.2008963 -1.7466674
-4.0716991 6.100667 -1.7456123
-4.4944334 5.7800016 -1.7425507
-4.7627344 5.550209 -1.7406017
-4.8926368 5.4307075 -1.7396559
-5.0195799 5.3082294 -1.7387305
-5.1435351 5.1828718 -1.7378256
-5.3821874 4.9237041 -1.7360789
-5.6081152 4.6538482 -1.7344198
-5.7161622 4.5150824 -1.7336241
-5.9275975 4.4541121 -1.7646285
-6.2199707 4.4430804 -1.8192135
-6.5309372 4.4311504 -1.8783334
-6.8331738 3.9464202 -1.878003
-7.0933299 3.4382367 -1.8760467
-7.1719532 3.2650206 -1.875451
-7.2464647 3.090064 -1.8748837
