# .PCD v0.7 - Point Cloud Data file format
VERSION 0.7
FIELDS x y z
SIZE 4 4 4
TYPE F F F
COUNT 1 1 1
WIDTH 1518
HEIGHT 1
VIEWPOINT 0 0 0 1 0 0 0
POINTS 1518
DATA ascii
0.51455075 -21.562195 1.7646835
1.035498 -21.561264 1.7661389
2.0814745 -21.559395 1.7721527
2.607744 -21.558449 1.7767336
4.207324 -21.555519 1.7969189
5.2979102 -21.553823 1.81599
7.5688572 -21.565565 1.8699752
8.7591791 -21.566387 1.9044986
9.3649998 -21.551481 1.92259
9.9893551 -21.550396 1.9434341
11.281591 -21.548143 1.9900485
12.642861 -21.549629 2.0441916
13.351904 -21.549538 2.0741448
14.835498 -21.547943 2.1404607
16.41918 -21.543955 2.2162521
19.036259 -21.54731 2.3524241
7.8242383 -8.0389795 0.91783959
7.8704686 -7.7054553 0.90118384
8.248291 -7.6944976 0.92291313
8.4381247 -7.4991279 0.92363757
8.6286917 -7.3035727 0.9249326
24.245693 -8.589694 2.1045511
24.838526 -8.1307907 2.1383579
24.344307 -7.3236017 2.079988
20.161991 11.120564 1.8839056
19.364677 12.588486 1.8897365
15.538603 12.385112 1.6257755
15.929785 13.33796 1.6998888
15.656455 13.765093 1.7056735
5.0100975 6.5015416 0.67156285
4.4690623 6.4174523 0.63983679
4.302959 6.5083432 0.63835895
3.6555469 6.5079918 0.61072046
3.2528808 6.5077782 0.5952639
2.8692381 6.5075731 0.58189154
1.8043262 6.5070114 0.55247825
1.6363086 6.5069251 0.54895866
1.470332 6.5068383 0.54579884
1.3061621 6.506753 0.54298878
0.82231444 6.506505 0.53658253
0.34732422 6.5062633 0.5330863
0.19005859 6.5061827 0.53254861
-0.28113282 6.5059457 0.53279901
-0.58730465 6.4048448 0.52622902
-0.74352539 6.404768 0.52754343
-0.90300781 6.4218421 0.53058964
-1.0726074 6.4884009 0.53807229
-1.5617676 6.4881625 0.5460102
-1.7283789 6.4880819 0.54935354
-2.0682714 6.4879174 0.55714804
-2.4187889 6.4877501 0.56650412
-2.5987108 6.4876633 0.57180655
-2.7821386 6.4875755 0.57754844
-3.3568261 6.4873033 0.5976249
-3.5577636 6.4872108 0.605349
-3.7641015 6.487114 0.61364007
-4.6532712 6.4867015 0.65316123
-4.8944821 6.4865894 0.66485143
-5.1445994 6.4864745 0.6773684
-5.8803711 6.4023438 0.71124625
-6.5785055 6.5028405 0.75682271
-17.75416 16.722448 1.9955087
-17.811182 15.982973 1.957998
-19.390331 16.573128 2.0870082
-20.042334 16.310297 2.1142082
-24.22102 16.954067 2.4189658
-26.502905 -6.9919438 2.2426097
-25.92664 -8.1965094 2.2247524
-10.161094 -7.2522297 1.0213916
-9.7792091 -7.7179809 1.0192851
-8.5463963 -8.1989479 0.96899617
-15.442021 -21.948421 2.1956952
-14.422725 -21.588295 2.1242321
-11.577949 -21.578272 2.0035775
-9.0201559 -21.577938 1.9135165
-7.8190527 -21.574924 1.877575
-6.0935841 -21.572006 1.8340462
-3.8975878 -21.56757 1.7931991
-3.3622656 -21.566488 1.7858502
-1.7779784 -21.563339 1.7702609
-0.21311523 -21.56349 1.764374
0.3071875 -21.562563 1.7643912
2.3977344 -21.558828 1.7747821
2.9256737 -21.557505 1.7799685
3.4571581 -21.556684 1.7862664
4.5330176 -21.555014 1.8021706
5.0787988 -21.554163 1.8118179
5.6307321 -21.553301 1.8226444
6.1932225 -21.564619 1.8357034
6.7606149 -21.565004 1.8490838
7.3367286 -21.565405 1.8637592
7.9223633 -21.565807 1.8797702
9.7389936 -21.550833 1.9349414
10.371728 -21.54973 1.9567486
11.019228 -21.548601 1.9802157
14.533154 -21.549389 2.1266248
16.094774 -21.544773 2.2003152
17.773193 -21.540541 2.2848604
8.1727829 -7.7723289 0.92278403
8.5526953 -7.3815246 0.92434895
24.838633 -7.0808182 2.1132157
19.823828 10.686749 1.8426189
19.532822 12.432327 1.8943961
17.238808 11.565897 1.6984854
16.883007 11.927734 1.6912963
16.948965 12.598207 1.7278609
15.628593 12.213022 1.6228319
15.993193 13.131603 1.693103
18.879873 22.861227 2.4258597
4.3320508 6.4173789 0.63349283
4.1684275 6.5082688 0.63235009
3.9502149 6.5081515 0.62289417
3.7383299 6.5080371 0.61406851
3.5322461 6.5079269 0.60583866
3.3314843 6.5078182 0.59816974
3.1356347 6.5077147 0.59103262
2.7570899 6.507513 0.57824624
2.5736914 6.5074167 0.57255256
2.39375 6.5073218 0.56729531
2.2170019 6.5072289 0.56245965
2.0431249 6.5071373 0.55802697
1.8718749 6.5070472 0.55398369
1.702998 6.506959 0.55031729
1.0464453 6.5066199 0.53919834
0.88594723 6.5065379 0.53726339
0.7265234 6.5064564 0.53565252
0.5679785 6.5063744 0.53436178
-0.061445311 6.5060558 0.53233498
-0.52526367 6.4048753 0.52579319
-1.0086328 6.4884324 0.53724539
-1.1695995 6.4883533 0.53941822
-1.3319628 6.4882736 0.5419268
-1.4959375 6.4881945 0.5447765
-2.1724803 6.4878683 0.55979288
-2.3480077 6.487783 0.5645107
-2.5266113 6.487699 0.56964254
-2.7086229 6.4876108 0.57520759
-2.8943067 6.4875231 0.58122367
-3.0840235 6.4874325 0.58771199
-3.2781737 6.4873409 0.59469807
-3.4770801 6.4872494 0.60220647
-3.6812205 6.4871531 0.6102671
-3.8910058 6.4870543 0.61891133
-4.1069531 6.4869542 0.62817603
-4.7973533 6.4866343 0.6600979
-5.76791 6.4023948 0.70505822
-6.0539451 6.4022655 0.72092354
-6.4533005 6.5028968 0.74957418
-6.7723045 6.5027523 0.76817495
-24.413832 16.566225 2.4139481
-26.157982 -6.6326671 2.2079294
-26.144043 -7.3048253 2.2209833
-26.901249 -8.9361372 2.3192694
-10.233164 -7.1561642 1.0216724
-10.052402 -7.397213 1.0211517
-8.9958401 -8.0652742 0.98852271
-14.771035 -21.656048 2.1447747
-11.177119 -21.577213 1.9882077
-10.523974 -21.575487 1.9640728
-8.0547266 -21.575514 1.8842742
-7.4662695 -21.574038 1.8678662
-4.654336 -21.569099 1.8053656
-1.4632128 -21.563391 1.7683328
-0.42045897 -21.563549 1.7646261
0.62031251 -21.562006 1.764894
1.6638379 -21.560141 1.7692593
2.1881738 -21.5592 1.7729986
2.7149999 -21.558256 1.7777898
5.4100585 -21.553646 1.8181927
5.969336 -21.564463 1.8307159
7.1060839 -21.565243 1.8577535
7.6878319 -21.565643 1.873229
8.2796478 -21.566053 1.8900708
10.1179 -21.550171 1.9478635
10.759384 -21.549055 1.9706607
14.991455 -21.547554 2.1476941
15.774961 -21.545578 2.1848149
16.586464 -21.543531 2.2245467
18.312031 -21.548681 2.3137035
8.66751 -7.2637873 0.92526406
24.908945 -8.0188608 2.1410098
25.132538 -7.4265642 2.1441946
26.362684 -7.1032019 2.2338746
20.34038 11.349302 1.9057451
15.401875 12.400087 1.6178091
15.874385 13.424501 1.7009808
18.334044 22.868395 2.3981271
4.9010153 6.4248729 0.66115391
4.4224901 6.417428 0.63766468
4.257236 6.5083179 0.63630182
3.8220215 6.5080833 0.61751181
3.6136816 6.5079699 0.60904866
3.4108691 6.5078611 0.60116112
3.2131054 6.5077562 0.59381443
3.0200098 6.5076537 0.58698386
2.4650488 6.5073581 0.56933904
2.2870605 6.5072656 0.56433737
1.9398047 6.5070825 0.55554831
1.6024219 6.5069065 0.54828739
1.2730078 6.5067358 0.54245979
1.1107129 6.5066528 0.54006082
0.7899316 6.5064878 0.53625619
0.6310547 6.5064063 0.5348388
0.3153418 6.5062461 0.53295231
-0.1559082 6.5060081 0.53246117
-0.61898434 6.40483 0.52647054
-0.94484371 6.4884644 0.53647012
-1.4304004 6.4882259 0.5435999
-1.5954492 6.4881458 0.54666084
-1.7624707 6.4880662 0.55007666
-1.9316992 6.4879832 0.55386144
-2.1033592 6.4879003 0.55802453
-2.2777147 6.4878159 0.56258172
-2.4550683 6.4877329 0.5675472
-2.6356738 6.4876451 0.5729363
-2.8198633 6.4875574 0.57877034
-3.0079393 6.4874682 0.58506906
-3.2002831 6.4873776 0.59185368
-3.3972266 6.4872861 0.59915119
-3.5992186 6.4871912 0.60698766
-4.0201464 6.4869943 0.62440759
-4.2400584 6.4868917 0.63406318
-4.4669919 6.4867868 0.64440286
-6.6433005 6.502811 0.76059914
-17.737997 16.543858 1.9845523
-18.64086 16.563261 2.0402477
-19.586962 16.575718 2.0994024
-24.223423 16.779417 2.4109638
-26.654921 -7.1719999 2.2584209
-26.870796 -7.9301162 2.2922614
-10.124385 -7.3011823 1.0212882
-9.7954683 -7.4297018 1.0059016
-9.338418 -7.4446802 0.97713321
-9.3061714 -7.7935386 0.99315298
-9.1273336 -8.0262547 0.99444979
-15.155762 -21.767494 2.1701441
-12.824062 -21.597927 2.0551302
-12.118759 -21.579699 2.0249743
-11.441943 -21.577909 1.998316
-10.782285 -21.576172 1.9734781
-10.138486 -21.574472 1.9503769
-8.8960056 -21.577627 1.909598
-8.2922268 -21.576113 1.8912063
-5.9795213 -21.571777 1.8315146
-4.3276172 -21.568438 1.7998624
-2.7232909 -21.563192 1.7782767
-0.79980469 -7.8528113 0.64582676
-0.63200194 -21.564434 1.2768371
2.5006347 -21.55909 1.2845285
3.5614843 -21.557289 1.2931646
4.639287 -21.555624 1.3049862
5.7395411 -21.553921 1.3201263
6.3032126 -21.56424 1.3296829
8.037734 -21.565424 1.3621197
8.6360254 -21.565834 1.3749079
9.8617382 -21.551266 1.4027112
12.501621 -21.550251 1.47453
13.932666 -21.550093 1.5187891
15.453652 -21.546797 1.5693322
18.849112 -21.547401 1.6943698
7.7663083 -8.4573202 0.67957634
7.4221287 -7.7010093 0.63301247
15.393007 -7.7423387 1.0197914
24.724951 -7.5704894 1.5304067
20.575859 10.581823 1.3693883
20.272442 11.0522 1.3665469
19.310663 11.140476 1.3194559
9.5584278 6.8207726 0.69497949
8.6636524 6.5033517 0.64114553
8.2414455 6.5031238 0.62133431
7.4696579 6.5027051 0.58614218
5.8638182 6.5018396 0.51819146
5.5852051 6.5016894 0.50728995
5.3179197 6.5015464 0.49711874
5.0609961 6.5014086 0.48762777
4.7514939 6.41745 0.47259161
4.5158396 6.4173255 0.46442086
4.3132224 6.4548583 0.45947242
4.125195 6.5080957 0.45603979
3.9082811 6.5079808 0.44929266
3.4925585 6.50776 0.4371224
3.2927928 6.5076575 0.43165168
2.7209277 6.5073571 0.41744912
2.5382421 6.5072608 0.41339225
2.0094531 6.5069871 0.40306038
1.6702441 6.5068111 0.39758781
1.0149902 6.5064731 0.38974112
0.85473633 6.5063925 0.38838768
0.53708005 6.5062313 0.38637963
0.37930664 6.5061512 0.38571861
0.22197264 6.5060716 0.38528481
0.064902343 6.5059924 0.38507438
-0.24918945 6.5058346 0.38532752
-0.40025389 6.4048119 0.37980658
-0.71170896 6.4046569 0.38139182
-0.87091798 6.4217296 0.3835485
-1.2011621 6.4882092 0.39052695
-1.5281347 6.488049 0.3944999
-1.6943262 6.4879675 0.39686531
-1.8626171 6.4878845 0.39949438
-2.033252 6.4878016 0.4023937
-2.2064941 6.4877172 0.40557334
-2.3825781 6.4876318 0.40904304
-2.5618262 6.487545 0.41281486
-2.7445116 6.4874558 0.41690254
-3.3165331 6.4871812 0.43120855
-3.5164452 6.4870849 0.43671668
-3.9325781 6.486886 0.44896492
-4.3737888 6.4866781 0.46303108
-5.5612302 6.4193406 0.50267231
-5.8226366 6.4022007 0.51218253
-6.1111231 6.4020653 0.52381796
-6.8362303 6.5025387 0.55840141
-7.1750584 6.5023813 0.57309228
-7.5323925 6.5022144 0.58892906
-9.1918745 6.5014486 0.66634881
-10.766006 6.5007238 0.74433434
-11.217636 6.4093075 0.76463705
-12.028408 6.4927292 0.80899024
-27.611851 -7.1399369 1.6879565
-26.378613 -7.5045018 1.6231643
-25.246195 -8.5186682 1.5769604
-9.8916302 -7.3509831 0.72939569
-8.831152 -7.9930139 0.70496541
-8.5147753 -8.0888319 0.69509012
-15.753896 -22.160122 1.609194
-13.815059 -21.565048 1.5157666
-13.110635 -21.595484 1.4952297
-10.398272 -21.575125 1.4174896
-9.7632418 -21.573446 1.4014908
-9.1446877 -21.578003 1.3870462
-8.5360346 -21.576477 1.3733065
-7.9389648 -21.57498 1.3606188
-7.3524609 -21.573511 1.3489453
-6.7756152 -21.572065 1.3382369
-6.2080274 -21.572388 1.3285748
-5.0948243 -21.570137 1.3117563
-4.0069532 -21.56794 1.2983395
-3.4707031 -21.566854 1.2928594
-1.3612597 -21.564323 1.2788217
-0.83956051 -21.5644 1.2772521
-0.31882811 -21.564478 1.2764299
0.20147461 -21.563198 1.2762722
0.72203124 -21.562267 1.276876
1.766084 -21.560402 1.2803271
2.2908494 -21.559462 1.2831811
2.8182323 -21.558437 1.2867935
3.8836522 -21.556793 1.2963809
5.5182419 -21.554262 1.3168399
6.6445017 -21.564472 1.3355066
7.2187595 -21.564865 1.3459259
7.8023729 -21.565264 1.3573126
8.3963079 -21.565668 1.3696929
8.9959469 -21.552763 1.3822585
9.6124315 -21.551699 1.3966601
10.242324 -21.55061 1.4121972
10.886728 -21.549492 1.4289261
12.226289 -21.55028 1.466419
12.923252 -21.550205 1.4872036
13.640742 -21.550123 1.5094814
14.38042 -21.550043 1.5333368
15.142627 -21.547575 1.5587106
15.931416 -21.545595 1.5859185
16.74873 -21.543545 1.6150507
17.597118 -21.541412 1.646261
18.487051 -21.54809 1.6803662
7.7834864 -8.6413069 0.68831688
7.7108493 -7.771565 0.64794546
8.0562401 -7.7370548 0.66108483
24.190887 -8.3094416 1.5138476
25.913231 -7.5247126 1.5970269
20.638496 10.364356 1.3668612
19.554989 11.662959 1.3475766
19.089668 12.019174 1.3351108
9.6746674 6.4224386 0.68727654
9.5584564 6.6830492 0.69027793
8.8395119 6.5034494 0.64950401
7.9996872 6.5029917 0.61016136
5.4231153 6.5016026 0.5010857
5.1621776 6.5014625 0.4913317
4.6087599 6.4173727 0.46761039
4.3779197 6.4172506 0.4597683
4.2134862 6.508142 0.45886114
3.9939353 6.5080271 0.45192602
2.7947557 6.5073948 0.41915458
1.9064355 6.5069323 0.4013001
1.5699121 6.5067601 0.39615166
0.91844726 6.5064268 0.3888987
0.60012692 6.5062633 0.38670599
0.4420996 6.5061841 0.3859548
-0.02953125 6.5059457 0.38505593
-0.33848631 6.4048438 0.3795974
-0.49367186 6.4047656 0.38018882
-0.6494531 6.4046884 0.38100317
-0.97606444 6.4883213 0.38833076
-1.1367577 6.4882421 0.38985312
-1.2988183 6.4881616 0.39161751
-1.7953027 6.4879184 0.39841482
-1.9649707 6.4878345 0.40120628
-2.4900098 6.4875793 0.41127494
-2.6712987 6.4874911 0.41523519
-3.0450878 6.4873118 0.42414328
-3.2382812 6.4872189 0.42912161
-3.4361815 6.487124 0.43447426
-3.6392283 6.4870262 0.44022223
-4.0624704 6.4868236 0.45299461
-4.2836814 6.4867196 0.46007347
-4.7482519 6.4865003 0.47576728
-4.9929004 6.4863839 0.48445579
-5.2468262 6.4862633 0.49376121
-5.7111816 6.4022532 0.50776905
-6.3901854 6.5027475 0.53958917
-6.7060251 6.5025997 0.55284613
-7.0379491 6.5024447 0.56710809
-7.3876953 6.5022812 0.58247536
-8.1484079 6.5019298 0.61697578
-8.5641108 6.5017371 0.63638508
-9.4806538 6.5013156 0.68036783
-9.9887304 6.5010815 0.70536488
-10.971601 6.40942 0.75202858
-11.756806 6.4928527 0.79488486
-25.679428 -8.3907118 1.5989069
-9.9626265 -7.2561469 0.72945392
-9.7844629 -7.4942279 0.7294367
-9.5589056 -7.6943979 0.72625446
-9.2449512 -7.8166504 0.71652657
-8.6397266 -8.0509529 0.69894081
-8.3288574 -8.145443 0.6894924
-14.965107 -21.711172 1.5606539
-10.655391 -21.575802 1.4241977
-10.014541 -21.57411 1.4077219
-9.387949 -21.572456 1.3924075
-8.7770996 -21.57708 1.3786526
-7.5849314 -21.574091 1.3534802
-7.0043259 -21.572639 1.3423886
-4.7652149 -21.569469 1.3073703
-3.6838086 -21.567286 1.294946
-2.6201758 -21.564131 1.2856576
-1.5695214 -21.564291 1.2796571
-0.0058105467 -21.563566 1.2762389
1.0355176 -21.561708 1.2776017
1.5576074 -21.560776 1.2794002
2.0815136 -21.559839 1.2819537
2.6077733 -21.558895 1.2852664
3.6701074 -21.557123 1.294219
4.7499413 -21.555454 1.3063675
6.9888768 -21.564707 1.3416625
8.7589941 -21.565918 1.3776321
9.9896584 -21.551044 1.4058694
13.352284 -21.550156 1.5004202
14.082939 -21.550076 1.5236377
15.613887 -21.546391 1.5748565
18.130947 -21.548767 1.6667502
19.036036 -21.54705 1.7016555
7.7577343 -8.3652868 0.67522955
7.9815135 -7.8141642 0.6610868
8.1691113 -7.6206417 0.66120243
8.3571091 -7.4271245 0.6617167
24.44499 -8.6603041 1.5348886
24.600292 -8.052804 1.5319895
20.543974 10.693069 1.3707385
20.55872 11.339381 1.389577
18.715858 11.534038 1.3011496
9.8760643 6.4202209 0.6971665
9.5584955 6.5471716 0.68570411
8.5757132 6.5033054 0.63698965
7.3961034 6.502666 0.58286399
7.045537 6.5024753 0.56744117
6.7129002 6.502296 0.55312705
6.0946484 6.5019641 0.52744359
5.8062501 6.5018077 0.5159142
5.0099707 6.5013819 0.48577705
4.702949 6.4174242 0.47088706
4.468955 6.4172997 0.46282813
4.0806055 6.5080709 0.45463234
3.4515722 6.5077391 0.43597907
3.2528026 6.5076351 0.43058723
2.1473632 6.5070581 0.40554708
1.9745605 6.5069675 0.40245384
1.8042871 6.5068784 0.3996383
1.6362792 6.5067945 0.39709282
1.1435547 6.5065403 0.3909902
0.98234373 6.5064573 0.38944769
0.34731445 6.5061364 0.3856118
0.19004883 6.5060558 0.38522378
-0.28113282 6.5058188 0.38540411
-0.4317871 6.4047971 0.37992546
-0.58730465 6.4047189 0.38065162
-0.74351561 6.4046412 0.38160241
-0.90299803 6.4217148 0.38380653
-1.234082 6.488193 0.39088568
-1.5617285 6.4880319 0.39495963
-1.7283398 6.4879503 0.39737877
-2.0682225 6.487783 0.40301597
-2.2420311 6.4877014 0.40625373
-2.4187403 6.4876132 0.40978462
-2.5986524 6.4875269 0.4136202
-2.7820897 6.4874377 0.41777259
-3.1607714 6.4872556 0.42709464
-3.3567479 6.4871616 0.43229544
-3.7640135 6.4869666 0.44387946
-4.1947265 6.4867625 0.45719534
-4.4201856 6.4866552 0.46457052
-4.8943553 6.4864292 0.48092216
-5.6165233 6.4193139 0.50481617
-5.8802147 6.402174 0.51448154
-6.1713672 6.4020371 0.52628577
-6.57833 6.5026598 0.54744941
-7.2460742 6.5023484 0.57621193
-8.3953705 6.5018148 0.6284638
-9.2880373 6.5014038 0.67099965
-10.31289 6.5009327 0.72151619
-10.780879 6.4378028 0.74317145
-26.11727 -6.890203 1.5986362
-26.362196 -7.6397233 1.624439
-26.310844 -8.3179722 1.6331705
-25.030014 -8.5825672 1.5660645
-18.134491 -7.7252793 1.1666187
-9.8554296 -7.399354 0.72939152
-9.6773243 -7.637568 0.72964013
-9.3610153 -7.7617083 0.71970558
-8.7661324 -8.0126886 0.70290262
-8.4516506 -8.1080475 0.69317389
-15.438173 -21.942928 1.5879153
-12.967519 -21.597717 1.4909649
-12.258486 -21.580034 1.4688916
-11.577949 -21.578238 1.4493307
-10.914961 -21.576488 1.4311035
-10.268076 -21.57478 1.4141415
-9.0200491 -21.57769 1.3841668
-8.4137793 -21.576172 1.3706458
-7.8189549 -21.574677 1.358168
-5.5349512 -21.571026 1.3180358
-3.3622949 -21.566633 1.291838
-2.830791 -21.564096 1.2872192
-0.83919919 -7.8575439 0.46769354
-0.73373044 -21.564417 1.2770258
-0.21312499 -21.563934 1.276324
0.82786131 -21.56208 1.2770908
2.9257715 -21.558273 1.2876214
3.9928124 -21.556625 1.2975292
4.5331836 -21.55579 1.3036855
5.0789747 -21.554943 1.3106668
5.6309376 -21.554087 1.3184927
6.1930957 -21.564165 1.3278656
6.7604685 -21.56455 1.3375454
7.9221873 -21.565346 1.359744
8.5182905 -21.565754 1.3723309
9.1201658 -21.552547 1.3850955
11.019541 -21.549263 1.4324756
12.366308 -21.550266 1.4705276
13.789169 -21.550106 1.5141985
14.533593 -21.550024 1.5383874
16.095078 -21.545185 1.5916772
16.918457 -21.543118 1.6212145
18.670918 -21.547741 1.6874591
7.2889061 -7.6344376 0.62471062
8.0943451 -7.6977396 0.66111028
8.2821283 -7.5042205 0.66146153
25.463505 -9.2975874 1.6043758
24.328066 -8.2234421 1.5198916
25.23877 -7.8580399 1.5644782
24.699697 -7.0412183 1.5200906
20.606543 10.475124 1.3681289
19.600323 11.184846 1.3356332
19.287792 12.276373 1.3531598
9.5584469 6.753026 0.6926592
8.7492676 6.5033994 0.64520699
7.9199901 6.5029478 0.606507
5.9196386 6.5018702 0.52041131
5.6386619 6.5017176 0.50935811
5.1104002 6.5014353 0.48942953
4.5612106 6.4173474 0.46597359
4.3319335 6.4172263 0.45824271
4.1683302 6.5081186 0.45741263
3.9501171 6.5080028 0.4505735
3.5321581 6.507782 0.43823722
2.757041 6.5073767 0.41827872
2.5736425 6.5072789 0.41415915
2.3937011 6.5071859 0.41035712
2.216953 6.5070934 0.40685934
1.7029589 6.5068283 0.39807579
1.5361913 6.506742 0.39568627
1.3713379 6.5066562 0.39355475
1.0464257 6.5064902 0.39003241
0.56795895 6.5062461 0.38653433
0.41005859 6.5061669 0.38582954
-0.21849608 6.5058508 0.38526374
-0.52525389 6.4047494 0.3803353
-1.008623 6.4883056 0.38862005
-1.9997363 6.4878173 0.40180609
-2.1724412 6.4877329 0.40492943
-2.5265625 6.4875622 0.41205466
-2.7085547 6.487473 0.41607979
-2.8942382 6.4873838 0.42043114
-3.0839648 6.4872937 0.42512488
-3.6811328 6.4870052 0.44144019
-4.1068649 6.486804 0.45439413
-5.0437207 6.4863596 0.48629507
-5.5388184 6.45468 0.50339222
-6.0537891 6.402092 0.52148139
-6.453115 6.5027184 0.5422048
-6.7720995 6.5025692 0.55565941
-7.1074901 6.5024133 0.57013738
-7.4610839 6.5022473 0.58574116
-8.6517963 6.501698 0.64052558
-9.5809565 6.5012684 0.68526953
-27.680956 -7.018836 1.6901441
-26.394384 -7.3747697 1.6219802
-26.427538 -8.0762596 1.6355151
-9.5216408 -7.7416458 0.72629905
-14.770107 -21.654692 1.5513709
-13.961797 -21.569706 1.5206958
-13.246718 -21.589602 1.4991287
-12.545273 -21.598759 1.4783056
-11.177099 -21.577183 1.4382076
-9.2649603 -21.578304 1.389855
-8.0546389 -21.575268 1.3630139
-6.3178024 -21.570917 1.3303258
-5.7566895 -21.571474 1.3213857
-3.0419726 -21.564062 1.288905
-1.9869823 -21.564228 1.2816857
0.62032223 -21.56245 1.2766994
1.6638671 -21.560585 1.2798576
3.2450292 -21.557777 1.2902719
3.7789159 -21.556957 1.2953061
4.317246 -21.556122 1.3011334
4.8608103 -21.555283 1.307785
5.9692087 -21.564013 1.3242605
7.1059275 -21.564787 1.3438181
8.2794724 -21.56559 1.3671887
10.118222 -21.550819 1.4090729
10.759717 -21.549711 1.4255645
12.092461 -21.550293 1.4625311
14.234179 -21.550058 1.5285473
14.991738 -21.547955 1.5536118
15.775273 -21.545988 1.5804617
16.586777 -21.543949 1.6092025
19.2246 -21.546692 1.7090466
7.7492676 -8.2744331 0.67095345
8.2072554 -7.5813198 0.66127282
8.3953705 -7.3877883 0.66187096
24.726885 -8.6239758 1.5499148
24.460819 -7.874598 1.5208825
20.669199 10.258145 1.3656771
20.512079 10.804597 1.3721273
19.575928 11.550779 1.3452545
18.904072 11.778278 1.3182324
9.7708197 6.4201636 0.69195271
9.558486 6.6162338 0.68802053
9.5583887 6.9631834 0.699907
8.4888868 6.5032578 0.6329006
8.0772161 6.5030346 0.61372977
7.3233395 6.5026269 0.57963556
6.9765625 6.502439 0.56444573
6.6473436 6.5022607 0.55034488
5.4752831 6.5016308 0.50307059
4.9008884 6.4247141 0.47824943
4.6547461 6.4173985 0.46920463
4.4223828 6.4172754 0.46125785
4.2571483 6.5081663 0.46027228
4.0362792 6.508049 0.45324287
3.8219335 6.5079346 0.44667992
3.6136034 6.5078244 0.44055992
3.0199413 6.507513 0.42459816
2.6462696 6.5073166 0.41576162
2.2870116 6.5071301 0.40821692
1.9397558 6.5069504 0.40185949
1.6023828 6.5067759 0.39660683
1.4368066 6.5066905 0.39437416
1.2729882 6.5066075 0.39239326
0.94974607 6.5064416 0.38916281
0.63103515 6.506278 0.38687935
0.0011132812 6.5059619 0.38505286
-0.15589844 6.5058813 0.38515893
-0.30823243 6.4048581 0.37950766
-0.94483393 6.488337 0.38806051
-1.7624316 6.4879346 0.39790168
-1.9316601 6.4878502 0.40063956
-2.4550195 6.4875965 0.4105387
-2.6356151 6.4875083 0.41443717
-2.8198047 6.4874191 0.41865715
-3.3971581 6.4871435 0.43339851
-3.8066406 6.4869471 0.44515023
-4.0200391 6.4868445 0.45166877
-4.2399511 6.4867406 0.45865241
-4.4668846 6.4866333 0.46613196
-5.6722946 6.4192896 0.50699621
-5.9383006 6.4021459 0.51681131
-6.3302732 6.5027757 0.53711051
-6.971787 6.5024753 0.56424046
-7.3179002 6.5023141 0.57938164
-8.9182806 6.5015745 0.65320015
-9.3855858 6.5013585 0.67573553
-10.425772 6.5008798 0.72717583
-10.853984 6.4094739 0.7460404
-11.627138 6.4929123 0.78817844
-26.741587 -9.316205 1.6759945
-9.9974604 -7.20965 0.72950888
-9.6411228 -7.6859851 0.72974098
-9.0908298 -7.6131887 0.70179403
-9.0234375 -7.9348807 0.71116626
-12.82416 -21.59807 1.48663
-12.11875 -21.579668 1.4648089
-10.782275 -21.576138 1.4275568
-9.5092773 -21.572779 1.3953155
-8.8959084 -21.577377 1.3813339
-8.2921486 -21.575863 1.3680276
-7.6994433 -21.574379 1.3557559
-6.5437694 -21.571484 1.3341696
-5.4223533 -21.570801 1.3163849
-4.3276367 -21.568586 1.3019775
-2.723418 -21.564114 1.2864075
-0.79979491 -7.8527875 0.46717215
-0.63203126 -21.565346 0.78988671
-0.11152343 -21.564199 0.78951913
1.4514452 -21.561405 0.79119146
2.5006933 -21.559534 0.79463232
3.0293944 -21.55888 0.79706931
4.0980759 -21.557234 0.80338967
4.6394529 -21.5564 0.80729759
5.7397556 -21.554701 0.81666237
6.3030953 -21.563789 0.82252693
6.8721189 -21.564175 0.82862771
7.4499607 -21.564566 0.83530891
9.2403221 -21.552979 0.85856283
10.497568 -21.550819 0.87764764
16.253798 -21.5452 0.98810583
17.083193 -21.543125 1.0066258
17.951347 -21.548853 1.026839
20.76335 -21.543501 1.0954669
7.8680954 -7.7790389 0.4050875
8.053896 -7.5873265 0.40510961
8.2399807 -7.3956285 0.40537268
24.661621 -8.2068977 0.95159066
14.313887 6.5084653 0.57568806
12.653613 6.5075841 0.52094764
11.935732 6.5072021 0.49771309
9.9825392 6.4200487 0.43454048
9.1136427 6.5033789 0.4099111
8.2411814 6.5029173 0.38434654
7.4694333 6.502512 0.36257926
7.1150489 6.5023251 0.35289022
6.4593067 6.5019813 0.33555031
5.3177829 6.5013819 0.30751058
5.0608788 6.5012488 0.30163994
4.7513766 6.4172935 0.29233894
4.3119726 6.4529867 0.28415367
4.1251073 6.5079455 0.28210074
3.6974804 6.5077233 0.27403161
3.4924901 6.507617 0.27039909
3.2927344 6.507513 0.26701516
2.5381932 6.5071239 0.25572088
2.182744 6.5069418 0.25127754
1.8386523 6.5067649 0.24755348
1.6701952 6.5066781 0.24594413
1.3393164 6.5065112 0.24321006
0.85471678 6.5062647 0.24025337
0.6954785 6.5061851 0.23956016
0.53707027 6.5061045 0.23901069
0.22196288 6.5059447 0.2383329
0.064902343 6.5058651 0.23820305
-0.24918945 6.5057092 0.23836067
-0.40025389 6.4046874 0.23494391
-0.71168941 6.404531 0.23592567
-1.0399219 6.4881601 0.24057472
-1.2011328 6.4880819 0.24157585
-1.6942871 6.4878368 0.2454969
-2.0332129 6.4876685 0.24891624
-2.382539 6.4874964 0.2530297
-2.5617676 6.4874082 0.25536323
-4.3736815 6.4865246 0.28642538
-4.8445411 6.4862962 0.29640114
-5.092783 6.4861755 0.3019242
-5.8224802 6.4020309 0.316829
-6.1109567 6.4018931 0.32402915
-7.5321679 6.5020213 0.3643012
-8.3106928 6.5016489 0.38631827
-9.6783686 6.5009961 0.42686027
-10.201416 6.5007458 0.44288048
-10.765595 6.5004783 0.46042854
-12.754189 6.4921179 0.52396935
-13.552714 6.4917393 0.55017662
-14.43583 6.4913197 0.57949924
-19.179247 6.4850659 0.74124455
-22.754335 6.4889927 0.86629111
-26.164169 -7.4434972 0.99593359
-25.910624 -8.0519371 0.99338812
-26.51227 -8.9458771 1.0244323
-9.4175291 -7.730969 0.44609016
-8.7328615 -7.9040551 0.43123892
-15.749931 -22.154522 0.99520254
-14.584013 -21.599707 0.95419121
-11.714756 -21.578569 0.89894873
-11.048291 -21.576809 0.88750845
-10.398261 -21.575092 0.87685841
-7.9388571 -21.574734 0.84167427
-7.3523631 -21.573267 0.83445102
-6.775527 -21.571821 0.82783133
-6.208076 -21.572535 0.82186514
-5.6478906 -21.571402 0.81639212
-4.5481153 -21.56918 0.80705422
-3.4707325 -21.566998 0.79977024
-1.3613183 -21.565239 0.79111516
-0.83958983 -21.565315 0.79014593
0.20148437 -21.563641 0.78952122
0.7220605 -21.56271 0.78989279
2.2908983 -21.559906 0.79379141
3.8837988 -21.557566 0.80197376
4.4231248 -21.556732 0.80567783
6.0786815 -21.563637 0.82025564
7.2186131 -21.564409 0.83257514
8.9962006 -21.553398 0.85509235
9.6127148 -21.552338 0.86400211
10.88706 -21.550152 0.88396382
12.923613 -21.550816 0.92001641
13.641132 -21.550745 0.93379265
15.14291 -21.547977 0.96423835
15.931728 -21.546005 0.98107338
17.59749 -21.541838 1.0183827
18.486835 -21.547834 1.0394651
20.368212 -21.544252 1.0854789
7.7116699 -7.7723846 0.40086296
8.1657619 -7.4720092 0.40523735
24.119043 -8.2847595 0.93369132
13.778876 6.508182 0.55791342
12.213955 6.5073509 0.50668329
11.53377 6.5069895 0.48484015
10.909472 6.5066576 0.46506262
10.333759 6.5063534 0.4470841
9.6743164 6.4222116 0.42513633
9.301631 6.503479 0.41553488
8.8392181 6.5032334 0.40177161
8.4062405 6.5030065 0.3891117
7.9994431 6.5027914 0.37743554
7.2539649 6.5023985 0.35666236
6.5847559 6.5020456 0.33880514
5.9780564 6.5017285 0.32336724
5.6946387 6.5015793 0.31643227
5.4229879 6.5014377 0.30996573
4.6086426 6.4172192 0.28925774
4.3777928 6.4170995 0.28440925
3.5735157 6.5076599 0.27181631
3.1749022 6.5074534 0.26509359
2.9826856 6.5073533 0.26208121
2.4299414 6.5070691 0.25430426
2.0781543 6.506887 0.25008413
1.7370508 6.5067139 0.24656609
1.5698925 6.5066295 0.24505562
1.2411425 6.5064597 0.24250862
0.75881833 6.506217 0.23981909
0.60010743 6.506135 0.23921256
0.28460938 6.5059776 0.23842353
-0.18655273 6.5057397 0.23828468
-0.80811524 6.4216356 0.23696189
-1.1367383 6.4881124 0.24115974
-1.2987988 6.4880319 0.2422515
-1.4624316 6.4879503 0.24349448
-1.7952636 6.4877868 0.24645546
-2.3120215 6.4875317 0.25215247
-2.4899609 6.4874449 0.25441033
-2.6712499 6.4873548 0.25686058
-3.0450292 6.4871716 0.26237023
-3.2382128 6.4870777 0.26544943
-3.4361033 6.48698 0.26876089
-3.6391504 6.4868822 0.27231637
-4.0623732 6.4866757 0.28021827
-4.2835841 6.4865685 0.2845957
-4.9927735 6.4862242 0.29967797
-5.7110252 6.4020848 0.31410056
-6.3899999 6.5025692 0.33378196
-7.037734 6.5022583 0.35080406
-8.1481447 6.5017262 0.38165259
-8.563838 6.5015268 0.3936573
-9.9883785 6.5008483 0.43632454
-10.535518 6.5005894 0.45324087
-10.971182 6.4091721 0.46519858
-11.756328 6.4925914 0.49169835
-13.225165 6.4918933 0.53938836
-15.01414 6.491046 0.5988692
-17.241777 6.4859824 0.67444342
-20.136581 6.4846139 0.77452475
-26.362383 -7.9152584 1.0077405
-9.4876757 -7.637074 0.44591621
-9.2466888 -7.818121 0.44332847
-9.2660837 -8.2259893 0.45364356
-8.544385 -7.9621058 0.42759407
-14.96416 -21.709808 0.9653632
-13.389209 -21.583754 0.92992085
-12.687148 -21.598549 0.91710788
-11.985156 -21.579279 0.90373677
-11.311777 -21.577505 0.8919695
-8.1753998 -21.575327 0.8447237
-7.5848436 -21.573847 0.83725655
-7.0042477 -21.572397 0.83039844
-6.4328027 -21.570967 0.82412785
-5.8702149 -21.571852 0.81850743
-4.7652345 -21.569618 0.80874836
-4.2219238 -21.56852 0.80465049
-3.1499901 -21.56497 0.79791206
-1.5695801 -21.565207 0.79163229
-1.0473242 -21.565283 0.79047418
-0.0058203125 -21.564009 0.78950065
0.51455075 -21.56308 0.78969121
1.0355469 -21.562151 0.79034382
1.5576367 -21.56122 0.79145664
3.1371777 -21.558712 0.79762012
3.6702342 -21.557892 0.8006382
4.2076268 -21.557068 0.80414176
5.8554101 -21.563486 0.81807208
6.4180174 -21.563868 0.82372028
8.1582031 -21.565044 0.84414661
8.7587986 -21.565449 0.85220498
9.3655462 -21.552763 0.86036944
9.9899702 -21.551691 0.86969978
11.954268 -21.550911 0.90227896
12.643574 -21.550844 0.91478431
13.352675 -21.550772 0.92819005
14.083349 -21.550701 0.94255394
14.836055 -21.548744 0.95784873
16.419813 -21.544785 0.99176109
17.255468 -21.542694 1.010541
19.980215 -21.544991 1.0757955
25.100887 -8.8926687 0.97496158
24.94669 -8.1661978 0.9610346
14.129462 6.508369 0.56954795
12.502402 6.5075035 0.51602989
11.797597 6.5071287 0.49327886
9.8757029 6.4199915 0.43125403
8.5754299 6.5030956 0.39403144
7.7662106 6.5026684 0.37084571
7.0453415 6.5022888 0.35101035
6.7127147 6.5021143 0.34215584
6.094492 6.5017896 0.32626975
5.5298729 6.501493 0.31248832
5.2647848 6.5013547 0.30628484
4.7028418 6.4172678 0.29128456
4.0805273 6.5079212 0.28123009
3.8648925 6.5078111 0.27711219
3.0587597 6.5073938 0.26325431
2.6834764 6.5071983 0.25770378
2.5014844 6.5071054 0.2552352
2.322871 6.5070138 0.25295874
1.6362402 6.5066638 0.24563697
1.4702734 6.506577 0.24422386
1.3061132 6.506494 0.24296592
1.1435254 6.506412 0.24186179
0.66324216 6.5061669 0.23943657
0.19003905 6.505929 0.23829566
0.033007812 6.5058508 0.23819327
-0.58729494 6.4045944 0.2354673
-0.74349606 6.4045162 0.23605628
-0.90297848 6.4215879 0.23741844
-1.5617187 6.4879017 0.24431877
-1.8970507 6.4877367 0.24747337
-2.0681932 6.4876513 0.24930198
-2.2419825 6.4875669 0.25130454
-2.5985937 6.487391 0.25586143
-3.1607029 6.4871154 0.26419517
-3.3566699 6.4870191 0.26741293
-3.5575976 6.4869199 0.27086937
-3.763916 6.4868212 0.27457878
-3.976084 6.4867172 0.27855584
-4.4200683 6.4865026 0.28737816
-4.6530371 6.4863892 0.29226172
-4.8942285 6.4862719 0.2974923
-6.1712108 6.4018641 0.32555488
-7.2458692 6.5021582 0.35643622
-7.9894824 6.5018029 0.37712944
-8.3950977 6.5016088 0.38875648
-9.2877245 6.5011826 0.41506919
-10.7829 6.4390073 0.45981804
-12.910224 6.4920435 0.52906334
-13.724794 6.4916577 0.55586463
-14.626914 6.4912291 0.58588386
-15.632587 6.4907532 0.61971337
-16.546045 6.4065294 0.64960611
-18.030743 6.4856091 0.70154423
-23.183876 6.48879 0.88142568
-27.21246 -7.1791296 1.0303905
-18.135956 -7.7258902 0.72173071
-9.7337494 -7.3079991 0.44563192
-9.5578127 -7.5432415 0.44578314
-9.358633 -7.7597241 0.44509804
-14.422666 -21.58823 0.95054799
-11.577909 -21.578207 0.89655536
-10.914941 -21.576454 0.88528222
-10.268057 -21.574751 0.87479222
-9.6359081 -21.57308 0.86503518
-9.0199413 -21.57744 0.85624075
-7.2344532 -21.572973 0.83305866
-6.6594434 -21.571533 0.82656318
-5.5349803 -21.571175 0.81534779
-3.8976269 -21.567863 0.80242974
-2.8308983 -21.56502 0.79631066
-1.7781347 -21.565176 0.79222161
-0.73374999 -21.565332 0.79000634
0.30720702 -21.563452 0.78956318
0.82789063 -21.562521 0.7900272
1.3494433 -21.561592 0.79095846
1.8725293 -21.560654 0.79234838
2.3978319 -21.559717 0.79420978
3.4574022 -21.558222 0.79937643
5.0791602 -21.555721 0.8108089
5.6311522 -21.554871 0.81565619
6.1929493 -21.563715 0.82140386
7.3364158 -21.564487 0.83395928
7.9220309 -21.564882 0.84112096
9.7395802 -21.552124 0.86590111
10.372363 -21.551035 0.87565923
11.019893 -21.549921 0.88615787
12.36667 -21.550869 0.90969688
13.067685 -21.5508 0.92273885
14.534023 -21.550655 0.95169425
15.301015 -21.547583 0.9675687
16.918779 -21.543535 1.0029056
18.670713 -21.547485 1.0438535
24.393085 -8.2454233 0.94271946
25.784912 -7.3505821 0.98164403
15.266611 6.4170837 0.60631019
13.605527 6.5080881 0.55218023
12.801708 6.5076623 0.52577782
11.402646 6.5069199 0.48066473
10.788789 6.5065951 0.46127203
10.086758 6.4201012 0.43775046
8.7489748 6.5031872 0.39911413
8.3215628 6.5029612 0.38666236
7.9197459 6.502749 0.37517524
7.5409274 6.5025501 0.36455756
6.5204883 6.5020127 0.33713371
5.9194822 6.5016966 0.32191962
5.3691211 6.5014086 0.30870536
5.1102734 6.5012741 0.30275488
4.3318458 6.4170752 0.28346291
4.168242 6.5079684 0.28295082
3.9500389 6.507854 0.2787188
3.3313282 6.5075326 0.26765662
3.135498 6.5074329 0.26446328
2.94416 6.5073338 0.26149574
2.5735838 6.5071421 0.25619513
2.2169139 6.506959 0.25167868
2.0430372 6.5068712 0.24969535
1.7029296 6.5066967 0.24624534
1.3713086 6.5065284 0.24344932
1.0463965 6.506362 0.24127097
0.41005859 6.5060387 0.23866996
0.252666 6.5059619 0.23837486
0.095546871 6.5058813 0.23821785
-0.36996093 6.4047022 0.2348783
-0.68117183 6.4045467 0.23580422
-0.84011716 6.4216199 0.23711036
-1.0085937 6.4881763 0.2403965
-1.169541 6.4880967 0.24136879
-1.3318945 6.4880161 0.24249138
-1.6616796 6.4878526 0.2451992
-1.999707 6.4876842 0.24855338
-2.1723926 6.4875989 0.2504853
-2.3479199 6.4875145 0.2525965
-2.7084961 6.4873362 0.25738257
-3.0838964 6.4871531 0.26297766
-3.6810448 6.4868612 0.27307105
-4.1067677 6.4866538 0.28108284
-4.3293943 6.4865451 0.28552237
-5.2994919 6.4860764 0.30665228
-5.7676072 6.4020581 0.31548241
-6.4529395 6.5025387 0.33540106
-6.771914 6.5023861 0.34372291
-7.1072946 6.502224 0.35267815
-7.8345313 6.5018759 0.37274849
-9.5806246 6.5010433 0.42389503
-12.60708 6.4921875 0.51917517
-13.390566 6.4918151 0.54483026
-15.218301 6.4909496 0.60573506
-18.885927 6.4852047 0.73107976
-20.479658 6.4844518 0.78648823
-26.040819 -7.2759881 0.98992193
-9.6279097 -7.4494848 0.44569159
-9.4519138 -7.6849475 0.44600043
-13.961767 -21.569675 0.94070423
-11.846924 -21.578915 0.90127784
-11.17709 -21.577148 0.88967597
-9.8861036 -21.57374 0.86883628
-8.0545406 -21.575024 0.84315574
-7.4661036 -21.573549 0.83581197
-6.8874903 -21.572104 0.82907569
-5.7567186 -21.571623 0.81741875
-5.2023044 -21.570503 0.81238317
-4.1122069 -21.568295 0.80388236
-3.575078 -21.567211 0.80039555
-2.5130761 -21.565065 0.79488027
-1.9870605 -21.565145 0.7928884
-1.4633398 -21.565224 0.79135764
-0.42048827 -21.565376 0.78969944
0.099902339 -21.56382 0.78950399
1.1415039 -21.561962 0.79053122
2.1882617 -21.560093 0.79341561
3.2451465 -21.558546 0.79819232
4.3174119 -21.556896 0.80491459
4.8609958 -21.556059 0.80902821
5.9690919 -21.563564 0.81917334
7.6875095 -21.564726 0.83819175
8.877265 -21.553602 0.85343128
10.118526 -21.551472 0.87168157
11.417109 -21.549238 0.89284539
13.499316 -21.550758 0.93102896
17.42919 -21.542261 1.0144881
19.224375 -21.546431 1.0572104
7.712285 -7.8466134 0.40281272
7.9435935 -7.7011285 0.40506691
8.1294241 -7.5094266 0.40518501
25.048456 -8.0637712 0.96342415
24.389589 -7.2070246 0.93111885
14.801445 6.4759359 0.59150857
13.112577 6.5078282 0.53595006
11.027324 6.506721 0.46877509
10.442676 6.506412 0.45046636
9.7704782 6.4199352 0.42803076
8.4886131 6.5030494 0.39150122
8.0769625 6.5028319 0.37964287
7.3231249 6.5024352 0.35855401
6.6471481 6.5020785 0.34043464
6.3338084 6.501914 0.33232689
5.2121973 6.5013266 0.30507621
4.257041 6.5080137 0.28471869
3.8218553 6.5077877 0.27631202
3.4107225 6.5075741 0.26899543
3.2129588 6.507473 0.26570839
3.0198827 6.5073729 0.26265204
2.2869627 6.5069957 0.25251961
1.9397167 6.5068173 0.24858649
1.7699413 6.506731 0.2468801
1.4367774 6.5065613 0.24395576
1.1106738 6.5063953 0.24165687
0.94972652 6.5063119 0.24073264
0.63102537 6.5061522 0.23932029
0.47291014 6.5060716 0.23882759
0.31533203 6.5059924 0.23847587
0.15813476 6.5059142 0.23826316
0.0011132812 6.5058336 0.23819099
-0.15589844 6.5057545 0.23825599
-0.30823243 6.4047327 0.23476021
-0.46332031 6.4046555 0.23509911
-0.94480467 6.4882078 0.24005058
-1.4303319 6.4879675 0.24324012
-1.5953906 6.4878845 0.24461006
-1.7624023 6.4878025 0.24613807
-1.9316211 6.4877186 0.24783118
-2.2776172 6.4875474 0.25173301
-2.4549706 6.487462 0.25395468
-2.6355567 6.4873729 0.25636619
-2.8197362 6.4872813 0.25897652
-3.0078125 6.4871898 0.26179466
-3.3970799 6.4869995 0.26809517
-3.5990722 6.4869018 0.27160239
-3.8065526 6.4868002 0.27536491
-4.2398534 6.4865894 0.28371695
-4.7013669 6.4863658 0.29329687
-4.9443164 6.4862485 0.29860008
-5.1963377 6.4861264 0.30427849
-5.4583201 6.4859996 0.31036383
-6.9716015 6.5022898 0.34903008
-8.0699215 6.5017624 0.37941718
-8.9179878 6.5013585 0.40405646
-9.8862591 6.5008969 0.43319756
-10.853564 6.4092274 0.46148673
-12.31497 6.4923267 0.50969428
-13.069316 6.4919677 0.53427356
-14.822275 6.4911375 0.59242958
-23.628809 6.4885802 0.89712071
-27.122299 -7.2977586 1.0283186
-9.697998 -7.3557792 0.4456411
-9.5220509 -7.5910745 0.4458445
-9.301445 -7.7895622 0.44418952
-9.2647161 -8.1470613 0.45169348
-8.6052341 -7.9433641 0.42876229
-14.265927 -21.581919 0.94717962
-13.526709 -21.577814 0.93240136
-12.824238 -21.598213 0.91963917
-12.11872 -21.579634 0.90613103
-10.138476 -21.574406 0.87275046
-8.2920408 -21.575619 0.84625739
-7.6993651 -21.574135 0.83866554
-7.1168942 -21.572678 0.83168936
-3.2538183 -21.564953 0.79846823
-2.7235253 -21.565033 0.79581153
-0.79979491 -7.8527627 0.288993
-0.6320703 -21.566257 0.30369911
0.92962891 -21.562782 0.30380484
1.4514745 -21.56185 0.30419579
3.0294921 -21.559643 0.30646032
3.5617285 -21.558828 0.30757758
4.6396189 -21.557175 0.31039131
5.1866112 -21.556337 0.31209037
6.302949 -21.563339 0.31622902
8.0374022 -21.564501 0.32394248
8.6356344 -21.564901 0.32698965
10.497881 -21.55147 0.33743721
11.148516 -21.550362 0.34153405
14.682646 -21.551273 0.36706901
15.454228 -21.547602 0.37325248
17.083525 -21.543545 0.38702673
17.951153 -21.548597 0.39478582
18.848642 -21.546886 0.40296882
19.784756 -21.545099 0.41174659
20.763115 -21.543232 0.42116904
25.105848 -7.6871152 0.36958838
24.674452 6.5071239 0.35919669
20.311825 6.419354 0.29984671
17.573076 6.5017357 0.26375052
11.935244 6.5069385 0.19134788
10.674238 6.5062914 0.17596534
9.9821873 6.419817 0.16706352
9.5547943 6.4760642 0.1624784
9.1133299 6.5031605 0.15759209
8.6630955 6.5029297 0.15247536
7.8438277 6.502511 0.14341697
7.1148434 6.5021372 0.13567176
5.5849118 6.5013547 0.1206443
5.3176465 6.5012183 0.11822517
4.7512693 6.4171386 0.11239319
4.5156345 6.4170175 0.11044922
4.1250095 6.5077963 0.1084571
3.9081054 6.5076852 0.10685112
2.1827049 6.5068088 0.096606217
2.0093651 6.506721 0.09585762
1.8386035 6.5066342 0.095174327
1.5038086 6.5064645 0.094000474
1.3392968 6.5063815 0.093504481
1.0149413 6.506218 0.092689969
0.85469723 6.5061364 0.092368618
-0.092080079 6.5056601 0.091583326
-0.24917968 6.5055809 0.091640547
-0.87088865 6.4214792 0.091217726
-1.5280762 6.4877877 0.093821794
-1.694248 6.4877048 0.094384767
-1.8625488 6.4876218 0.095009841
-2.2063963 6.4874487 0.096454538
-2.3824804 6.4873619 0.097280271
-2.5617187 6.4872718 0.098177567
-3.1213963 6.4869943 0.10133255
-3.3164062 6.486897 0.1025515
-3.516289 6.4867978 0.10386185
-3.7214649 6.4866953 0.10526688
-3.9324024 6.4865918 0.10677467
-4.1495895 6.4864831 0.10838921
-4.3735838 6.4863706 0.11011986
-4.8444238 6.4861388 0.11395408
-5.5609469 6.4190097 0.11955269
-6.8358593 6.5021715 0.13280052
-8.7365627 6.5012326 0.15329033
-9.1912498 6.5010095 0.15846916
-9.6780272 6.5007687 0.16410865
-10.201045 6.5005112 0.17026877
-11.216767 6.4088049 0.18184882
-12.027411 6.4921961 0.19239037
-12.753642 6.4918385 0.20144065
-14.435146 6.4910116 0.22278847
-16.297489 6.402297 0.24645332
-17.756279 6.4853711 0.26608986
-19.178095 6.4846725 0.28496879
-20.818056 6.4838672 0.30692375
-25.023003 6.4874182 0.3638694
-27.724394 6.4781637 0.400765
-26.51062 -7.5420604 0.38797462
-9.4767084 -7.4041491 0.1692823
-15.745928 -22.148916 0.38252816
-11.714746 -21.578535 0.34561455
-11.048281 -21.576777 0.3412188
-10.398252 -21.57506 0.33712515
-9.7632027 -21.573383 0.33331549
-8.5358295 -21.575981 0.32661217
-7.3523045 -21.573023 0.32081825
-5.6479392 -21.571552 0.31387976
-4.5481443 -21.569326 0.31028938
-4.0069919 -21.568228 0.30879462
-3.4707518 -21.567142 0.30749458
-2.9386327 -21.565922 0.30637139
-2.4102733 -21.565998 0.30545446
-0.31884766 -21.566303 0.30360374
0.20147461 -21.564081 0.303554
1.2433887 -21.562222 0.30401999
1.766162 -21.561289 0.30451712
2.8184276 -21.559965 0.30606422
3.3492186 -21.559155 0.30711067
3.8839159 -21.558334 0.30834359
4.4232812 -21.557505 0.30976921
6.6442285 -21.563568 0.31761694
7.2184668 -21.56395 0.32009467
8.9964743 -21.554033 0.32876456
9.612998 -21.552982 0.33219534
10.242949 -21.551907 0.33589089
11.547705 -21.549677 0.3441349
12.226953 -21.551483 0.34878057
12.923974 -21.551426 0.35372794
14.381249 -21.551298 0.36469916
19.406973 -21.54582 0.40817344
20.367958 -21.543983 0.41729513
24.751387 -8.5019674 0.36838233
24.542881 -7.773562 0.36238563
25.407431 -7.3778372 0.3724114
25.351231 6.4255762 0.36813286
23.29496 6.5064135 0.34045449
12.958183 6.507462 0.20410956
12.213437 6.507081 0.1947953
11.533291 6.506732 0.18639839
9.6739845 6.4219861 0.1634452
8.8389254 6.5030212 0.15446387
7.6159277 6.5023947 0.14096184
6.9105759 6.5020337 0.13356148
6.5845799 6.5018663 0.13025658
6.2741699 6.5017076 0.12718299
5.9779 6.501555 0.12432151
4.8529296 6.4243751 0.11333076
4.6085353 6.4170651 0.11120757
3.9937596 6.5077281 0.10747841
2.9826171 6.5072141 0.10075989
2.7946386 6.5071201 0.099684983
2.610498 6.5070248 0.098689951
1.9063574 6.5066686 0.095438838
1.5698632 6.5064979 0.094214626
1.4046289 6.5064144 0.093695447
0.91840816 6.5061703 0.092489854
0.75879884 6.5060887 0.092201307
0.44207031 6.5059299 0.0917897
0.12745117 6.5057712 0.0915934
-0.80809569 6.4215097 0.0911026
-0.97602534 6.4880638 0.092354655
-1.136709 6.4879832 0.092716441
-1.2987695 6.4879026 0.093136594
-1.4624023 6.4878211 0.093614884
-1.7952343 6.4876561 0.094752423
-2.489912 6.487308 0.097811356
-2.8560839 6.4871264 0.099771805
-3.2381346 6.4869347 0.10205551
-3.4360352 6.4868383 0.10332763
-3.8476269 6.4866333 0.10616081
-4.7480173 6.4861865 0.11314735
-5.2465625 6.48594 0.11742729
-5.5105567 6.4858079 0.1197982
-5.7108688 6.4019198 0.12075905
-5.9943066 6.4017782 0.12344856
-6.7056446 6.5022349 0.13147773
-7.3872461 6.5018992 0.1385244
-7.7566404 6.5017161 0.14246757
-9.0064545 6.5010996 0.15635414
-9.9880171 6.5006161 0.1677465
-10.535117 6.5003467 0.17425117
-11.755849 6.4923301 0.18903434
-13.22458 6.4916077 0.20736808
-15.013389 6.4907274 0.23023415
-16.028202 6.4750867 0.24332541
-17.240829 6.4856248 0.2592887
-20.135323 6.4842014 0.29775962
-26.682035 -7.3143096 0.38943839
-9.1728315 -8.5477209 0.17648658
-14.963223 -21.708448 0.37112755
-12.687226 -21.59869 0.35260567
-11.985147 -21.579248 0.34745887
-11.311768 -21.577471 0.34293082
-10.014522 -21.574047 0.33480322
-8.776885 -21.576584 0.32788321
-8.1753025 -21.575081 0.32476601
-7.5847559 -21.573603 0.32189766
-6.432734 -21.570726 0.31684119
-5.3144236 -21.570875 0.31271186
-4.2219529 -21.568666 0.30936667
-3.6838672 -21.567577 0.30798423
-2.62042 -21.565966 0.30579689
1.5576562 -21.561659 0.3042945
2.0815821 -21.560724 0.30490211
2.6078808 -21.559784 0.3056913
3.137285 -21.559477 0.30667076
4.2077832 -21.557837 0.30917946
4.7502732 -21.557003 0.31071907
5.2984862 -21.556162 0.31245795
5.8552833 -21.563036 0.31451729
6.4178805 -21.563416 0.31669044
7.5683789 -21.564184 0.32169655
8.7586126 -21.564983 0.32763344
9.36584 -21.553402 0.33079597
9.9902534 -21.552338 0.33438131
10.628808 -21.55125 0.33824682
11.95459 -21.551508 0.34690741
12.643916 -21.551449 0.35171515
14.083759 -21.551325 0.36239386
15.614463 -21.547205 0.3745681
16.420126 -21.545197 0.38131094
19.035576 -21.546528 0.40470299
19.979961 -21.544725 0.41360617
24.875624 -8.1429348 0.36843681
26.762314 6.5100913 0.38769844
22.052109 6.5057735 0.32363531
18.669941 6.5023007 0.27828377
16.117294 6.5009875 0.24463035
14.128789 6.5080652 0.21896476
11.151563 6.5065365 0.18173714
10.557353 6.5062304 0.17455955
9.4945307 6.5033555 0.16199166
8.5751562 6.5028844 0.15148826
7.7659664 6.5024705 0.14257407
7.3956637 6.5022812 0.13861686
6.7125292 6.5019312 0.13154411
6.3960838 6.50177 0.12838173
6.094336 6.501615 0.12543708
5.8059473 6.5014672 0.12269584
5.2646484 6.5011911 0.1177549
4.7027245 6.4171143 0.11198685
4.46874 6.4169931 0.11007149
4.3026562 6.5078845 0.10981758
4.0804296 6.5077734 0.1081211
3.252666 6.5073524 0.10240356
3.0586913 6.5072522 0.10121139
2.8690526 6.5071568 0.10010338
2.3228319 6.5068798 0.097252347
1.6362011 6.5065317 0.094438702
1.4702441 6.5064487 0.093895338
1.143496 6.5062814 0.092987135
0.98230469 6.5062022 0.092620544
0.66323239 6.5060401 0.092054747
0.50497067 6.5059619 0.091853485
0.34730467 6.5058813 0.091708601
-0.12397461 6.5056443 0.09159065
-0.28112304 6.5055652 0.091659009
-0.58727539 6.4044676 0.090528332
-1.0725487 6.4880161 0.09256538
-1.2340235 6.4879355 0.092961654
-1.3969922 6.487854 0.093417279
-1.5616796 6.487771 0.093932033
-1.7282617 6.4876881 0.094505765
-1.8970116 6.4876046 0.095144115
-2.2419434 6.4874315 0.096617199
-3.3565917 6.486876 0.10280899
-3.5575194 6.4867773 0.10413894
-3.7638378 6.4866748 0.10556465
-3.975996 6.4865699 0.1070932
-4.4199705 6.4863486 0.11048561
-4.6529393 6.4862342 0.11236297
-4.8941112 6.4861131 0.11437431
-5.6162305 6.418983 0.12005913
-5.8798923 6.4018345 0.12235466
-6.577949 6.5022984 0.13019432
-7.6069822 6.5017905 0.14085929
-7.9892383 6.5016012 0.14499046
-8.8265333 6.5011902 0.15430671
-9.2874117 6.5009604 0.15957618
-11.358525 6.416151 0.18363136
-13.72416 6.4913621 0.21370247
-16.545156 6.4061837 0.24974053
-18.029697 6.4852381 0.26970756
-21.182695 6.4836888 0.31182915
-25.536499 6.4871664 0.37087303
-18.137402 -7.7265201 0.2775068
-9.4413967 -7.4513626 0.16930091
-15.430449 -21.931967 0.37750739
-14.422656 -21.588198 0.36545461
-13.670761 -21.571903 0.35949072
-12.967675 -21.597998 0.35460424
-12.258437 -21.579967 0.34935248
-10.268046 -21.574717 0.33632821
-9.6358986 -21.57305 0.33256966
-9.0198336 -21.577192 0.3291938
-8.4135838 -21.575678 0.32597753
-7.818779 -21.574188 0.32301229
-7.234375 -21.572729 0.32028067
-6.6593652 -21.571291 0.31778067
-6.0937009 -21.572456 0.31554052
-4.4377832 -21.569101 0.30996895
-3.897666 -21.56801 0.3085131
-3.362334 -21.566923 0.30724326
-2.8310254 -21.565937 0.30616903
-1.2552637 -21.566166 0.30408272
0.82791013 -21.562963 0.303749
1.3494629 -21.562031 0.30410284
1.8725684 -21.561098 0.30464104
2.3978808 -21.560162 0.30536065
3.4575293 -21.558989 0.30734551
3.9931054 -21.558167 0.30861884
5.6313572 -21.555655 0.31360817
6.7601852 -21.563644 0.31809989
7.9218554 -21.564421 0.3233785
11.020225 -21.550581 0.34071371
11.683877 -21.549448 0.34503821
12.367011 -21.551474 0.34975958
13.789961 -21.551352 0.36014625
17.774258 -21.541821 0.3931188
20.568544 -21.543604 0.41928518
24.741543 -8.3632088 0.36762244
25.009024 -7.7865105 0.36869881
25.155508 6.5073705 0.36575094
22.860987 6.5061898 0.33457312
17.831102 6.5018673 0.2671572
15.26583 6.416759 0.23309578
13.604912 6.5077963 0.21228661
12.801171 6.5073829 0.20213614
12.070352 6.5070066 0.19302161
10.788379 6.5063486 0.17733863
10.086387 6.4198694 0.16829735
9.5717382 6.4219346 0.16224495
8.7487011 6.5029745 0.15344292
8.3212986 6.5027552 0.14865501
7.9195018 6.5025487 0.14423759
7.5407028 6.5023546 0.140158
7.1825194 6.5021725 0.13637641
6.8430076 6.5019979 0.1328707
6.5203123 6.501832 0.12961434
5.3689842 6.501245 0.11868461
4.8036327 6.4243503 0.11290993
4.5609961 6.4170423 0.11081947
4.331738 6.416925 0.10898124
4.1681442 6.5078173 0.10878364
3.9499414 6.5077062 0.10715629
3.3312597 6.5073924 0.10290352
3.1354296 6.5072923 0.10167564
2.9441016 6.5071945 0.10053512
2.7569237 6.5070996 0.099476241
2.3936133 6.5069151 0.097592928
2.0429981 6.5067368 0.095998153
1.5361426 6.5064816 0.094104387
