# .PCD v0.7 - Point Cloud Data file format
VERSION 0.7
FIELDS x y z
SIZE 4 4 4
TYPE F F F
COUNT 1 1 1
WIDTH 1499
HEIGHT 1
VIEWPOINT 0 0 0 1 0 0 0
POINTS 1499
DATA ascii
-4.7131152 3.0984979 -1.8925482
-4.7851267 2.9830205 -1.8920076
-4.8543653 2.8658972 -1.8914865
-4.9208007 2.7472034 -1.8909849
-4.9844041 2.6269994 -1.8905035
-5.2585058 2.0057251 -1.8884038
-5.4571581 1.3570837 -1.8868359
-5.4875879 1.224851 -1.8865881
-5.5390234 0.95846069 -1.8861593
-5.5778317 0.68999571 -1.8858199
-5.5924606 0.55516416 -1.8856844
-5.6038866 0.42003721 -1.8855714
-5.6171484 0.14918029 -1.8854135
-5.6189842 0.013598022 -1.8853689
-5.6176071 -0.12198303 -1.8853472
-5.6130371 -0.25749695 -1.8853484
-5.5942869 -0.5280121 -1.885419
-5.5801268 -0.66286373 -1.8854889
-5.5627732 -0.79735839 -1.8855811
-5.5185742 -1.0649451 -1.8858341
-5.4917383 -1.1978881 -1.8859947
-5.4286718 -1.4617407 -1.8863831
-5.3531737 -1.7223748 -1.886861
-5.2170115 -2.1060457 -1.8877425
-5.1112108 -2.3561532 -1.8884389
-5.053906 -2.4792964 -1.8888191
-4.9936523 -2.601073 -1.8892206
-4.8645897 -2.8402562 -1.8900855
-4.7242575 -3.0731752 -1.8910321
-4.4933395 -3.4096615 -1.8926007
-4.2388182 -3.729167 -1.8943417
-4.1489744 -3.8316035 -1.8949587
-3.7656152 -4.2195115 -1.8976024
-3.5603321 -4.3995667 -1.8990247
-3.1247265 -4.7297449 -1.9020547
-3.0109668 -4.8057709 -1.9028485
-2.8953514 -4.8790917 -1.903656
-2.7779784 -4.9496703 -1.9044765
-2.6589062 -5.0174527 -1.9053103
-2.292119 -5.2036471 -1.9078829
-2.040293 -5.3130937 -1.9096534
-1.7832812 -5.4104667 -1.9114639
-1.5216113 -5.4954948 -1.9133105
-1.389375 -5.5333204 -1.9142447
-1.2559863 -5.5679693 -1.9151881
-0.71498042 -5.6744361 -1.9190218
-0.578125 -5.6929131 -1.9199938
-0.30312499 -5.7199945 -1.9219488
-0.16510741 -5.728569 -1.9229312
0.11161133 -5.7357407 -1.924903
0.94091797 -5.6770539 -1.9308317
1.0781152 -5.6555796 -1.9318151
1.2149121 -5.630775 -1.9327966
1.351084 -5.6026549 -1.9337744
1.4866601 -5.5712299 -1.9347486
1.7554492 -5.4985075 -1.9366827
1.8886621 -5.4572525 -1.9376425
2.0206835 -5.4127536 -1.9385943
2.1517284 -5.3650384 -1.93954
2.2816601 -5.3141284 -1.9404788
2.5378125 -5.202827 -1.9423316
2.6638477 -5.1424913 -1.9432446
2.7884667 -5.0790801 -1.9441481
3.1528223 -4.8707066 -1.9467953
3.270869 -4.7953329 -1.9476547
3.5014453 -4.635951 -1.9493364
3.7241113 -4.4653559 -1.9509643
3.9383788 -4.2839327 -1.9525348
4.0421872 -4.1892891 -1.953297
4.4336524 -3.7858105 -1.956183
4.6142869 -3.5699446 -1.9575217
4.8650489 -3.2299209 -1.9593893
4.943037 -3.1125176 -1.9599727
5.2887597 -2.4982412 -1.9625818
5.3487501 -2.3704584 -1.9630392
5.4055958 -2.2411983 -1.9634746
5.4592285 -2.1105661 -1.9638877
5.6413279 -1.575744 -1.9653111
5.7124314 -1.302127 -1.9658819
5.7429295 -1.1640606 -1.9661314
5.7700095 -1.025268 -1.9663568
5.7936521 -0.88583434 -1.9665579
5.8138671 -0.74584836 -1.9667348
5.7853317 0.94542235 -1.9669249
5.7604003 1.0846624 -1.9667795
5.7320604 1.2232336 -1.9666096
5.665195 1.4980322 -1.9661967
5.4913282 2.0358837 -1.9650817
5.3267579 2.4264085 -1.9639988
5.2655563 2.5537 -1.9635919
5.2012792 2.6794286 -1.9631628
5.0635548 2.9258587 -1.962238
4.9902148 3.0464165 -1.9617428
4.9139743 3.1651056 -1.9612268
4.8348532 3.2818542 -1.9606897
4.6681933 3.5092497 -1.9595538
4.490664 3.7280633 -1.9583386
4.3979783 3.8340886 -1.9577023
4.3027439 3.9377704 -1.9570471
4.205029 4.0390496 -1.9563737
4.0023923 4.2341828 -1.9549741
3.7906249 4.4190264 -1.9535066
3.1491113 4.4819975 -1.8379552
2.9937499 4.4872832 -1.8099649
2.8599412 4.5192337 -1.7944881
2.6362793 4.647891 -1.7929227
2.4068162 4.7653852 -1.7913134
2.2900684 4.8198614 -1.7904935
1.9327344 4.965899 -1.7879789
1.8114941 5.0086856 -1.7871242
1.4423339 5.1191154 -1.7845168
1.3177735 5.1498823 -1.7836356
1.1925195 5.1776056 -1.7827487
1.0667187 5.2022686 -1.7818573
0.94041991 5.223865 -1.7809614
0.55922848 5.2701774 -1.7782534
-0.078974605 5.2856193 -1.7737052
-0.20637695 5.27946 -1.7727952
-1.0871191 5.1512175 -1.7664835
-1.2104785 5.1209183 -1.7655966
-1.5753808 5.012476 -1.7629689
-1.695039 4.9705691 -1.7621058
-1.9309863 4.878284 -1.7604012
-2.0471582 4.8279643 -1.7595611
-2.3876367 4.6607013 -1.7570937
-2.4982226 4.599627 -1.7562909
-2.7240038 4.4854388 -1.7608846
-3.0182812 4.4682193 -1.809244
-3.1738672 4.4625125 -1.8374166
-3.6085155 4.3666935 -1.9007215
-3.7113769 4.2766495 -1.899967
-3.9103515 4.0894694 -1.8985041
-4.4501071 3.4751544 -1.8945116
-4.6096778 3.2543766 -1.8933221
-4.6854587 3.1412632 -1.8927553
-5.1375585 2.3046699 -1.889336
-5.1905661 2.1795642 -1.8889288
-5.2875681 1.9258465 -1.8881778
-5.331533 1.7973766 -1.8878344
-5.3724217 1.6679236 -1.8875124
-5.4449706 1.4063629 -1.8869343
-5.4765821 1.2743988 -1.8866781
-5.5303712 1.0084637 -1.8862326
-5.5873632 0.60564637 -1.8857324
-5.5999899 0.47062194 -1.8856109
-5.6094041 0.335343 -1.8855124
-5.6156344 0.19988953 -1.8854364
-5.6184959 -0.071262203 -1.8853527
-5.6151266 -0.20681091 -1.8853452
-5.6085348 -0.34224305 -1.8853608
-5.550293 -0.88131344 -1.8856506
-5.5277929 -1.0150518 -1.88578
-5.5021286 -1.1482311 -1.885932
-5.4414158 -1.4126104 -1.8863037
-5.4063768 -1.5436742 -1.8865229
-5.3682323 -1.6738904 -1.8867648
-5.2827635 -1.931488 -1.8873144
-5.2354784 -2.0587304 -1.887622
-5.1319141 -2.309747 -1.8883022
-5.0756931 -2.4333816 -1.8886744
-4.9544821 -2.6765695 -1.8894823
-4.8218751 -2.9138505 -1.8903729
-4.7513571 -3.0301111 -1.8908486
-4.5234275 -3.3685973 -1.8923957
-4.2718163 -3.6903064 -1.8941154
-4.0914841 -3.8946416 -1.8953539
-3.9015038 -4.0903196 -1.8966634
-3.7023242 -4.2768912 -1.8980405
-3.5994043 -4.3666186 -1.8987538
-3.4943163 -4.4539061 -1.899483
-3.1668162 -4.7006192 -1.9017613
-2.9388084 -4.8519807 -1.9033523
-2.8220799 -4.9235868 -1.9041684
-2.5835254 -5.0584431 -1.9058383
-2.3385937 -5.1818542 -1.9075564
-1.9604101 -5.3448758 -1.910216
-1.5707031 -5.4805388 -1.9129639
-1.3059765 -5.555377 -1.9148345
-0.49222654 -5.7028089 -1.9206041
-0.35463867 -5.7159386 -1.9215823
-0.078574218 -5.7322483 -1.9235473
0.47522458 -5.7248735 -1.9274991
0.61357421 -5.7146692 -1.9284881
0.75163084 -5.7011194 -1.929476
0.88943356 -5.6842313 -1.9304627
1.0268555 -5.6640019 -1.9314475
1.163789 -5.6404438 -1.9324298
1.5711328 -5.54988 -1.9353561
1.7054687 -5.5131054 -1.9363227
2.1028321 -5.3832617 -1.9391869
2.3623827 -5.2806506 -1.9410623
2.4902637 -5.2246032 -1.9419873
2.6168652 -5.1654296 -1.9429041
2.7420311 -5.1031642 -1.9438113
3.1082032 -4.8981552 -1.9464706
3.2269139 -4.8238683 -1.9473345
3.5719922 -4.5837522 -1.9498516
3.6830957 -4.4980965 -1.950664
3.7921093 -4.4097166 -1.9514621
3.8989646 -4.3186688 -1.9522455
4.205986 -4.0299926 -1.9545023
4.3987012 -3.8251767 -1.9559246
4.5812793 -3.611006 -1.9572766
4.668623 -3.5005674 -1.9579253
4.753242 -3.3879955 -1.9585551
4.8351269 -3.2733426 -1.9591658
5.1339746 -2.79531 -1.9614084
5.2655368 -2.545651 -1.9624048
5.3846874 -2.2897294 -1.9633143
5.4395409 -2.1595919 -1.9637359
5.5847168 -1.7615057 -1.9648639
5.6265235 -1.6265179 -1.9651936
5.6650195 -1.4905102 -1.9654999
5.7602634 -1.0772784 -1.9662753
5.7852049 -0.93806946 -1.9664855
5.8066893 -0.79827332 -1.9666713
5.8247557 -0.6579901 -1.9668329
5.8504586 -0.37626404 -1.9670817
5.862236 -0.093580931 -1.9672314
5.7125778 1.3095788 -1.9664907
5.6414843 1.5833069 -1.9660473
5.6009178 1.7187396 -1.9657894
5.4593749 2.1183691 -1.964873
5.2888184 2.5062609 -1.9637469
5.2256837 2.6325848 -1.9633261
4.8647852 3.2384131 -1.9608929
4.7838964 3.3539042 -1.960343
4.7002048 3.4673419 -1.9597725
4.6137791 3.5786724 -1.9591819
4.5246677 3.6878119 -1.9585718
4.1426268 4.101203 -1.9559432
4.0410252 4.1984553 -1.9552411
3.7130663 4.4633269 -1.9480716
3.5391502 4.4693179 -1.9128485
3.3711522 4.4749112 -1.879873
3.2086132 4.4801326 -1.8489965
3.0511034 4.4850054 -1.820083
2.7906053 4.5606794 -1.7940032
2.5650585 4.6858721 -1.7924237
2.4501269 4.7442694 -1.7916175
2.2163866 4.8524933 -1.7899755
1.977832 4.9491262 -1.7882966
1.8569628 4.9930267 -1.7874447
1.7351074 5.0339594 -1.7865852
1.4887598 5.1068268 -1.7848452
1.2394433 5.1675882 -1.7830812
0.86112303 5.2358184 -1.7803987
0.4794336 5.2763357 -1.7776858
0.2240918 5.2879047 -1.7758672
0.096376948 5.2890606 -1.7749568
-0.03125 5.287128 -1.7740459
-0.28598633 5.2740521 -1.7722261
-0.79134762 5.2112713 -1.7686071
-0.91639644 5.1880293 -1.7677097
-1.2872949 5.100451 -1.7650439
-1.4092773 5.0653872 -1.7641659
-1.887207 4.8963971 -1.7607177
-2.0038378 4.8471174 -1.7598746
-2.1192091 4.7950735 -1.7590395
-2.4570704 4.6227851 -1.7565898
-2.5667284 4.5600801 -1.755793
-2.6748047 4.4948015 -1.755007
-2.8117383 4.4754949 -1.7734491
-2.9612401 4.470264 -1.799172
-3.2737207 4.4587541 -1.8560206
-3.7745996 4.2190776 -1.8995025
-3.8738377 4.125186 -1.898773
-3.9707325 4.0289984 -1.8980596
-4.0653028 3.9305792 -1.897362
-4.3343945 3.6224213 -1.8953712
-4.4190822 3.5156207 -1.8947423
-4.7314939 3.0695844 -1.8924103
-4.8028321 2.9536829 -1.8918746
-4.9370799 2.7170739 -1.8908617
-4.9999509 2.596508 -1.8903853
-5.0599217 2.4745135 -1.8899293
-5.1169724 2.3511517 -1.8894937
-5.1710935 2.2265062 -1.8890786
-5.2222071 2.1006525 -1.888685
-5.2703419 1.9736505 -1.8883119
-5.3154392 1.845559 -1.8879604
-5.3574805 1.7164593 -1.8876306
-5.432363 1.4555475 -1.8870357
-5.4947753 1.1914417 -1.8865292
-5.5212598 1.0583942 -1.8863091
-5.5648141 0.7906329 -1.8859363
-5.5818067 0.65607053 -1.8857837
-5.5956445 0.52116394 -1.8856536
-5.6062694 0.38598022 -1.8855466
-5.6189356 -0.020541381 -1.8853613
-5.6027927 -0.42691162 -1.8853821
-5.5910153 -0.56199706 -1.8854345
-5.55791 -0.83114439 -1.8856081
-5.536582 -0.96507567 -1.8857291
-5.5121188 -1.0984796 -1.8858725
-5.4844923 -1.2312658 -1.8860384
-5.3828516 -1.6252893 -1.8866717
-5.2996778 -1.8836089 -1.8872049
-5.2535448 -2.0112479 -1.8875042
-5.2043457 -2.1377954 -1.8878256
-5.1521974 -2.2631643 -1.8881683
-5.0389938 -2.5100818 -1.8889183
-4.9780469 -2.6315079 -1.8893248
-4.9142089 -2.7514849 -1.8897521
-4.7780566 -2.9868 -1.8906684
-4.7058005 -3.1020291 -1.8911569
-4.6308398 -3.2155418 -1.8916651
-4.5531836 -3.3272653 -1.8921931
-4.2164354 -3.7551589 -1.8944952
-4.0330372 -3.9568365 -1.8957564
-3.9377735 -4.0543976 -1.8964131
-3.8401365 -4.1497083 -1.8970872
-3.5338867 -4.4215403 -1.8992083
-3.3190722 -4.5904865 -1.9007009
-3.0962791 -4.7491393 -1.902253
-2.9820116 -4.824492 -1.9030505
-2.865957 -4.8971224 -1.9038614
-2.6286621 -5.0340743 -1.9055221
-2.5075293 -5.0983062 -1.906371
-2.2607226 -5.2180805 -1.9081033
-2.1351366 -5.2735515 -1.9089862
-1.8799902 -5.3754687 -1.9107822
-1.4883887 -5.5053172 -1.913545
-1.2223241 -5.5761924 -1.9154263
-1.0878906 -5.6068463 -1.9163778
-0.81700194 -5.6584668 -1.918298
-0.68052733 -5.6794 -1.9192666
-0.13028321 -5.7302079 -1.9231791
0.1464453 -5.7356963 -1.9251516
0.28498048 -5.7334352 -1.9261401
0.42344725 -5.727829 -1.927129
0.56177735 -5.7188764 -1.9281178
0.70000976 -5.7065797 -1.9291066
1.7890723 -5.4884291 -1.9369247
1.9220312 -5.4463563 -1.9378829
2.0537696 -5.4010472 -1.9388331
2.3141797 -5.3008118 -1.9407138
2.6953712 -5.126812 -1.943473
2.8195899 -5.062633 -1.9443738
3.0633397 -4.9251909 -1.9461443
3.300293 -4.7758975 -1.9478692
3.641748 -4.5304585 -1.9503616
3.7515721 -4.4431005 -1.9511653
4.0679393 -4.1650615 -1.9534864
4.2673535 -3.966939 -1.9549547
4.3634181 -3.8642111 -1.9556639
4.4569626 -3.7591362 -1.9563556
4.5479298 -3.6517525 -1.9570293
4.6362791 -3.5421429 -1.9576849
4.8849411 -3.2005434 -1.9595381
4.9622264 -3.082655 -1.9601165
5.036582 -2.9628606 -1.9606749
5.1080079 -2.8412557 -1.9612128
5.1764646 -2.7178838 -1.9617295
5.2418456 -2.5928509 -1.962225
5.3633595 -2.3380477 -1.9631511
5.6112695 -1.6771417 -1.9650729
5.7204199 -1.2674353 -1.9659469
5.8183985 -0.71052122 -1.9667752
5.8342872 -0.56997132 -1.9669213
5.8615427 0.13643311 -1.9672803
5.8565431 0.27783203 -1.9672775
5.8360739 0.56002927 -1.9671971
5.8206348 0.70065308 -1.9671197
5.7243848 1.2580041 -1.9665629
5.6917868 1.3956262 -1.9663624
5.6164746 1.6681933 -1.9658886
5.5738087 1.8029699 -1.9656157
5.5278516 1.9366504 -1.9653192
5.4786134 2.0691254 -1.9649987
5.4261618 2.2003374 -1.9646552
5.3704882 2.3301818 -1.9642882
5.3116407 2.4585943 -1.9638985
5.2496777 2.5855072 -1.9634861
5.1846094 2.710819 -1.9630511
5.1164942 2.8344738 -1.9625943
4.8943162 3.1946831 -1.9610934
4.7318358 3.4251518 -1.9599882
4.6464257 3.5372796 -1.9594052
4.55832 3.6472392 -1.9588025
4.4675779 3.7549772 -1.9581802
4.1800389 4.064168 -1.9562014
4.0792871 4.1623712 -1.9555056
3.9762402 4.258028 -1.9547929
3.7633398 4.4415469 -1.9533172
3.6034863 4.4671245 -1.9257571
3.2687891 4.4782233 -1.8603098
3.1094627 4.4832244 -1.8306768
2.9577637 4.4922452 -1.8046856
2.8321092 4.5360379 -1.7942935
2.6076953 4.6633048 -1.7927226
2.3775291 4.7793717 -1.7911079
2.0227928 4.9319415 -1.7886134
1.7808105 5.0189924 -1.7869078
1.6583886 5.0580559 -1.7860436
1.4110546 5.1271439 -1.7842956
1.2862793 5.1571488 -1.7834127
0.78169918 5.2465644 -1.7798349
0.52712888 5.2727995 -1.7780252
0.39956054 5.2812834 -1.7771173
-0.11106445 5.2843561 -1.7734761
-0.23842773 5.277432 -1.7725662
-0.36549804 5.267437 -1.7716573
-1.1182715 5.1438689 -1.7662597
-1.6055957 5.0021939 -1.762751
-1.7249902 4.9595733 -1.7618896
-1.8432519 4.9141202 -1.7610354
-1.9603418 4.8658719 -1.7601891
-2.1907423 4.7611198 -1.7585216
-2.3039062 4.7046747 -1.757701
-2.5258887 4.583837 -1.7560897
-2.7587695 4.4805131 -1.7654954
-2.9048145 4.472259 -1.7893497
-3.0570018 4.4668145 -1.8161619
-3.5301464 4.4324675 -1.9012958
-3.6346092 4.3442535 -1.9005302
-3.7369041 4.2535977 -1.8997797
-3.934746 4.0652494 -1.8983245
-4.1232615 3.8678508 -1.896934
-4.2139063 3.7659075 -1.8962637
-4.6290135 3.2260578 -1.8931776
-4.846035 2.8803105 -1.8915492
-4.9767771 2.6417828 -1.8905612
-5.0378222 2.5203125 -1.8900976
-5.0959668 2.3974528 -1.8896542
-5.2034473 2.1478722 -1.8888296
-5.2526951 2.0212896 -1.8884487
-5.3421092 1.7648754 -1.8877515
-5.4192772 1.5046093 -1.8871405
-5.4532127 1.3732007 -1.8868679
-5.4840426 1.2410638 -1.8866171
-5.5362597 0.9748199 -1.8861828
-5.5576172 0.84087706 -1.8859994
-5.6026559 0.43657896 -1.8855841
-5.6063867 -0.3763153 -1.8853681
-5.5820312 -0.64638978 -1.8854791
-5.5650778 -0.78092468 -1.8855685
-5.5449414 -0.91503662 -1.8856809
-5.5216403 -1.0486341 -1.8858161
-5.4655857 -1.3140363 -1.8861542
-5.1180372 -2.3409979 -1.8883938
-4.8043847 -2.9432757 -1.8904907
-4.7331638 -3.0591261 -1.8909718
-4.6592088 -3.1732762 -1.8914727
-4.5825486 -3.2856843 -1.8919934
-4.5032225 -3.3962603 -1.8925332
-4.4212599 -3.5049689 -1.8930926
-4.3367186 -3.6117291 -1.8936706
-4.1600976 -3.8191891 -1.8948822
-3.8769433 -4.1143155 -1.8968328
-3.676621 -4.299706 -1.8982186
-3.4675391 -4.4754896 -1.8996688
-3.2501659 -4.6412559 -1.9011806
-3.1385252 -4.7202625 -1.9019586
-2.792412 -4.9411821 -1.9043756
-2.5530372 -5.0746121 -1.9060519
-2.4309473 -5.1370411 -1.9069083
-2.3073339 -5.1965685 -1.907776
-2.1822851 -5.2531419 -1.9086547
-1.9281055 -5.3573241 -1.9104434
-1.6689745 -5.4493113 -1.9122702
-1.405498 -5.5288634 -1.9141308
-1.1383008 -5.5957537 -1.9160209
-1.0034375 -5.6243925 -1.9169761
-0.73161131 -5.6719532 -1.9189039
-0.5948633 -5.6908336 -1.9198748
0.094648436 -5.7356863 -1.9247822
0.51009762 -5.7226171 -1.9277483
0.64833981 -5.7115731 -1.9287368
0.7863574 -5.6971827 -1.9297247
1.061416 -5.6583829 -1.9316953
1.1982031 -5.633986 -1.9326767
1.4701366 -5.5752487 -1.9346298
1.7391015 -5.5033326 -1.9365649
2.2658398 -5.3205266 -1.9403644
2.3946972 -5.2668347 -1.941296
2.5222948 -5.2099962 -1.9422191
2.7733006 -5.0870013 -1.944038
3.1382518 -4.8797288 -1.9466892
3.9255176 -4.2953281 -1.9524401
4.1313572 -4.1041212 -1.9539529
4.422256 -3.7987144 -1.9560989
4.5141892 -3.6921945 -1.9567795
4.6901951 -3.4724302 -1.9580858
4.7741308 -3.3593173 -1.9587108
4.8552928 -3.2441518 -1.9593164
5.0091014 -3.0079019 -1.9604684
5.0816307 -2.8869569 -1.9610138
5.2177439 -2.6398172 -1.9620422
5.3988085 -2.2570908 -1.9634225
5.4528513 -2.1266098 -1.9638385
5.5955567 -1.7276165 -1.9649491
5.6741796 -1.4561138 -1.9655731
5.7084765 -1.3189685 -1.9658498
5.8115525 -0.76300538 -1.9667141
5.8287497 -0.62259644 -1.9668695
5.8424706 -0.48181152 -1.9670001
5.8627343 -0.057958983 -1.9672433
5.8625293 0.083515622 -1.9672748
5.8588181 0.22495483 -1.9672813
5.8516307 0.36624756 -1.9672629
5.8409472 0.50733089 -1.9672195
5.8091989 0.78845578 -1.9670587
5.7881541 0.92834777 -1.966941
5.7636228 1.0676575 -1.9667983
5.5901661 1.7526776 -1.9657208
5.4974217 2.0197105 -1.9651214
5.3916798 2.2817712 -1.9644283
5.334033 2.410728 -1.9640471
5.2093067 2.6641326 -1.9632165
4.7630663 3.3826654 -1.960201
4.5916014 3.6063616 -1.9590302
4.5018263 3.7149298 -1.9584152
4.3145313 3.9252129 -1.9571283
4.2170997 4.026794 -1.956457
4.0150485 4.2225432 -1.9550614
3.9105566 4.3165922 -1.9543382
3.8038378 4.4080276 -1.9535983
3.6687012 4.4648762 -1.9389842
3.4962988 4.4707637 -1.9043391
3.1684961 4.4813933 -1.8415362
3.0121875 4.4861832 -1.8130987
2.6556151 4.6499457 -1.7967325
2.5362499 4.700839 -1.7922217
2.4210155 4.7585173 -1.7914132
2.3044336 4.8133526 -1.7905945
2.0675976 4.9143462 -1.7889287
1.9474902 4.9604583 -1.7880828
1.7042773 5.0437908 -1.7863678
1.5812891 5.0809746 -1.7854992
1.4575585 5.1151419 -1.7846246
1.3330274 5.1462836 -1.7837437
1.0821289 5.1994157 -1.7819666
0.57483399 5.2688336 -1.7783645
-0.19078125 5.2803802 -1.7729067
-0.3180078 5.2715364 -1.7719972
-0.44487303 5.2596331 -1.7710894
-0.57134765 5.2446809 -1.770184
-0.69738281 5.2266998 -1.7692809
-0.82287109 5.2057014 -1.7683809
-1.0719726 5.1547208 -1.7665924
-1.1954492 5.1247773 -1.7657048
-1.5606543 5.0174079 -1.7630751
-1.6804395 4.9758463 -1.7622111
-1.7991503 4.9314532 -1.761354
-2.1480467 4.7815399 -1.7588307
-2.4847949 4.6072392 -1.7563883
-2.8489842 4.4742069 -1.7797662
-2.9995508 4.4688921 -1.805923
-3.5957811 4.3775382 -1.9008149
-3.6988866 4.2877994 -1.9000585
-3.9947753 4.0044231 -1.8978823
-4.0887403 3.9054472 -1.897189
-4.5214257 3.3791852 -1.8939805
-4.8881836 2.8063195 -1.8912313
-4.9532032 2.6868548 -1.8907397
-5.0745702 2.4435778 -1.8898176
-5.1842284 2.1949401 -1.8889776
-5.2346287 2.0687804 -1.8885888
-5.2819824 1.9414984 -1.8882214
-5.3263083 1.8131452 -1.8878753
-5.367578 1.6838158 -1.887551
-5.4057908 1.5535541 -1.8872479
-5.5017481 1.1580077 -1.8864715
-5.5693846 0.75679016 -1.885896
-5.5986032 0.48714721 -1.8856246
-5.6150389 0.216474 -1.8854443
-5.6186814 -0.054672852 -1.8853552
-5.6157031 -0.19023377 -1.8853451
-5.6095214 -0.32567748 -1.8853576
-5.5307226 -0.9987213 -1.8857629
-5.5054588 -1.1319641 -1.8859122
-5.4770212 -1.2645972 -1.886084
-5.2414255 -2.0432174 -1.8875833
-5.1914845 -2.1694741 -1.88791
-5.1386032 -2.2945256 -1.888258
-5.0239258 -2.5407839 -1.8890185
-4.7601171 -3.0159752 -1.8907894
-4.6871872 -3.1307733 -1.8912829
-4.6115332 -3.2438376 -1.8917962
-4.2825193 -3.6775377 -1.894042
-4.1938868 -3.7810211 -1.8946501
-4.1027927 -3.8823879 -1.8952762
-3.9133983 -4.0786099 -1.8965812
-3.7147753 -4.2657485 -1.8979543
-3.612119 -4.3557692 -1.8986658
-3.5072851 -4.4433632 -1.899393
-3.2914453 -4.6110306 -1.9008932
-3.1805174 -4.6910143 -1.9016659
-2.8364649 -4.9149809 -1.9040676
-2.7182324 -4.9841537 -1.9048948
-2.5983105 -5.0505195 -1.9057345
-2.3537304 -5.1746445 -1.9074502
-1.9760547 -5.3387666 -1.9101058
-1.8475391 -5.3874292 -1.911011
-1.586953 -5.4755545 -1.9128491
-1.3222754 -5.551168 -1.9147192
-0.9186523 -5.640676 -1.9175771
-0.78268552 -5.664042 -1.9185413
-0.64612305 -5.6841502 -1.9195107
-0.50907224 -5.7009778 -1.9204843
-0.37150389 -5.7145066 -1.9214624
0.18136719 -5.7354417 -1.9254006
0.31981444 -5.732338 -1.9263889
0.5966211 -5.7160959 -1.928367
0.7347461 -5.7029581 -1.9293551
1.0100293 -5.6666565 -1.9313269
1.9551855 -5.4352436 -1.938122
2.3466308 -5.2872925 -1.9409485
2.4747069 -5.2316308 -1.9418746
2.6014647 -5.1728296 -1.9427927
2.8506348 -5.0459909 -1.9445992
2.9729199 -4.9780145 -1.9454871
3.0935547 -4.9070454 -1.946364
3.3296289 -4.7562757 -1.948083
3.444912 -4.6765728 -1.9489237
3.7788963 -4.4206762 -1.9513654
4.2917676 -3.9413002 -1.9551349
4.3872266 -3.8379636 -1.9558398
4.4800978 -3.732321 -1.9565268
4.6580958 -3.5141971 -1.9578471
4.8252831 -3.287462 -1.9590924
4.9046679 -3.171062 -1.9596857
4.9812207 -3.0526683 -1.9602591
5.0548434 -2.9324226 -1.9608122
5.193203 -2.6865578 -1.9618564
5.3777733 -2.305532 -1.9632614
5.4850488 -2.0442748 -1.9640871
5.5793748 -1.7779522 -1.9648221
5.6605077 -1.5071918 -1.9654639
5.6960545 -1.3703754 -1.9657491
5.7569823 -1.0942688 -1.9662478
5.8377442 -0.53450805 -1.9669541
5.8573437 -0.25228819 -1.9671596
5.8619041 -0.11089233 -1.967225
5.8453612 0.4545764 -1.9672388
5.8325 0.59548765 -1.9671798
5.7964454 0.87608272 -1.9669878
5.7732129 1.015614 -1.9668548
5.7465625 1.1545227 -1.9666971
5.7165136 1.2927448 -1.9665148
5.6462207 1.5666651 -1.9660772
5.6060643 1.7022185 -1.9658225
5.5157714 1.9701227 -1.9652407
5.465703 2.1022875 -1.9649146
5.4124513 2.2331524 -1.964565
5.2963181 2.4906836 -1.9637966
5.1677341 2.7421148 -1.9629382
5.0988669 2.8653276 -1.9624757
4.8744726 3.2241411 -1.9609588
4.7939258 3.3399005 -1.9604113
4.7105856 3.4535747 -1.9598433
4.6244922 3.5651739 -1.9592552
4.5357127 3.6745782 -1.9586474
4.4442968 3.7817364 -1.9580204
4.1549025 4.0891314 -1.9560277
4.0535841 4.1866875 -1.955328
3.8440039 4.3741326 -1.9538769
3.5600781 4.4686079 -1.9170349
3.3913574 4.4742508 -1.8837878
3.2282128 4.479516 -1.8526666
3.0700977 4.4844294 -1.8235171
2.9219823 4.4971333 -1.7994823
2.8041992 4.552659 -1.7940984
2.5790234 4.6785274 -1.7925215
2.4642773 4.7372732 -1.7917169
2.3481836 4.7931743 -1.7909019
2.1122558 4.8963447 -1.7892431
1.8717968 4.987813 -1.7875494
1.7500585 5.0291157 -1.7866908
1.6274512 5.0674152 -1.7858251
1.5039355 5.1027179 -1.7849525
1.3797168 5.1349883 -1.7840739
1.2547948 5.1642218 -1.7831898
0.87662107 5.2335758 -1.7805089
0.62249023 5.2644291 -1.7787032
0.4950293 5.2752261 -1.7777967
0.36740234 5.2829328 -1.7768883
0.11198242 5.2890849 -1.775068
-0.14314453 5.2829008 -1.7732469
-0.39744139 5.2644415 -1.7714289
-0.65028322 5.2337823 -1.7696185
-0.90112305 5.1910281 -1.7678193
-1.0255761 5.1651654 -1.7669258
-1.3944141 5.0698309 -1.7642729
-1.5155957 5.0322175 -1.7633997
-1.6357714 4.9917278 -1.7625332
-1.754873 4.9483929 -1.7616737
-2.4490137 4.6405997 -1.7606082
-2.7937207 4.4761124 -1.7704165
-2.9427049 4.470921 -1.7959323
-3.096035 4.4653897 -1.8232
-3.4171386 4.4532304 -1.8834231
-3.5566797 4.4104767 -1.9011014
-3.6605663 4.3216619 -1.9003397
-3.9590039 4.0408916 -1.898146
-4.0538769 3.9427228 -1.8974464
-4.1463184 3.8423979 -1.8967636
-4.2363377 3.7399065 -1.8960978
-4.4088573 3.5287969 -1.8948182
-4.4912696 3.420269 -1.8942051
-4.5710545 3.3098674 -1.8936105
-4.6481638 3.1976404 -1.8930343
-4.9924121 2.6113367 -1.8904426
-5.1101561 2.3663096 -1.8895458
-5.164629 2.2418244 -1.8891283
-5.2646093 1.9892535 -1.8883563
-5.3100977 1.8612787 -1.8880023
-5.3918653 1.6023943 -1.8873587
-5.4281344 1.4715844 -1.8870697
-5.4612889 1.3400189 -1.8868027
-5.5419235 0.94114989 -1.8861346
-5.5625 0.80706114 -1.8859566
-5.5941014 0.53769165 -1.8856686
-5.6051364 0.40250975 -1.8855585
-5.617197 -0.13952392 -1.8853461
-5.6122069 -0.27503845 -1.8853503
-5.6040134 -0.41035217 -1.8853772
-5.5780468 -0.68029416 -1.8854995
-5.5393653 -0.94872862 -1.8857129
-5.5152731 -1.0821875 -1.8858539
-5.3478613 -1.7391174 -1.8868948
-5.3051267 -1.8679168 -1.8871696
-5.210537 -2.1223824 -1.887785
-5.15874 -2.2478893 -1.8881253
-5.1039453 -2.3721831 -1.8884872
-4.9221873 -2.7368853 -1.8896987
-4.8558593 -2.8555269 -1.890144
-4.7866893 -2.9726086 -1.89061
-4.6401563 -3.2017419 -1.8916019
-4.4828415 -3.4238031 -1.8926722
-4.2273536 -3.7425439 -1.8944204
-4.1371484 -3.8447249 -1.8950399
-4.0445509 -3.9447393 -1.895677
-3.9495409 -4.0425868 -1.896332
-3.8522069 -4.1381712 -1.8970038
-3.7526073 -4.2314472 -1.8976926
-3.5467479 -4.4108834 -1.8991189
-3.3324511 -4.5804386 -1.9006078
-3.1101074 -4.7397413 -1.9021566
-2.9960938 -4.815414 -1.9029522
-2.5224316 -5.090601 -1.9062665
-2.399961 -5.1523046 -1.9071257
-2.1505761 -5.2669282 -1.9088778
-1.7664746 -5.4163408 -1.9115824
-1.6362109 -5.4600224 -1.9125012
-0.96935546 -5.6310973 -1.9172176
-0.83359373 -5.6556821 -1.9181802
-0.42300782 -5.7098346 -1.9210962
-0.28523436 -5.721293 -1.9220761
-0.0089160157 -5.7342577 -1.9240439
0.40646484 -5.7286954 -1.9270077
0.54490232 -5.7201519 -1.9279971
0.68316406 -5.7082629 -1.928986
0.8210547 -5.6930323 -1.9299731
0.95866209 -5.6744614 -1.9309589
1.0958886 -5.652554 -1.9319427
1.2325976 -5.6273246 -1.9329236
2.0376952 -5.4067583 -1.938717
2.1686034 -5.3586302 -1.939662
2.2983985 -5.3073087 -1.9405997
2.680078 -5.1344604 -1.9433621
3.1682031 -4.8611145 -1.9469072
3.516084 -4.6252394 -1.9494433
3.6281934 -4.5409636 -1.9502625
3.9519529 -4.2718239 -1.9526342
4.0554295 -4.1768527 -1.9533944
4.1566114 -4.0793405 -1.9541388
4.2554297 -3.9793429 -1.9548669
4.4456348 -3.7721062 -1.9562716
4.5369239 -3.66501 -1.9569477
4.625586 -3.5556717 -1.9576056
4.9529099 -3.0971847 -1.960047
5.1682324 -2.7330718 -1.9616673
5.234004 -2.6082399 -1.9621655
5.4659376 -2.0935605 -1.9639394
5.5159669 -1.9614559 -1.9643271
5.6061912 -1.6936578 -1.9650329
5.646328 -1.5581493 -1.9653507
5.7466111 -1.1461303 -1.9661617
5.7964649 -0.86775327 -1.9665823
5.8325486 -0.58717954 -1.9669049
5.8453708 -0.44630858 -1.9670291
5.8630075 -0.022334594 -1.9672537
5.8619142 0.11913574 -1.9672787
5.8226953 0.68347776 -1.9671304
5.8042188 0.82372922 -1.9670312
5.7822948 0.96347165 -1.9669073
5.7569337 1.1026477 -1.966759
5.7281251 1.2411224 -1.9665856
5.6604004 1.515689 -1.9661666
5.4848142 2.0529816 -1.9650394
5.432744 2.1843407 -1.9646984
5.377461 2.3143804 -1.9643344
5.1927342 2.6955712 -1.9631057
5.1249704 2.8194475 -1.9626511
4.9039063 3.1803222 -1.9611584
4.8243942 3.2968266 -1.9606185
4.7420897 3.4112945 -1.9600581
4.4787989 3.7419231 -1.9582571
4.3857813 3.8476446 -1.9576184
4.1922069 4.0519819 -1.9562854
3.988955 4.2464705 -1.954881
3.8838964 4.3398614 -1.9541534
3.7766113 4.4306245 -1.9534092
3.6247363 4.4663944 -1.9300479
3.2886326 4.4775882 -1.8640689
2.9752343 4.4898419 -1.8072418
2.621582 4.6558366 -1.7928197
2.274873 4.8267069 -1.7903868
2.0374608 4.92623 -1.7887167
1.7957226 5.0140128 -1.7870129
1.6733984 5.0534368 -1.7861497
1.5502441 5.0898623 -1.7852796
1.1762695 5.1809735 -1.7826337
1.0503906 5.2052383 -1.7817416
0.67012691 5.2595954 -1.779042
0.5427441 5.2715483 -1.7781363
0.41516602 5.2804141 -1.7772284
0.28749022 5.2861896 -1.776319
-0.095468745 5.2849946 -1.7735873
-0.47676757 5.2561541 -1.7708611
-0.97911131 5.1751871 -1.7672595
-1.4703614 5.0466266 -1.7637259
-2.0620995 4.8212495 -1.7594529
-2.2901268 4.711729 -1.7578011
-2.5125487 4.5915265 -1.7561868
-2.6213574 4.5275297 -1.7553958
-2.7420311 4.4829168 -1.7632438
-3.1943555 4.4617472 -1.841199
-3.5172362 4.4430876 -1.9013903
-3.6219628 4.3551712 -1.9006228
-3.7245214 4.2648234 -1.8998704
-3.8248339 4.1720953 -1.8991332
-3.9229198 4.0770307 -1.8984116
-4.0186524 3.9797087 -1.8977063
-4.2029591 3.7784965 -1.8963449
-4.2914352 3.6746953 -1.8956896
-4.5415134 3.3513982 -1.8938308
-4.6196289 3.2398443 -1.8932476
-4.9048142 2.7763927 -1.8911058
-5.0305271 2.5352423 -1.8901531
-5.0890231 2.4125562 -1.8897073
-5.197207 2.1632733 -1.8888775
-5.2934275 1.9092779 -1.8881323
-5.3370018 1.7806817 -1.8877915
-5.3775001 1.6510906 -1.8874725
-5.4804296 1.2572705 -1.8866469
-5.5085058 1.1245348 -1.8864157
-5.5334277 0.99116576 -1.8862067
-5.5551853 0.85728085 -1.8860204
-5.57375 0.7229321 -1.8858569
-5.6162109 0.1823474 -1.8854281
-5.6182323 -0.088822022 -1.8853506
-5.6144528 -0.22435242 -1.8853461
-5.6074705 -0.35975891 -1.8853643
-5.5972753 -0.49496216 -1.8854055
-5.5838866 -0.62991452 -1.8854697
-5.5673046 -0.76449585 -1.8855565
-5.5246582 -1.0323156 -1.8857985
-5.4693847 -1.2978857 -1.8861307
-5.3630762 -1.6906725 -1.8867975
-5.3214645 -1.8198614 -1.8870643
-5.2291503 -2.0751193 -1.8876632
-5.124795 -2.325834 -1.8883493
-4.9462695 -2.6921022 -1.8895373
-4.8129001 -2.9289956 -1.8904333
-4.7420216 -3.0450368 -1.8909118
-4.6684179 -3.1593993 -1.8914102
-4.5920606 -3.2720144 -1.8919287
-4.079463 -3.9075766 -1.8954366
-3.9853516 -4.0062385 -1.8960849
-3.3731346 -4.5495 -1.9003249
-3.2636914 -4.6314197 -1.9010863
-2.6881738 -5.0011292 -1.9051052
-2.5678711 -5.0667753 -1.905948
-2.4459667 -5.1295557 -1.9068028
-2.3225293 -5.1894455 -1.9076693
-2.1976464 -5.246388 -1.9085467
-1.8149608 -5.3992133 -1.9112405
-1.6848828 -5.4440413 -1.9121579
-1.5537695 -5.4857645 -1.9130832
-1.4217578 -5.524354 -1.9140159
-1.2886719 -5.5597887 -1.9149569
-1.1547265 -5.5920291 -1.9159048
-0.88447261 -5.6468639 -1.9178194
-0.74834961 -5.6694126 -1.9187851
-0.61164063 -5.6886945 -1.9197555
-0.33683592 -5.7173953 -1.9217089
-0.19889648 -5.7267795 -1.9226905
0.21620117 -5.7349749 -1.9256494
0.35469726 -5.7310319 -1.926638
0.7695117 -5.6991234 -1.9296038
0.90717769 -5.6817999 -1.9305899
1.0445995 -5.6611371 -1.9315748
1.9884374 -5.4239397 -1.9383618
2.1197557 -5.3770165 -1.9393092
2.3790038 -5.273571 -1.9411825
2.5067577 -5.2171183 -1.9421067
3.1236522 -4.8887076 -1.9465832
3.2421679 -4.8140345 -1.9474456
3.3588378 -4.7364769 -1.9482958
3.4736426 -4.6560559 -1.9491334
3.9126365 -4.3066931 -1.9523457
4.0169725 -4.2126884 -1.9531119
4.21875 -4.0170307 -1.9545965
4.3160253 -3.9155071 -1.9553138
4.4108396 -3.8115926 -1.9560144
4.5030761 -3.7053523 -1.956697
4.5927539 -3.5968246 -1.9573618
4.6797361 -3.486114 -1.9580079
4.7640138 -3.3732693 -1.9586353
5.0000391 -3.0225649 -1.9604003
5.1428514 -2.779355 -1.9614755
5.4464064 -2.1426611 -1.9637887
5.4976268 -2.0110073 -1.9641846
5.5903125 -1.7440935 -1.964908
5.6316991 -1.6089703 -1.9652346
5.6697755 -1.4728235 -1.9655378
5.7044625 -1.3357849 -1.9658169
5.7357812 -1.1979132 -1.9660727
5.7636914 -1.0592968 -1.9663038
5.7881837 -0.91999388 -1.966511
5.8092284 -0.780141 -1.9666936
5.8268356 -0.63980103 -1.9668519
5.8409762 -0.49905822 -1.9669855
5.8627243 0.066202395 -1.9672722
5.8594627 0.20764038 -1.9672817
5.8287401 0.6308862 -1.9671612
5.7393064 1.1893927 -1.9666533
5.6740918 1.4646088 -1.9662522
5.5954003 1.7361908 -1.9657544
5.5034766 2.0035217 -1.9651607
5.3985252 2.2658923 -1.9644734
5.3412499 2.3950281 -1.964095
5.2808299 2.5226886 -1.9636936
5.2172852 2.6488194 -1.9632699
5.1506739 2.7733037 -1.9628237
5.0810547 2.8960783 -1.9623557
5.0084567 3.0170844 -1.9618661
4.9329004 3.1362524 -1.961355
4.8544922 3.2534747 -1.9608231
4.6891599 3.4818742 -1.9596972
4.512949 3.7017753 -1.9584914
4.4208984 3.8083587 -1.9578598
4.3262792 3.9126165 -1.9572091
4.2291503 4.0145035 -1.9565402
4.1295996 4.1139326 -1.9558532
3.5170703 4.4700651 -1.9084576
3.3497949 4.4756083 -1.8757614
2.8868651 4.5027447 -1.7946763
2.6638865 4.632741 -1.7931161
2.4351659 4.7516193 -1.7915126
2.2010741 4.8591022 -1.789868
1.9622461 4.9549775 -1.7881869
1.8412304 4.9984918 -1.787334
1.472705 5.1111274 -1.7847317
1.3483007 5.1426325 -1.7838517
1.0975586 5.1965156 -1.7820758
0.97132808 5.2188663 -1.7811809
0.71772462 5.2543316 -1.7793803
0.46289062 5.2774577 -1.7775682
0.33526367 5.2843866 -1.7766595
0.20754883 5.2882295 -1.7757494
0.079853512 5.2889838 -1.7748388
-0.42935547 5.2612529 -1.7712005
-0.68199217 5.229064 -1.7693912
-0.9325195 5.1848001 -1.7675941
-1.0568163 5.1581864 -1.7667013
-1.4249902 5.0606341 -1.7640527
-1.5459374 5.0222955 -1.7631811
-1.6658789 4.981082 -1.7623161
-1.7846777 4.9370365 -1.7614584
-1.9023827 4.8901763 -1.7606082
-2.0188477 4.8405328 -1.7597659
-2.1340528 4.7881379 -1.7589321
-2.2479002 4.7330289 -1.7581073
-2.5808105 4.5517683 -1.7556906
-2.6909862 4.4901519 -1.7564657
-2.8308399 4.4748359 -1.7766832
-2.9808886 4.4695611 -1.8026282
-3.1353514 4.4639421 -1.830349
-3.6863866 4.2989078 -1.9001504
-3.9831152 4.0163836 -1.8979684
-4.077363 3.9176788 -1.8972731
-4.4298534 3.5016534 -1.8946621
-4.5907321 3.281776 -1.8934635
-4.7408886 3.054677 -1.8923397
-4.8118458 2.9385705 -1.8918066
-5.0674901 2.4586236 -1.8898716
-5.1778612 2.2102849 -1.8890266
-5.2286229 2.0842779 -1.8886352
-5.3626952 1.699682 -1.8875893
-5.401279 1.5695404 -1.8872839
-5.4367676 1.4385455 -1.8870004
-5.4691305 1.3067449 -1.8867389
-5.4983788 1.174256 -1.8864994
-5.5671678 0.77325439 -1.8859155
-5.5738864 -0.71418214 -1.8855213
-5.5553222 -0.84850705 -1.8856224
-5.5335836 -0.98238826 -1.8857462
-5.5087109 -1.1157049 -1.8858926
-5.4806738 -1.2484057 -1.8860617
-5.4152246 -1.5116748 -1.8864672
-5.377861 -1.6421216 -1.8867035
-5.3373923 -1.771643 -1.8869619
-5.2938766 -1.9001874 -1.8872424
-5.1977634 -2.1541011 -1.8878688
-5.0897169 -2.4032526 -1.8885815
-5.0312696 -2.5258744 -1.8889697
-4.9699411 -2.6471291 -1.8893789
-4.9057422 -2.7669029 -1.8898089
-4.6962595 -3.1168263 -1.8912215
-4.3790135 -3.5589867 -1.8933814
-4.2931933 -3.664742 -1.8939688
-4.2048631 -3.7684679 -1.8945745
-4.1140623 -3.8700988 -1.8951986
-3.9252441 -4.0668712 -1.8964996
-3.8273535 -4.1618776 -1.8971756
-3.7271678 -4.2545657 -1.8978686
-3.6247852 -4.3448801 -1.8985778
-3.413584 -4.5181904 -1.9000437
-3.304873 -4.601068 -1.9007999
-3.0815723 -4.759047 -1.9023558
-2.3688965 -5.1673827 -1.9073437
-2.118789 -5.2805047 -1.9091012
-1.9916797 -5.3325963 -1.9099957
-1.73375 -5.4276309 -1.9118131
-1.0705175 -5.6105738 -1.9165012
-0.52583009 -5.6990933 -1.9203652
0.025908202 -5.7349458 -1.924292
0.30292967 -5.7328992 -1.9262682
0.4413574 -5.7268586 -1.9272571
0.5797168 -5.7174754 -1.9282461
0.71782225 -5.7047458 -1.9292339
0.85574216 -5.6886697 -1.9302216
0.99327147 -5.6692576 -1.9312069
1.1303515 -5.6465158 -1.9321899
1.2668945 -5.6204476 -1.9331698
1.5381249 -5.5583768 -1.9351187
1.6726855 -5.5224071 -1.9360867
1.8064452 -5.4831657 -1.93705
1.9391112 -5.4406648 -1.9380059
2.201416 -5.3460064 -1.939899
2.4591112 -5.2386112 -1.9417617
2.5860155 -5.1801915 -1.9426806
2.7115331 -5.1186795 -1.9435902
2.9580371 -4.986496 -1.945379
3.0789063 -4.9158769 -1.9462576
3.4308887 -4.6864786 -1.9488215
3.5445116 -4.604279 -1.9496509
3.7656152 -4.4315958 -1.9512681
3.8730078 -4.3411975 -1.9520553
3.9782226 -4.2481523 -1.9528271
4.6475 -3.5277941 -1.9577686
4.7328219 -3.4157405 -1.9584029
4.8153806 -3.3015687 -1.9590183
4.8951173 -3.1853924 -1.9596142
4.9720216 -3.0672569 -1.9601901
5.0459962 -2.9472325 -1.9607455
5.1850877 -2.7017932 -1.9617947
5.2500978 -2.5765491 -1.9622875
5.3708005 -2.3213403 -1.963208
5.4264159 -2.1915555 -1.9636346
5.478828 -2.0604122 -1.9640391
5.5739646 -1.7943816 -1.9647796
5.6559081 -1.5238714 -1.965427
5.7244434 -1.2495947 -1.9659797
5.8017578 -0.83253479 -1.9666281
5.8480468 -0.41079101 -1.9670565
5.8615527 -0.12819885 -1.9672186
5.861084 0.15475281 -1.9672811
5.8556247 0.29612365 -1.967275
5.8466892 0.43731445 -1.9672443
5.8342772 0.57824033 -1.9671885
5.8183689 0.71883726 -1.9671078
5.7762399 0.99857175 -1.9668723
5.7203612 1.2758728 -1.9665383
5.6508985 1.5500085 -1.9661068
5.6111426 1.6856854 -1.9658548
5.5680466 1.8203485 -1.9655789
5.5216599 1.9538678 -1.9652789
5.472002 2.0861804 -1.9649557
5.4191403 2.2172112 -1.964609
5.3037987 2.4751196 -1.9638464
5.241406 2.6018176 -1.963431
5.1759567 2.7269158 -1.9629933
4.8841405 3.2098424 -1.9610244
4.7209177 3.4397931 -1.9599137
4.5467286 3.661309 -1.9587228
4.4556446 3.7687457 -1.9580984
4.3619533 3.8739007 -1.9574544
4.2657714 3.9766681 -1.9567926
4.0661035 4.1748881 -1.9554145
3.749248 4.4530559 -1.9532193
3.5811327 4.4678912 -1.9212549
3.4116991 4.4735794 -1.8877376
3.2478709 4.4788909 -1.8563608
2.7061036 4.6092706 -1.7934119
2.4783885 4.7302361 -1.7918158
2.3624706 4.7864847 -1.7910022
2.2452245 4.8398733 -1.7901785
2.1268163 4.8903666 -1.7893456
1.8866405 4.9825568 -1.787654
1.7650098 5.0242219 -1.7867962
1.6424707 5.0628924 -1.7859313
1.5190917 5.0985575 -1.7850596
1.0186132 5.2108612 -1.7815161
0.89213866 5.231287 -1.7806189
0.38302734 5.282155 -1.7769996
0.12760742 5.2890606 -1.7751795
-3.9062499e-05 5.2878885 -1.7742687
-0.12755859 5.2836308 -1.7733582
-0.25487304 5.2763081 -1.7724485
-0.63486326 5.2360063 -1.769729
-0.76065427 5.216507 -1.7688272
-0.8858496 5.1939912 -1.7679291
-1.0104102 5.168488 -1.7670348
-1.1342578 5.1400175 -1.7661449
-1.5008301 5.036972 -1.7635063
-1.6211327 4.9968328 -1.7626388
-1.8584765 4.9080362 -1.7609254
-2.5400586 4.575655 -1.7559869
-2.6485155 4.5110135 -1.7551984
-2.7765234 4.4779544 -1.7678958
-2.9242773 4.4715714 -1.7927232
-3.234453 4.4602408 -1.8486544
-3.6479881 4.3326468 -1.9004321
-3.75 4.2416911 -1.8996834
-4.2254686 3.7525592 -1.8961782
-4.3132811 3.6482587 -1.8955276
-4.5614352 3.3234758 -1.8936822
-4.7136426 3.0976703 -1.8925442
-4.9212599 2.7463591 -1.8909814
-4.9848337 2.626148 -1.8905002
-5.0455174 2.5044775 -1.8900388
-5.1581149 2.2571282 -1.8891784
-5.2099805 2.1315649 -1.8887793
-5.2588477 2.0048144 -1.8884012
-5.3046875 1.8769897 -1.8880444
-5.3474803 1.7481427 -1.8877093
-5.4238477 1.4876361 -1.887104
-5.4573827 1.3561407 -1.886834
-5.4878125 1.223911 -1.8865864
-5.5150781 1.0910126 -1.886361
-5.5779395 0.68903685 -1.8858191
-5.6039453 0.41906431 -1.8855706
-5.6121678 0.28371641 -1.8854806
-5.6189747 0.012641601 -1.8853689
-5.612998 -0.25846374 -1.8853484
-5.4915233 -1.1988281 -1.8859959
-5.4284177 -1.4626776 -1.8863847
-5.3921876 -1.593421 -1.8866125
-5.3528905 -1.7232885 -1.8868628
-5.3105173 -1.8522323 -1.8871348
-5.2650876 -1.9801327 -1.8874291
-5.1652341 -2.2325957 -1.8880825
-5.0534763 -2.4801702 -1.888822
-4.9932323 -2.601934 -1.8892233
-4.7953024 -2.9583697 -1.890552
-4.7237597 -3.0739975 -1.8910354
-4.6494336 -3.1879241 -1.891539
-4.5724411 -3.300087 -1.8920621
-4.3255954 -3.6254048 -1.8937469
-4.238193 -3.7298977 -1.894346
-3.864248 -4.1265965 -1.8969207
-3.7649314 -4.22016 -1.8976072
-3.3457811 -4.5703568 -1.9005152
-3.2358203 -4.6516385 -1.9012805
-3.1239355 -4.7302947 -1.9020602
-3.0101464 -4.8063016 -1.9028543
-2.6580369 -5.0179257 -1.9053162
-2.1659765 -5.2602544 -1.9087691
-2.0393846 -5.3134632 -1.9096599
-1.7823633 -5.4107847 -1.9114703
-1.6520898 -5.4548435 -1.9123892
-1.2550195 -5.5682015 -1.915195
-0.85027343 -5.6528492 -1.918062
-0.57712889 -5.693037 -1.9200009
-0.43982422 -5.7082024 -1.9209765
-0.30209962 -5.7200694 -1.9219562
-0.16411133 -5.728621 -1.9229382
0.11259765 -5.7357426 -1.9249101
0.66623044 -5.7098975 -1.9288648
1.2159082 -5.6305857 -1.9328038
1.6224219 -5.5362487 -1.9357251
1.7565429 -5.4982243 -1.9366904
2.5387108 -5.2024088 -1.9423379
2.6647265 -5.1420579 -1.943251
2.789336 -5.0786257 -1.9441543
3.153662 -4.8701835 -1.9468014
3.3879199 -4.7164917 -1.9485079
3.939121 -4.2832632 -1.9525399
4.1443748 -4.0914049 -1.9540488
4.2434864 -3.9916959 -1.954779
4.3401365 -3.8895626 -1.9554919
4.7848043 -3.344523 -1.9587902
4.9435644 -3.1116862 -1.9599768
5.0908203 -2.8711724 -1.9610831
5.1599903 -2.7482364 -1.9616048
5.2892184 -2.4973328 -1.9625851
5.3491602 -2.3695397 -1.9630424
5.4059863 -2.2402825 -1.9634777
5.5100193 -1.9776651 -1.964281
5.5571876 -1.8444901 -1.9646484
5.6416016 -1.5747839 -1.9653131
5.743125 -1.1630744 -1.9661331
5.7938085 -0.88485348 -1.9665593
5.8307128 -0.6043945 -1.9668878
5.8439841 -0.46356446 -1.9670154
5.8537693 -0.32244322 -1.9671179
5.8600779 -0.18109253 -1.9671957
5.8622556 0.10182556 -1.9672772
5.8580761 0.24324097 -1.9672803
5.8393164 0.52556944 -1.9672122
5.8247361 0.66628414 -1.9671409
5.7602344 1.0856549 -1.9667785
5.7318454 1.224215 -1.9666083
5.700068 1.3620226 -1.9664135
5.5845509 1.7700958 -1.9656848
5.4392772 2.16836 -1.9647413
5.3843946 2.2985456 -1.9643803
5.2007813 2.6803203 -1.9631594
5.1334181 2.8043828 -1.9627081
4.989707 3.047262 -1.9617394
4.9134178 3.1659527 -1.961223
4.8342772 3.2826812 -1.9606857
4.6675782 3.510036 -1.9595495
4.3020506 3.9384954 -1.9570423
4.1041698 4.1385798 -1.9556774
3.646035 4.465662 -1.9343684
3.3085546 4.4769464 -1.867861
3.1479883 4.4820304 -1.8377486
2.9927247 4.4874263 -1.8098134
2.7480664 4.5853996 -1.7937056
2.6354785 4.6483283 -1.7929171
2.5214257 4.7084613 -1.7921177
2.289248 4.820241 -1.7904878
2.1712499 4.8718109 -1.7896582
2.052119 4.9204741 -1.7888198
1.6884081 5.0487747 -1.7862556
1.5653321 5.0855646 -1.7853864
1.1916308 5.1777873 -1.7827424
1.0658301 5.2024298 -1.7818511
0.81275392 5.2425079 -1.7800554
0.43078125 5.2794962 -1.7773396
0.3030957 5.285645 -1.7764304
0.047714844 5.2886844 -1.7746097
-0.079853512 5.2855878 -1.773699
-0.20727539 5.2794099 -1.7727886
-0.46125975 5.2578645 -1.7709723
-0.58768553 5.2425275 -1.770067
-0.71366209 5.2241521 -1.7691641
-0.9638769 5.1783795 -1.767369
-1.2113769 5.120688 -1.7655902
-1.4555469 5.0512505 -1.7638327
-1.5762304 5.012187 -1.7629628
-1.6958886 4.9702568 -1.7620996
-1.8144433 4.9254975 -1.7612436
-2.162832 4.7745233 -1.7587236
-2.3884375 4.660275 -1.7570879
-2.499121 4.599185 -1.7562842
-3.1749804 4.462471 -1.8376211
-3.6092577 4.3660626 -1.9007161
-3.8127148 4.183548 -1.8992225
-3.9110448 4.0887871 -1.8984991
-4.1007228 3.8924761 -1.8971004
-4.2807517 3.6875067 -1.895769
-4.366992 3.581939 -1.8951292
-4.4506836 3.4743891 -1.8945074
-4.685986 3.1404486 -1.8927515
-4.7590137 3.0255933 -1.8922037
-4.8967772 2.7909355 -1.8911667
-4.9613962 2.6712811 -1.8906778
-5.0231543 2.5501611 -1.890209
-5.0820117 2.427644 -1.8897607
-5.1909275 2.1786652 -1.888926
-5.2409277 2.0523651 -1.88854
-5.2878809 1.924942 -1.8881754
-5.3318262 1.7964709 -1.887832
-5.4451952 1.4054339 -1.8869326
-5.5052443 1.1407897 -1.8864428
-5.5305467 1.0075128 -1.8862311
-5.5716696 0.73939633 -1.8858755
-5.6000681 0.46965453 -1.88561
-5.6094627 0.33438233 -1.8855116
-5.6186619 0.063352659 -1.885383
-5.6084962 -0.34319761 -1.8853607
-5.5986915 -0.47843015 -1.8853992
-5.5695019 -0.74804688 -1.8855447
-5.5276465 -1.0159875 -1.8857809
-5.5019531 -1.1491791 -1.8859332
-5.4411817 -1.4135449 -1.8863052
-5.3267283 -1.8041064 -1.8870306
-5.2824411 -1.9323956 -1.8873162
-5.2351465 -2.0596247 -1.8876241
-5.184824 -2.1857419 -1.8879538
-5.1315231 -2.3106346 -1.8883047
-5.0752735 -2.4342537 -1.8886774
-5.0160937 -2.5565362 -1.8890707
-4.9540429 -2.6774099 -1.8894851
-4.889111 -2.7968264 -1.8899206
-4.8213964 -2.9146838 -1.8903762
-4.6775584 -3.1454961 -1.8913482
-4.6015429 -3.2583508 -1.8918643
-4.4415526 -3.4785433 -1.8929541
-4.3576365 -3.5857859 -1.8935275
-4.2711816 -3.6910577 -1.8941196
-4.1822267 -3.7942598 -1.8947302
-4.0908103 -3.8953481 -1.8953586
-3.9970117 -3.9942889 -1.8960046
-3.9008007 -4.0910096 -1.8966682
-3.8023436 -4.1854367 -1.8973486
-3.7016015 -4.2775354 -1.8980457
-3.4935937 -4.4545083 -1.8994879
-3.3863866 -4.5393033 -1.9002328
-3.2772069 -4.6215324 -1.9009924
-3.1660254 -4.7011743 -1.9017669
-3.0529394 -4.7781744 -1.9025555
-2.9379785 -4.8525028 -1.9033581
-2.8212597 -4.924089 -1.9041739
-2.5826757 -5.0588942 -1.9058442
-2.3376954 -5.1822767 -1.9075629
-2.2129979 -5.2395787 -1.9084388
-2.0869141 -5.2939048 -1.9093254
-1.7009375 -5.4387231 -1.9120446
-1.1711719 -5.5882587 -1.9157882
-0.62841797 -5.6865144 -1.9196365
-0.49121094 -5.7029161 -1.9206113
-0.21574219 -5.7258091 -1.9225706
0.060751952 -5.7354245 -1.9245405
0.33774415 -5.7316923 -1.926517
1.027832 -5.6638446 -1.9314544
1.57208 -5.5496283 -1.9353629
1.8397168 -5.4727721 -1.9372897
1.9723535 -5.4294629 -1.9382458
2.3632812 -5.2802649 -1.9410686
2.866533 -5.0373645 -1.9447147
3.1090624 -4.8976316 -1.9464771
3.2277637 -4.823329 -1.9473406
3.3446484 -4.746119 -1.9481924
3.4596875 -4.6660504 -1.9490316
3.5727735 -4.5831547 -1.9498572
3.6838672 -4.4974756 -1.9506696
3.8997068 -4.3180189 -1.952251
4.106699 -4.128057 -1.9537714
4.2066989 -4.0292869 -1.9545077
4.4919333 -3.7184575 -1.9566145
4.581924 -3.610224 -1.9572815
4.8357129 -3.2725046 -1.9591702
4.9147458 -3.1558287 -1.959761
5.0641699 -2.9167197 -1.9608824
5.2017479 -2.670409 -1.9619211
5.2659864 -2.5447552 -1.9624084
5.3270993 -2.417532 -1.9628738
5.3850975 -2.2888122 -1.9633175
5.4399314 -2.1586549 -1.9637387
5.5399022 -1.8944579 -1.9645135
5.6268163 -1.6255389 -1.9651959
5.7003903 -1.3526019 -1.9657843
5.7321191 -1.2148279 -1.9660424
5.7604489 -1.076275 -1.9662768
5.7853613 -0.93707275 -1.9664868
5.8068357 -0.79728454 -1.9666727
5.8248534 -0.65699828 -1.9668337
5.8394237 -0.51630187 -1.9669704
5.8505273 -0.37525389 -1.9670825
5.8581347 -0.23399353 -1.9671696
5.8628907 0.0488916 -1.9672694
5.8305955 0.61367494 -1.9671704
5.7428513 1.1724523 -1.9666748
5.6784668 1.4478674 -1.9662795
5.641201 1.5842675 -1.9660456
5.4590039 2.1192987 -1.9648706
5.4053125 2.2499933 -1.9645181
5.2883887 2.5071692 -1.9637438
5.2252245 2.6334746 -1.963323
5.1589942 2.7581596 -1.9628795
5.0897264 2.881151 -1.9624141
4.7833009 3.3547149 -1.9603388
4.6131444 3.5794635 -1.9591775
4.5240331 3.6885724 -1.9585675
4.4322848 3.7954376 -1.9579381
4.3379784 3.9000041 -1.9572897
4.2411718 4.0021672 -1.9566228
3.9363377 4.2938128 -1.9545168
3.8301268 4.3859053 -1.9537807
3.5379198 4.4693599 -1.9126081
5.1335645 -1.7913934 -1.9616392
5.1761718 -1.6672857 -1.961972
5.2157226 -1.5421509 -1.9622833
5.2855368 -1.2890924 -1.9628402
2.6766601 -0.12366699 -0.96672744
2.6723144 -0.058903199 -0.96436232
2.6736717 0.13474976 -0.96584171
5.3640528 0.92637324 -1.9639157
5.339746 1.0554541 -1.9637724
5.3122849 1.1838892 -1.9636065
5.2816601 1.3115978 -1.9634176
5.2110353 1.5645239 -1.962973
5.1281052 1.8136084 -1.9624395
4.9810548 2.1787059 -1.9614755
4.8682814 2.4155524 -1.9607264
4.7440624 2.6464837 -1.9598941
4.6777635 2.759552 -1.9594476
4.6087012 2.8709373 -1.9589809
4.536953 2.9805651 -1.9584948
4.3855858 3.1942914 -1.9574648
4.3060451 3.2982647 -1.9569218
4.2239943 3.4002299 -1.9563602
4.139492 3.5001264 -1.9557809
4.052588 3.5978887 -1.9551839
3.584121 4.0527973 -1.9519485
3.4840527 4.1366277 -1.9512542
3.3819921 4.217957 -1.9505453
3.2780175 4.2967424 -1.9498221
3.06458 4.446486 -1.9483346
2.9210644 4.4651423 -1.9250559
2.7724316 4.4697623 -1.8976464
2.6277831 4.4740705 -1.8720025
2.4867871 4.4780793 -1.8480273
2.2147264 4.4852595 -1.8047414
2.0883007 4.4995146 -1.7896754
1.8664355 4.5892267 -1.7874185
1.181543 4.7974834 -1.782582
1.0649707 4.8223624 -1.7817563
0.83028316 4.8635783 -1.7800921
0.71234375 4.8798981 -1.7792547
0.00081054686 4.9175749 -1.7741886
-0.11779296 4.9138141 -1.7733418
-0.23620117 4.9071989 -1.7724959
-0.35438475 4.8977346 -1.7716507
-0.70670897 4.8523517 -1.7691271
-1.054336 4.7817693 -1.7666315
-1.1688671 4.7527213 -1.7658077
-1.2826074 4.720943 -1.7649891
-1.3955078 4.6864619 -1.764176
-1.6185644 4.6094742 -1.762567
-1.728457 4.5670185 -1.7617735
-1.8373535 4.5219646 -1.7609863
-2.20666 4.4725676 -1.7993432
-2.4769726 4.4638543 -1.8418236
-2.6169727 4.4590569 -1.8653622
-2.7605858 4.4539409 -1.8905455
-2.9951172 4.3487787 -1.9050922
-3.297998 4.1159611 -1.9028779
-3.5831249 3.8623772 -1.9007852
-3.6739843 3.7734673 -1.9001166
-3.7626758 3.6824517 -1.8994628
-4.0152149 3.3973064 -1.8975952
-4.0947556 3.2984076 -1.897005
-4.171875 3.1976812 -1.8964316
-4.3187695 2.9909594 -1.8953357
-4.3884764 2.8850842 -1.8948138
-4.520195 2.6686127 -1.8938239
-4.5821486 2.5581341 -1.8933563
-4.8031054 2.1027453 -1.8916744
-4.8970604 1.8678619 -1.8909496
-4.979785 1.6288769 -1.890304
-5.0168457 1.5080152 -1.8900114
-5.0510449 1.3863214 -1.8897394
-5.0823731 1.2638763 -1.8894874
-5.1362109 1.0169727 -1.889046
-5.1783009 0.76785094 -1.8886877
-5.194922 0.64262879 -1.88854
-5.2192383 0.39120728 -1.888308
-5.2269335 0.26514527 -1.8882239
-5.2316308 0.13894226 -1.8881609
-5.2277927 -0.23982422 -1.8881
-5.2103224 -0.49177366 -1.8881662
-5.1971192 -0.61736816 -1.8882312
-5.1618161 -0.86746883 -1.8884246
-5.1147165 -1.1156507 -1.8887026
-5.0221286 -1.4831311 -1.8892776
-4.7598925 -2.1942012 -1.8909825
-4.7064452 -2.3088465 -1.8913369
-4.5914454 -2.5342474 -1.8921047
-4.5299511 -2.6448686 -1.8925174
-4.3991308 -2.861666 -1.8934002
-4.3298535 -2.96772 -1.8938696
-4.1838474 -3.1748157 -1.8948627
-4.1071582 -3.2757444 -1.8953861
-3.9466307 -3.4720941 -1.8964856
-3.6886034 -3.751971 -1.8982606
-3.410996 -4.0129972 -1.9001799
-3.3143456 -4.0955787 -1.9008498
-3.1151464 -4.253799 -1.9022338
-2.9085155 -4.4024568 -1.9036731
-2.8025196 -4.4730945 -1.9044125
-2.6948438 -4.5412035 -1.9051647
-2.3621874 -4.730011 -1.9074932
-2.0164452 -4.8947015 -1.9099209
-1.8985839 -4.9440775 -1.91075
-1.6593066 -5.0343528 -1.9124358
-1.5380566 -5.0751944 -1.913291
-1.4157813 -5.1131306 -1.9141543
-1.2925683 -5.1481462 -1.9150249
-0.91810542 -5.2353907 -1.9176754
-0.7918359 -5.258471 -1.9185705
