# .PCD v0.7 - Point Cloud Data file format
VERSION 0.7
FIELDS x y z
SIZE 4 4 4
TYPE F F F
COUNT 1 1 1
WIDTH 1474
HEIGHT 1
VIEWPOINT 0 0 0 1 0 0 0
POINTS 1474
DATA ascii
-3.2306151 6.5060453 0.26594794
-3.6317284 6.5058584 0.27279013
-3.8403614 6.5057621 0.27659079
-4.2098923 6.4046454 0.28060815
-4.4465427 6.4216886 0.28597191
-4.7281151 6.4881973 0.29392645
-4.9719825 6.4880853 0.29926994
-5.7621384 6.4877214 0.31768608
-6.0481739 6.4875908 0.3247309
-6.3473339 6.4874539 0.3322933
-6.6609473 6.4873099 0.34041861
-6.990459 6.4871597 0.34915793
-8.0923338 6.4866571 0.37971032
-8.50457 6.4864688 0.39159721
-8.9437599 6.48627 0.40449667
-9.2915716 6.4023199 0.41312018
-10.485771 6.5025883 0.45173132
-11.073086 6.5023212 0.47013617
-11.710615 6.5020328 0.49040061
-12.406015 6.501718 0.51280481
-14.732519 6.4094596 0.58821797
-15.965888 6.4926958 0.63102669
-18.469463 6.4915667 0.7167542
-19.72666 6.4032011 0.75932407
-21.755507 6.4860783 0.831155
-12.914404 -7.9987888 0.55616677
-14.958418 -21.577454 0.96125644
-14.198955 -21.575468 0.94563055
-13.463418 -21.573544 0.93103874
-12.753379 -21.577658 0.91767156
-4.3932033 -7.8597708 0.32966346
-10.084678 -21.571035 0.87178886
-9.4578514 -21.571737 0.86235589
-7.64958 -21.568125 0.83784491
-7.0683398 -21.566963 0.83094138
-5.9325876 -21.564972 0.81887013
-3.211621 -21.563366 0.79818612
-2.1547949 -21.561508 0.79334247
-1.1083202 -21.559668 0.79038471
-0.58744138 -21.559046 0.78961068
3.0743945 -21.564045 0.79748678
3.6071777 -21.564417 0.80048513
4.144248 -21.564787 0.80397725
4.6863575 -21.565163 0.80796975
5.2313766 -21.553991 0.81204534
5.7850585 -21.553057 0.81703389
6.3458982 -21.552109 0.82256168
6.9146676 -21.551147 0.82864767
7.4923043 -21.550173 0.83532065
10.54917 -21.551054 0.87848592
11.201396 -21.551008 0.88923132
4.4301758 -7.6033053 0.32217795
4.5821776 -7.4452829 0.32007483
14.740322 -21.548525 0.95585972
17.149473 -21.543991 1.0081735
20.838652 -21.542128 1.0973246
22.166943 -7.3347726 0.85484916
13.377666 6.501308 0.54455727
12.594727 6.5009098 0.51892048
11.743261 6.4247842 0.49008292
10.642021 6.5080166 0.45670661
9.0912886 6.5072308 0.40932518
8.2219238 6.5067911 0.38388067
7.8260641 6.5065908 0.37262076
7.4525876 6.506403 0.36220679
7.0992284 6.5062261 0.35255989
6.7640133 6.5060577 0.34360784
6.3598242 6.4197321 0.33084875
6.0621386 6.4219108 0.32332909
5.5709276 6.503129 0.31350899
5.3042579 6.502995 0.30724326
5.0479298 6.5028667 0.3013961
4.8010349 6.5027447 0.29593542
4.5627732 6.502625 0.29083535
4.1094532 6.5024004 0.28162301
3.8931346 6.5022917 0.2774688
3.6829882 6.5021877 0.27359322
3.4785058 6.5020852 0.26998022
3.2792578 6.5019879 0.26661184
3.0848143 6.5018926 0.26348031
2.70875 6.5017071 0.25787193
2.5264549 6.5016165 0.25537634
2.1717381 6.5014434 0.25095862
1.8283007 6.5012736 0.24725685
1.6601758 6.5011921 0.2456588
1.494082 6.5011115 0.24422279
1.1521777 6.4171515 0.23870079
0.83506835 6.4169974 0.23691916
0.68772459 6.5079045 0.23959266
0.21429688 6.5076752 0.23838738
0.057236325 6.5075994 0.23826453
-0.099746093 6.507525 0.23827979
-0.25683594 6.5074506 0.23843543
-0.7306543 6.5072231 0.23973899
-1.8757519 6.50668 0.24792273
-2.2207618 6.5065179 0.25170845
-2.3974609 6.5064359 0.25386894
-2.7606249 6.5062652 0.25876212
-2.9477441 6.5061784 0.26151007
-3.3347363 6.5059967 0.26766396
-3.7413476 6.5058084 0.27476722
-4.1064548 6.4046926 0.27854577
-4.6162009 6.4882512 0.29153419
-5.1046386 6.4880252 0.30224586
-5.9118652 6.4876542 0.32135016
-7.1717672 6.4870768 0.35405126
-7.5289254 6.4869132 0.36385155
-7.9066305 6.4867425 0.37443078
-8.3072357 6.4865594 0.38587883
-9.549902 6.4022026 0.42093971
-12.070654 6.5018692 0.50196373
-13.602568 6.5011759 0.55197239
-14.327851 6.4280243 0.5749436
-16.567959 6.4924221 0.65149635
-17.820303 6.4918585 0.69437915
-19.250038 6.4912138 0.7437728
-20.886904 6.4864702 0.80073601
-12.877197 -7.7746749 0.55072409
-18.480732 -21.699745 0.40121329
-15.836406 -21.579716 0.37677634
-13.547343 -21.573727 0.35858679
-8.9138088 -21.570808 0.3285369
-8.3100586 -21.569599 0.32537025
-5.9976368 -21.565908 0.31508675
-4.8907423 -21.566101 0.31127295
-4.3466501 -21.566193 0.30967262
-3.2732227 -21.563921 0.307015
-2.2156446 -21.562059 0.30510992
0.3927246 -21.558327 0.30350775
1.9579492 -21.555965 0.30467886
2.4842968 -21.5632 0.30553612
3.0129786 -21.563566 0.30648354
5.1703906 -21.565056 0.31215081
5.72082 -21.553772 0.31390038
6.2807813 -21.552832 0.3160018
6.8486228 -21.551876 0.31831658
7.4252148 -21.550905 0.32085547
8.0114155 -21.549919 0.32362983
9.2181444 -21.551718 0.32994896
9.8396282 -21.55168 0.33348808
11.12541 -21.551601 0.34140158
4.282402 -7.8265471 0.12558113
13.176865 -21.544794 0.35548988
15.424082 -21.546999 0.37300056
16.223047 -21.545492 0.37964043
17.915127 -21.546093 0.39442909
20.722548 -21.54208 0.42074928
22.2771 6.4233379 0.326343
20.677715 6.5063419 0.30513251
17.650537 6.5048528 0.2647866
15.321513 6.5019732 0.23428428
14.347813 6.5014935 0.22172859
13.472636 6.5010662 0.21056709
12.680927 6.5006766 0.20058708
11.252764 6.4720502 0.18272133
10.708692 6.5078068 0.17638877
10.14833 6.5075321 0.16969657
9.144824 6.5070391 0.15798545
7.8704295 6.5064139 0.14374046
6.8017087 6.5058928 0.1324871
6.3952637 6.4195743 0.12754729
5.8816013 6.5031133 0.12342338
5.602334 6.5029778 0.12082199
5.3344336 6.5028448 0.11839271
5.0769629 6.5027213 0.11612754
4.8290234 6.5026007 0.11401069
4.5898046 6.5024819 0.11203437
3.9177442 6.5021563 0.10685554
3.3019824 6.5018573 0.10264732
3.1070018 6.5017619 0.1014328
2.916455 6.5016704 0.10030441
1.8478515 6.501153 0.095135875
1.6794726 6.501071 0.094514161
1.3328418 6.4242959 0.092355646
1.1706347 6.4170341 0.09181831
1.0113477 6.4169559 0.091441266
0.85327148 6.4168801 0.091119915
0.70609373 6.5077848 0.09214256
0.23247069 6.5075579 0.091659769
-0.081572264 6.5074062 0.091605909
-0.39600584 6.5072551 0.091766506
-0.71226561 6.5071039 0.092142329
-1.1934081 6.5068741 0.093119502
-1.3563964 6.5067973 0.093559645
-1.5210156 6.5067167 0.094058305
-1.6874902 6.5066376 0.094618067
-2.2004688 6.5063934 0.096680373
-2.3768163 6.5063105 0.097503282
-2.556289 6.5062246 0.098398358
-2.9258494 6.5060492 0.10041481
-3.1165721 6.5059586 0.10154449
-3.5118456 6.5057707 0.10406608
-3.7171581 6.5056729 0.10546829
-3.867285 6.4046597 0.10530975
-4.0812011 6.4045572 0.10690018
-4.8277149 6.4879937 0.11383537
-5.0752831 6.4878778 0.11594772
-5.3323631 6.4877558 0.11821121
-5.599834 6.4876308 0.12063522
-6.169951 6.4873614 0.1260218
-6.7949119 6.4870672 0.13223533
-7.1314645 6.486907 0.13569961
-7.4863868 6.4867411 0.13943474
-8.2593746 6.4863763 0.14782707
-8.6823339 6.4861774 0.15255226
-9.4922552 6.4020047 0.16116279
-11.329579 6.5019512 0.18387352
-13.505029 6.5009284 0.21097817
-17.666025 6.4915605 0.26492697
-19.073183 6.4909015 0.2835981
-22.572157 6.4852533 0.33058402
-24.808193 6.4842057 0.36093512
-13.036728 -7.3997998 0.21100822
-12.723007 -8.4935474 0.21533196
-17.045958 -21.578926 0.38708121
-15.415927 -21.578617 0.37329185
-14.641533 -21.576591 0.36703926
-12.464257 -21.576674 0.35075188
-11.11082 -21.573322 0.34157738
-10.45956 -21.571709 0.3374607
-9.2024317 -21.571384 0.33011925
-8.5930176 -21.570166 0.32683188
-7.9953222 -21.56897 0.32379645
-7.4082518 -21.567795 0.32100075
-6.2624803 -21.565861 0.31610388
-5.1490817 -21.566053 0.31210151
-4.0610447 -21.566242 0.3089045
-3.5244238 -21.564362 0.30757073
-2.9922168 -21.563427 0.30643913
-2.4635839 -21.562496 0.30549279
-1.9379394 -21.561571 0.30472603
-0.89294922 -21.559731 0.30373985
0.1476953 -21.558697 0.30347145
0.6679492 -21.557913 0.30360052
1.7112402 -21.556337 0.30438775
3.2940135 -21.563759 0.30705541
4.9119043 -21.564877 0.3113282
6.0160742 -21.553276 0.31498665
6.5800977 -21.552326 0.31719977
7.1524801 -21.551365 0.3196308
7.7340035 -21.550385 0.32228157
8.3266115 -21.551771 0.32522011
10.173877 -21.551661 0.33546835
13.556992 -21.543858 0.35830116
14.292587 -21.54204 0.36390129
15.843135 -21.546211 0.37645864
18.384287 -21.545124 0.39867422
20.255518 -21.541254 0.4161846
11.894912 -7.7071972 0.19951057
21.166542 -8.5020018 0.32107979
28.992069 6.5171609 0.41828072
26.014805 6.5108609 0.37748235
18.289248 6.5051665 0.27324364
16.755283 6.4188871 0.25256217
15.81958 6.5022182 0.2407531
14.793154 6.5017133 0.22745384
11.455058 6.4162836 0.18481377
10.988339 6.5079436 0.17976478
10.406914 6.507659 0.17277199
9.3685541 6.5071487 0.16056237
8.465312 6.5067072 0.15029198
8.0552149 6.5065055 0.14575492
7.3040137 6.5061383 0.13768531
6.5423532 6.4196463 0.12902465
6.2340331 6.4194937 0.1259571
5.4592772 6.5029082 0.11951568
5.1970115 6.502779 0.11717384
4.7014647 6.5025373 0.1129486
4.2393556 6.5023127 0.10926148
4.0191894 6.5022063 0.10759971
3.8054783 6.5021024 0.10604774
3.395498 6.5019021 0.1032505
3.1982715 6.5018072 0.10199417
2.8173535 6.5016203 0.099740982
2.6329296 6.5015326 0.098736338
2.45208 6.5014443 0.097808756
2.0998828 6.5012736 0.096168436
1.5912695 6.5010281 0.094210736
1.2475488 6.4242544 0.092117533
0.92759764 6.4169168 0.091264114
0.6221875 6.5077457 0.09202148
0.14936523 6.5075188 0.091624677
-0.0076269531 6.507442 0.091599956
-0.16462891 6.5073662 0.091628261
-0.32183594 6.5072927 0.091708906
-0.4794043 6.507216 0.091844633
-0.79639649 6.5070648 0.092277221
-1.2794141 6.5068326 0.093344957
-1.443252 6.5067544 0.093816146
-1.6088281 6.5066767 0.094346918
-1.7763867 6.5065961 0.094939418
-1.9461621 6.5065155 0.095596462
-2.1184082 6.5064325 0.096317977
-2.2933691 6.5063481 0.097107388
-2.8374317 6.5060906 0.099910505
-3.2192481 6.5059085 0.10217651
-3.6197557 6.5057182 0.1047956
-3.8280566 6.5056195 0.10625183
-3.9796288 6.4046063 0.10613555
-4.1970115 6.404501 0.10777938
-4.71417 6.4880486 0.11288856
-5.2100196 6.4878139 0.11712532
-5.7458396 6.4875617 0.12198585
-6.6422067 6.4871378 0.13069031
-8.0690136 6.4864664 0.14572975
-8.4797754 6.4862714 0.15027885
-8.9172659 6.4860663 0.15521263
-9.2635841 6.4021134 0.15850441
-10.452822 6.5023613 0.17328133
-11.037373 6.5020866 0.180317
-11.671767 6.50179 0.18806495
-13.121767 6.5011086 0.20613182
-14.675849 6.409174 0.22541983
-18.386415 6.4912238 0.27446708
-19.632215 6.4028411 0.29067588
-21.643934 6.4856877 0.31804755
-29.180712 6.4877739 0.42078391
-16.617491 -21.597393 0.38358298
-15.790009 -21.579597 0.37639031
-15.003076 -21.577536 0.36993399
-12.793935 -21.577492 0.35310662
-11.423223 -21.574097 0.34362295
-9.4938374 -21.571968 0.33175698
-8.8785934 -21.570736 0.32834709
-4.8591309 -21.566105 0.31117606
-4.3153415 -21.566198 0.30958396
-1.1385058 -21.560163 0.3039071
-0.6175195 -21.559849 0.30360374
-0.097285151 -21.559065 0.30347326
0.94337887 -21.557497 0.30373803
1.4649609 -21.556709 0.3041358
1.9882617 -21.55592 0.30471304
3.0436718 -21.563589 0.30654106
4.6547461 -21.564699 0.31053856
5.2022362 -21.565077 0.3122631
6.8817577 -21.551821 0.31845695
7.4588571 -21.55085 0.3210102
8.6442089 -21.551754 0.32685828
11.163535 -21.5516 0.34165427
4.3023047 -7.8369336 0.12584342
13.218163 -21.544695 0.35579413
14.696103 -21.548374 0.3671453
16.270117 -21.545403 0.38003853
17.965937 -21.545988 0.3948867
19.800049 -21.542196 0.41185722
21.483759 -7.7222595 0.32135001
24.671328 6.5102005 0.35916588
22.160761 6.4232793 0.32479361
17.574863 6.5048151 0.26378715
16.346132 6.5024772 0.24762839
13.424726 6.5010419 0.20995948
12.63747 6.5006561 0.20004036
11.781826 6.4245415 0.1889054
9.1178608 6.5070257 0.15767631
8.6675482 6.5068045 0.15255882
8.2452927 6.5065985 0.14784691
7.4733982 6.5062213 0.13947593
7.1189356 6.5060477 0.13575165
6.3774314 6.4195647 0.12737259
6.0789647 6.4217472 0.1244696
5.5865426 6.5029693 0.1206765
5.3192673 6.50284 0.11825813
5.0623732 6.5027142 0.11600036
4.814961 6.502593 0.11389312
4.1220703 6.502255 0.10836837
3.9053905 6.5021501 0.1067659
3.4901073 6.5019488 0.10387313
3.0958593 6.5017571 0.10136505
2.9055665 6.5016642 0.10024071
2.5368555 6.5014858 0.098236464
2.3577733 6.5013981 0.097346798
2.1817772 6.5013142 0.096529461
1.8380663 6.5011468 0.095098495
1.6698047 6.5010662 0.094479829
1.5036035 6.5009842 0.093923949
1.3234863 6.4242911 0.092329174
1.1614063 6.417028 0.091794357
0.53849608 6.5077043 0.091915965
0.38072264 6.5076284 0.091759257
0.066318356 6.5074787 0.091604918
-0.090654291 6.5074015 0.091608733
-0.72144532 6.5070987 0.092155911
-1.0411719 6.5069475 0.09275879
-1.2027832 6.5068693 0.093143307
-1.5305859 6.5067129 0.094089277
-1.6971874 6.5066323 0.094653167
-2.2105858 6.5063882 0.096726686
-2.3871093 6.5063052 0.097552717
-2.7498729 6.5061321 0.099425353
-2.936748 6.5060444 0.10047706
-3.1277537 6.5059528 0.10161278
-3.3232129 6.5058599 0.10283341
-3.5235546 6.5057659 0.10414459
-3.7291894 6.5056667 0.10555404
-3.8794823 6.4046526 0.10540061
-4.0937696 6.404551 0.10699188
-4.3263087 6.4215937 0.10899086
-5.3475294 6.4877496 0.11834579
-5.8951659 6.4874907 0.1233895
-6.1871972 6.4873528 0.12618926
-7.8839355 6.4865518 0.14370994
-8.2831345 6.4863653 0.14809044
-8.7076464 6.486166 0.15283805
-10.192949 6.5024848 0.17018668
-12.755664 6.5012798 0.20152748
-13.553359 6.500905 0.2115908
-14.33039 6.4531937 0.2212252
-19.160625 6.4908609 0.28476354
-20.783213 6.4860916 0.30646172
-22.69121 6.4851971 0.33219367
-27.694458 6.4884696 0.40038857
-17.860888 -21.583469 0.3943508
-15.3704 -21.578499 0.37292045
-14.597539 -21.576477 0.36669227
-13.12459 -21.572624 0.35543692
-12.424082 -21.576576 0.35046896
-11.072724 -21.573229 0.34133139
-9.7881832 -21.572556 0.33345297
-8.5581636 -21.570097 0.32664892
-6.7975388 -21.565769 0.31828469
-6.2298827 -21.565868 0.31597602
-5.6700292 -21.565964 0.31388479
-5.1172853 -21.566059 0.31199637
-4.029922 -21.566248 0.30883339
-2.9615526 -21.563374 0.30637869
-2.4331348 -21.562443 0.30544487
-0.86281246 -21.559677 0.30372292
0.69805664 -21.557865 0.30361411
1.7415038 -21.556293 0.30441964
3.3248241 -21.563782 0.30712408
4.3988962 -21.564524 0.30979759
6.6130075 -21.552273 0.31733254
8.3611717 -21.551771 0.32539725
8.9650974 -21.551733 0.32856727
9.5812006 -21.551697 0.33199331
10.210664 -21.551657 0.33568808
4.1725488 -7.8096414 0.12463691
12.189277 -21.547234 0.34847128
4.4582911 -7.4554906 0.12227745
13.598906 -21.543755 0.35861519
15.101953 -21.547607 0.3703832
16.705322 -21.544582 0.38375205
17.555468 -21.546839 0.39122275
18.43622 -21.545017 0.39915106
19.353926 -21.543118 0.4076438
21.250448 -7.9122162 0.31918737
28.803896 6.5170693 0.41569525
21.422461 6.5067081 0.31514609
15.756991 6.5021877 0.23994057
13.823349 6.5012369 0.21502662
12.250254 6.5004644 0.19520926
11.417637 6.416265 0.18435661
10.953418 6.507925 0.17934242
8.8759565 6.5069084 0.15491645
8.4408884 6.5066948 0.15001808
7.6472654 6.5063052 0.14133278
6.9389453 6.5059586 0.1338916
6.21666 6.4194851 0.12578759
6.000576 6.5031719 0.12455406
5.716289 6.5030327 0.12187538
5.4438281 6.5028996 0.11937622
4.4532323 6.5024176 0.11093727
3.7933104 6.5020962 0.10596146
3.5859082 6.5019951 0.10451889
3.3839355 6.5018964 0.10317482
3.1870117 6.501801 0.1019236
2.0898731 6.5012689 0.096124955
1.9180957 6.5011845 0.095411755
1.7487891 6.5011039 0.094763108
1.3997754 6.4243293 0.092550732
-0.016708983 6.5074382 0.091599196
-0.33092773 6.507288 0.091715775
-0.48852539 6.5072112 0.091853939
-0.80561519 6.5070596 0.09229362
-1.4527637 6.5067496 0.093845747
-1.6184472 6.5066705 0.094379574
-1.7861328 6.5065923 0.094975352
-2.1284473 6.5064273 0.09636154
-2.4817188 6.506259 0.098018795
-3.0372362 6.5059953 0.1010672
-3.4285643 6.5058098 0.10351554
-3.6316404 6.5057135 0.104878
-3.9920115 6.4045987 0.10623009
-4.209795 6.4044952 0.10788269
-4.7279978 6.4880424 0.113003
-4.9718652 6.4879265 0.11505714
-5.761992 6.4875541 0.12213806
-6.6607614 6.4871292 0.13087623
-7.3373923 6.4868107 0.13785774
-8.0920897 6.4864554 0.14598198
-9.9421186 6.5026031 0.1672219
-11.072666 6.5020709 0.18074623
-12.405478 6.5014443 0.19714896
-14.008534 6.5006924 0.21738227
-14.731816 6.4091473 0.22614342
-17.13706 6.4918094 0.25795174
-19.72541 6.4027972 0.29192084
-26.345673 6.4891009 0.3819268
-18.342676 -21.659771 0.3995243
-17.386318 -21.564377 0.38991356
-16.569658 -21.597509 0.3831768
-14.198945 -21.575434 0.36356345
-4.3923731 -7.8582969 0.1267208
-11.384667 -21.574001 0.34336996
-9.4579201 -21.571896 0.33154944
-8.2409573 -21.56946 0.32502112
-6.4962497 -21.565823 0.31703681
-5.9328318 -21.56592 0.31484336
-5.3768649 -21.566015 0.31285986
-4.827529 -21.566111 0.31107962
-4.2840528 -21.566204 0.3095037
-3.7455761 -21.564751 0.30809486
-3.2116895 -21.56381 0.30688453
-2.6816797 -21.56288 0.30586052
-2.1548536 -21.561951 0.30502158
-1.6306152 -21.561029 0.30436468
-1.1083496 -21.56011 0.30388558
-0.58746094 -21.559805 0.30359337
-0.067197263 -21.559021 0.3034696
0.4528906 -21.558237 0.30352393
1.4952148 -21.556665 0.30416602
2.0185938 -21.555874 0.30475044
2.5452831 -21.563244 0.3056356
4.1441698 -21.564348 0.30909827
4.6862597 -21.564722 0.31063256
5.2315235 -21.554594 0.31221777
6.3460641 -21.552721 0.31626028
8.6791401 -21.551752 0.32704353
9.2893457 -21.551714 0.33034644
9.9123726 -21.551678 0.33391228
10.549453 -21.551638 0.33775917
4.3222852 -7.8473663 0.12610824
12.554277 -21.546333 0.35101828
13.259541 -21.544592 0.35609594
14.740156 -21.54829 0.3674961
15.515059 -21.546827 0.37374747
16.317314 -21.545315 0.38043433
18.016874 -21.545883 0.39534584
26.98538 6.4686432 0.39061087
22.045479 6.4232221 0.32322943
20.477596 6.5062432 0.30244407
18.884199 6.5054593 0.28114632
17.499697 6.5047784 0.26279396
15.203252 6.5019145 0.23275107
14.241826 6.5014434 0.22037223
12.594179 6.5006328 0.19950019
9.0909863 6.5070133 0.15736885
7.82582 6.5063934 0.14325736
7.4523535 6.5062103 0.13925347
6.7638083 6.5058732 0.13210243
6.3596387 6.4195561 0.12719673
6.0619822 6.4217401 0.12430519
5.8486915 6.5030975 0.12311401
4.8009276 6.5025859 0.11377578
4.5626559 6.50247 0.1118145
4.3323631 6.5023575 0.10998321
4.1093554 6.5022488 0.1082727
3.0847461 6.5017509 0.10129776
2.8946874 6.501658 0.10017906
2.7086914 6.5015693 0.099142835
2.3475096 6.5013933 0.097297974
2.1716895 6.5013089 0.096484452
1.9987011 6.501225 0.095739283
1.8282714 6.501143 0.095061108
1.6601269 6.5010614 0.094446637
1.3141406 6.4242864 0.092302017
1.1521484 6.4170246 0.091771699
0.83504879 6.416872 0.091086805
0.68771482 6.5077777 0.092114329
0.52934569 6.5077004 0.091906048
0.37162107 6.5076251 0.091751173
-0.099746093 6.5073981 0.091609724
-0.25682616 6.5073223 0.091669157
-0.4142285 6.5072479 0.091782071
-0.57209963 6.5071721 0.091949083
-0.73064452 6.5070953 0.092170179
-1.2121875 6.5068645 0.093167186
-1.375332 6.5067878 0.093613505
-1.5401562 6.5067081 0.09412086
-2.2207129 6.5063834 0.096772
-2.5772655 6.5062137 0.098505549
-2.760576 6.5061274 0.099483795
-3.1389453 6.5059476 0.10167999
-3.3346777 6.5058537 0.10290641
-3.5353026 6.5057583 0.10422417
-3.7412596 6.505661 0.10563797
-4.1063671 6.4045453 0.10708991
-4.6160936 6.4880962 0.11208282
-4.8558984 6.4879804 0.11407249
-5.1045213 6.487864 0.11620171
-5.631494 6.4876151 0.12092613
-5.9117088 6.4874821 0.12354568
-6.2045016 6.4873452 0.12635779
-6.8329782 6.4870486 0.13262267
-7.1715622 6.4868875 0.1361174
-7.9063864 6.4865422 0.14395379
-8.3069725 6.4863529 0.1483535
-9.5495796 6.401978 0.16183266
-13.601943 6.5008831 0.21220542
-16.56706 6.4920754 0.25046682
-17.819305 6.4914885 0.2669532
-19.248837 6.4908195 0.28593969
-20.885546 6.486043 0.3078402
-27.86916 6.4883881 0.40277824
-13.011455 -7.4335203 0.21093406
-12.723613 -8.5453863 0.21574272
-18.479424 -21.698191 -0.24069884
-16.664238 -21.595755 -0.2303717
-14.285507 -21.575626 -0.21853179
-13.547324 -21.573696 -0.21514152
-12.13875 -21.575605 -0.20906875
-11.461709 -21.573933 -0.20631272
-10.157959 -21.570709 -0.2013697
-9.5298824 -21.572197 -0.19916984
-8.913867 -21.570965 -0.19711487
-8.3101168 -21.569754 -0.19521797
-7.7175388 -21.568567 -0.19346458
-7.1351757 -21.5674 -0.1918444
-5.9978905 -21.566853 -0.18905312
-5.4410543 -21.566942 -0.18784897
-4.8909569 -21.567036 -0.18676551
-4.3468356 -21.567123 -0.18580239
-3.8076952 -21.56531 -0.18494178
-2.7428417 -21.563433 -0.18357673
-1.1687012 -21.560659 -0.18235366
-0.64765626 -21.560652 -0.18216766
1.4348047 -21.557514 -0.18245742
1.9580078 -21.556726 -0.1828025
2.4842479 -21.562769 -0.1833065
3.5451953 -21.563496 -0.18455359
6.8488278 -21.55249 -0.19098441
8.0116701 -21.550547 -0.19416863
9.8399019 -21.552256 -0.20008704
11.125703 -21.552189 -0.20483512
4.2805958 -7.8232369 -0.075313792
12.474218 -21.546911 -0.2102668
14.652021 -21.548222 -0.22006553
16.22286 -21.545248 -0.22777069
17.914658 -21.545517 -0.23664162
24.809872 6.5097685 -0.21661994
22.275537 6.4228849 -0.19578384
20.676376 6.5059185 -0.18306045
17.64953 6.5044851 -0.15885422
11.820596 6.4242997 -0.11362388
10.708281 6.5075626 -0.10582489
9.1445217 6.5068207 -0.094783321
8.6925001 6.5066056 -0.091698684
8.2687302 6.5064044 -0.088859178
7.138711 6.5058684 -0.081568524
6.3950877 6.4193974 -0.076527327
5.8814454 6.5029426 -0.074049219
5.6021872 6.5028105 -0.072486877
5.0768356 6.5025592 -0.069670409
4.5897069 6.5023284 -0.067215882
4.3585253 6.5022182 -0.066107631
4.134697 6.502111 -0.065074153
3.9176562 6.5020075 -0.06410782
3.706826 6.5019083 -0.063207246
3.5017383 6.5018096 -0.062366333
3.1069238 6.5016217 -0.060855329
2.9163964 6.5015302 -0.060177308
2.7299609 6.501442 -0.05955055
2.5472558 6.5013542 -0.058968961
2.3679979 6.5012674 -0.058433533
1.8478222 6.50102 -0.057076871
1.6794434 6.5009403 -0.056704327
0.85326171 6.4167547 -0.05466751
0.70607418 6.507658 -0.055281676
-0.55378908 6.5070524 -0.055151977
-0.87153316 6.5068998 -0.055442579
-1.1933789 6.5067449 -0.055867154
-1.5209765 6.5065875 -0.056431428
-1.6874609 6.5065069 -0.056767117
-2.0269334 6.5063434 -0.057552259
-2.3767676 6.5061746 -0.058497313
-2.7391307 6.506 -0.059615631
-3.3117089 6.505723 -0.061650772
-3.5117579 6.5056267 -0.062434997
-3.8671875 6.4045124 -0.063183665
-4.0811033 6.4044094 -0.064134367
-4.3016891 6.4043021 -0.06515526
-4.8275976 6.4878364 -0.068295136
-5.0751562 6.4877176 -0.069563143
-5.3322263 6.4875922 -0.070920713
-5.5996971 6.4874625 -0.072374344
-5.8785157 6.4873271 -0.073934704
-8.2591209 6.4861722 -0.088689268
-9.4919233 6.4017825 -0.09668953
-10.161289 6.502265 -0.10188004
-10.721992 6.5019927 -0.10590065
-11.329141 6.5016961 -0.11031181
-11.989491 6.5013752 -0.11518257
-12.711288 6.5010223 -0.12057564
-19.072021 6.4905095 -0.17014
-22.570557 6.4847965 -0.19832648
-24.806269 6.4837079 -0.21653464
-12.90956 -7.745151 -0.1271399
-17.913399 -21.585548 -0.23689468
-16.230995 -21.598503 -0.22813812
-13.892187 -21.574596 -0.21670921
-4.3081446 -7.8913007 -0.075928494
-11.110674 -21.573067 -0.20493385
-9.8233204 -21.569881 -0.20016402
-7.9953809 -21.569122 -0.19426955
-6.8309469 -21.566719 -0.19105498
-6.262754 -21.566811 -0.18966086
-5.1492968 -21.566992 -0.1872609
-4.6024508 -21.56708 -0.18624122
-4.0612206 -21.567169 -0.18534218
-2.4636328 -21.562941 -0.18329085
-1.9379687 -21.562014 -0.18283179
-1.4145898 -21.56109 -0.18248206
-0.89295894 -21.560173 -0.18223625
-0.37240234 -21.560236 -0.18211167
0.14771484 -21.559452 -0.182079
1.1889551 -21.557886 -0.18233916
2.2356055 -21.556309 -0.18302605
2.7634668 -21.562958 -0.18359351
3.2939551 -21.563322 -0.18422103
3.8284178 -21.56369 -0.18495826
4.9118161 -21.564436 -0.18677489
5.4596581 -21.554817 -0.18778244
8.3268452 -21.552334 -0.19512923
8.9300385 -21.552301 -0.19702293
9.5454683 -21.552271 -0.19907096
10.17415 -21.552238 -0.20127693
12.149902 -21.54771 -0.20891075
13.557226 -21.544245 -0.21497223
14.292842 -21.542437 -0.21833655
15.842949 -21.545967 -0.22585899
16.657148 -21.544426 -0.22998923
18.383789 -21.54454 -0.23918639
20.254961 -21.540649 -0.2496894
11.894697 -7.7070556 -0.11969604
21.261747 -7.950192 -0.19170524
19.789551 6.5054975 -0.17592804
16.754364 6.4185381 -0.15152176
13.873008 6.5009637 -0.1293869
13.04375 6.5005693 -0.12307922
11.454579 6.4160271 -0.11087936
10.98792 6.5076947 -0.10785042
8.0549507 6.5063052 -0.087446742
7.6686912 6.5061197 -0.084933087
6.9582028 6.505784 -0.080449067
6.5421581 6.419467 -0.07740631
6.0073338 6.4922967 -0.074702837
5.7322559 6.5028715 -0.073208921
5.1968846 6.5026164 -0.070299909
4.7013474 6.5023823 -0.067764513
4.0190916 6.5020561 -0.064554743
3.3954198 6.5017595 -0.061944883
3.005625 6.501574 -0.060491256
2.8173046 6.5014834 -0.059839629
2.4520214 6.5013089 -0.058680799
2.2744532 6.501225 -0.058166884
1.7584863 6.5009785 -0.056875229
1.4259472 6.5008183 -0.056206282
1.2475195 6.4241276 -0.055267103
1.0862012 6.4168658 -0.05496208
0.77007812 6.4167142 -0.054579999
0.62216794 6.5076175 -0.055209272
0.30654296 6.5074663 -0.055018231
0.14936523 6.5073905 -0.054970931
-0.0076269531 6.5073161 -0.05495514
-0.16462891 6.5072393 -0.054972608
-0.47939453 6.5070891 -0.055102766
-0.63750976 6.5070124 -0.055215452
-1.1171191 6.5067825 -0.055754621
-1.2793945 6.5067034 -0.056002881
-1.4432129 6.5066252 -0.05628578
-1.608789 6.5065446 -0.056603622
-1.946123 6.5063834 -0.057352673
-2.1183593 6.5062995 -0.057785641
-2.29333 6.5062137 -0.058259811
-2.4712791 6.5061297 -0.058776092
-2.837373 6.5059528 -0.059942015
-3.2191796 6.5057669 -0.06130081
-3.619668 6.5055728 -0.062872767
-3.9795215 6.4044571 -0.063678741
-4.4330955 6.4213896 -0.065898515
-4.7140527 6.4878922 -0.067728117
-5.2098827 6.4876518 -0.070268936
-5.4723339 6.4875259 -0.071677245
-5.7456837 6.4873919 -0.073186412
-6.3292966 6.4871087 -0.076541215
-6.6420116 6.4869571 -0.078407817
-7.6819334 6.4864531 -0.084909819
-8.0687599 6.4862652 -0.087430038
-8.4795017 6.4860649 -0.090159148
-8.9169722 6.4858527 -0.093120195
-9.2632618 6.4018927 -0.095094986
-9.9115725 6.5023856 -0.10011146
-10.452451 6.5021219 -0.10395965
-11.671288 6.5015287 -0.11282867
-12.363047 6.5011921 -0.11796669
-13.121211 6.500823 -0.12366462
-13.956884 6.5004168 -0.13002701
-14.675137 6.4088602 -0.13523765
-17.064335 6.4914875 -0.15418845
-19.630966 6.4024382 -0.17437752
-21.642422 6.4852481 -0.19080718
-23.704042 6.4842448 -0.20754455
-26.186424 6.4886503 -0.22783844
-18.410215 -21.678156 -0.24019034
-15.789989 -21.579559 -0.22582245
-14.242177 -21.575512 -0.21833237
-12.099121 -21.575508 -0.20890525
-10.764248 -21.572208 -0.20360138
-10.121142 -21.57062 -0.20123237
-8.2755661 -21.569685 -0.19510925
-7.1017871 -21.567333 -0.19174759
-6.5293751 -21.566767 -0.19030258
-5.9654784 -21.56686 -0.1889791
-4.8593359 -21.567041 -0.18670593
-4.3155174 -21.567129 -0.18574905
-3.2425096 -21.564314 -0.18416183
-2.712285 -21.563379 -0.18354446
-2.1852636 -21.56245 -0.1830336
-1.1385156 -21.560604 -0.18234085
-0.61754882 -21.560608 -0.18215789
0.42282227 -21.559038 -0.18210609
0.94340819 -21.558254 -0.1822409
1.9883398 -21.556679 -0.18282692
2.5147264 -21.562788 -0.18333915
3.5760839 -21.563519 -0.18459854
4.1129003 -21.563887 -0.18539688
4.6546583 -21.564257 -0.18631111
5.7531738 -21.554325 -0.18840362
6.3135934 -21.553387 -0.18967284
7.4590721 -21.55147 -0.19260032
8.6444235 -21.552317 -0.19611114
4.300488 -7.8336163 -0.075470805
12.514345 -21.54681 -0.21043487
13.943466 -21.543295 -0.21672767
16.269941 -21.545158 -0.22800688
17.100079 -21.543589 -0.23231208
17.965458 -21.545412 -0.23691481
19.799501 -21.541595 -0.24709335
20.780254 -21.541819 -0.25277519
24.669443 6.5097036 -0.21547095
22.159218 6.4228301 -0.19483329
20.575888 6.5058708 -0.18224975
16.345274 6.5021329 -0.14855964
14.293984 6.5011616 -0.13261406
13.42413 6.500751 -0.12596351
12.636924 6.5003777 -0.12001389
10.674687 6.5075469 -0.10558258
10.116875 6.5072818 -0.10158775
9.1175585 6.5068083 -0.094597548
8.6672554 6.5065947 -0.091527097
8.2450294 6.5063934 -0.088700175
7.4731836 6.5060282 -0.083679199
7.1187401 6.5058584 -0.081444852
6.3772559 6.4193878 -0.076417461
6.0787988 6.4215751 -0.074676894
5.3191404 6.502676 -0.070949174
4.3453808 6.5022125 -0.066046141
4.1219726 6.5021062 -0.065015942
3.9053028 6.5020022 -0.064054258
3.6948242 6.5019021 -0.063156962
3.2905078 6.5017095 -0.061540373
2.9055078 6.5015249 -0.060139846
2.5367968 6.5013504 -0.058936156
2.3577149 6.5012641 -0.058404312
2.1817381 6.5011797 -0.057913665
2.0086036 6.5010967 -0.057463683
1.3234668 6.4241643 -0.055393677
1.161377 6.4169025 -0.055072173
1.0021679 6.4168253 -0.054848555
0.84414059 6.41675 -0.054657742
0.38072264 6.507503 -0.055051267
-0.56294918 6.5070486 -0.055158231
-1.0411524 6.5068183 -0.055649869
-1.3658203 6.5066619 -0.056147687
-2.3870604 6.5061698 -0.058526993
-2.5667186 6.506083 -0.059066162
-2.7498145 6.5059943 -0.059650648
-2.9366796 6.5059052 -0.060281217
-3.3231444 6.5057168 -0.061694946
-4.3146582 6.4042959 -0.06521637
-5.0897555 6.4877105 -0.0696389
-5.3473926 6.4875846 -0.071000822
-6.1870313 6.4871769 -0.075708233
-7.151279 6.4867105 -0.081538923
-7.5072656 6.486536 -0.083789214
-7.8836913 6.4863529 -0.086217649
-9.0888376 6.435185 -0.09404777
-10.7558 6.5019755 -0.1061425
-11.36579 6.5016775 -0.11058372
-13.552744 6.5006132 -0.12694161
-15.398887 6.4922976 -0.14113487
-16.498447 6.4917631 -0.14973137
-17.741358 6.4911575 -0.1595449
-22.6896 6.4847379 -0.19929382
-24.820829 6.4505277 -0.21658927
-12.888173 -7.756815 -0.1270369
-17.860849 -21.583431 -0.23659568
-16.999014 -21.581289 -0.2320118
-15.370361 -21.578465 -0.22374016
-14.597509 -21.576443 -0.22000411
-13.849589 -21.574488 -0.21651237
-13.12457 -21.57259 -0.21325622
-12.423925 -21.576313 -0.21026702
-11.072607 -21.572971 -0.20478515
-10.422216 -21.571362 -0.20232123
-8.5582123 -21.570251 -0.19598137
-7.9610934 -21.569056 -0.19417205
-6.2301559 -21.566818 -0.18958442
-4.0300975 -21.567175 -0.18530059
-1.3844043 -21.561039 -0.18246467
-0.34231445 -21.56019 -0.18210502
0.69807613 -21.558624 -0.18216293
2.2666504 -21.562616 -0.18310462
2.7940624 -21.562979 -0.18362884
4.3988185 -21.564083 -0.18586601
4.9434958 -21.564457 -0.18684295
5.4916797 -21.554762 -0.1878521
7.7681637 -21.550951 -0.19346169
8.9653416 -21.552299 -0.1971347
9.5814648 -21.552267 -0.1991922
4.1768947 -7.8177938 -0.074856333
12.189492 -21.547611 -0.20907395
12.884218 -21.545902 -0.21201317
18.435713 -21.544434 -0.23947082
19.353378 -21.542524 -0.24456802
21.421024 6.5062699 -0.18906464
18.207558 6.5047503 -0.16328727
13.822715 6.5009394 -0.12900253
12.998261 6.5005484 -0.12273735
11.417188 6.4160089 -0.11060303
9.8384466 6.5071487 -0.09961731
9.3403997 6.5069122 -0.096135862
8.4406252 6.5064859 -0.090004191
8.0320015 6.5062933 -0.087295376
6.9387498 6.5057745 -0.080328822
5.7161427 6.5028644 -0.073119275
5.4436817 6.5027347 -0.071619645
5.1820312 6.5026102 -0.070221633
4.6875291 6.5023746 -0.067696147
4.0065622 6.5020514 -0.064500123
3.7932227 6.5019498 -0.06357193
3.383867 6.5017533 -0.061900709
3.1869433 6.5016594 -0.061149139
2.9946289 6.5015678 -0.060451049
2.8065331 6.5014787 -0.059803162
2.6223145 6.5013909 -0.059203338
2.4416699 6.5013027 -0.058649138
2.2642674 6.5012197 -0.058138426
1.9180664 6.5010538 -0.057242431
1.416455 6.5008135 -0.056189343
1.2382226 6.4241238 -0.055251922
1.0770019 6.416862 -0.054949872
0.29745117 6.5074625 -0.055014037
-0.016708983 6.5073113 -0.054955978
-0.33091795 6.5071597 -0.055025175
-0.48851562 6.5070844 -0.055108871
-0.64668941 6.5070086 -0.055223692
-0.8055957 6.5069318 -0.05537216
-0.96544921 6.506856 -0.055553436
-1.1264551 6.5067768 -0.055768508
-1.4527344 6.5066204 -0.056303024
-2.1283984 6.5062933 -0.057811812
-2.4816601 6.5061245 -0.05880722
-2.663125 6.5060358 -0.059369504
-3.2304785 6.5057611 -0.061342392
-3.4284863 6.5056658 -0.062103424
-3.8401854 6.5054679 -0.063798904
-3.9919238 6.4044514 -0.063733749
-4.4463282 6.4213834 -0.065961152
-4.7278905 6.487885 -0.067796938
-4.9717383 6.4877691 -0.069028392
-5.4878416 6.4875174 -0.071762159
-6.346992 6.4871001 -0.076644897
-6.9900684 6.4867878 -0.080535047
-7.3371778 6.4866204 -0.082707286
-7.7037106 6.4864421 -0.085050657
-8.091836 6.4862542 -0.087581635
-9.2909374 6.4018803 -0.095286556
-11.709668 6.5015106 -0.11311211
-13.167265 6.5008011 -0.12401474
-14.731074 6.4088345 -0.13567054
-18.467304 6.4908037 -0.16531242
-19.72415 6.4023943 -0.17513534
-21.752539 6.4851947 -0.19169913
-23.834354 6.48418 -0.20860283
-15.74375 -21.579441 -0.22559303
-14.198906 -21.575399 -0.21812752
-13.463379 -21.573477 -0.21476203
-4.3915524 -7.8568273 -0.076014705
-10.726641 -21.572117 -0.20346382
-9.4579782 -21.572052 -0.19892226
-8.2410154 -21.569614 -0.19500396
-7.6496873 -21.56843 -0.19326851
-6.4965234 -21.566774 -0.19022277
-5.3770995 -21.566956 -0.18771499
-4.2842383 -21.567133 -0.18570144
-3.7456541 -21.565199 -0.18485099
-2.6817284 -21.563324 -0.18351027
-2.1548729 -21.562397 -0.18300888
-1.6306444 -21.561472 -0.18261284
-1.1083691 -21.560551 -0.18232688
-0.067187496 -21.559778 -0.18207756
0.97350585 -21.558208 -0.18225257
3.0742772 -21.563173 -0.18394974
3.6070507 -21.563538 -0.18463959
4.686162 -21.56428 -0.18636635
5.2316699 -21.555197 -0.18732391
6.3462501 -21.553331 -0.18974937
6.9150681 -21.55238 -0.1911573
7.4927344 -21.551413 -0.19269286
8.6793652 -21.552317 -0.19621933
9.289609 -21.552284 -0.19820526
9.9126558 -21.552254 -0.20034514
11.202011 -21.552185 -0.20512909
4.3204589 -7.8440366 -0.075629577
14.74 -21.548054 -0.2204818
15.514882 -21.546589 -0.22423355
18.016386 -21.545305 -0.23718871
18.91622 -21.543434 -0.24212578
19.854921 -21.541479 -0.24743041
20.476288 6.5058231 -0.18144874
17.49872 6.5044131 -0.15766418
16.279013 6.5021038 -0.14804131
15.20248 6.5015922 -0.1396379
14.241161 6.5011368 -0.13220802
13.376454 6.5007281 -0.12560135
12.593642 6.5003567 -0.11969139
11.242236 6.5078154 -0.10970451
10.641231 6.5075297 -0.10534111
9.090683 6.5067949 -0.094414063
8.6421089 6.5065823 -0.091357723
8.221406 6.5063825 -0.088545375
6.7636228 6.5056915 -0.079255596
6.0618262 6.4215665 -0.074576795
4.8008103 6.5024295 -0.068260036
4.5625587 6.502315 -0.067083359
4.1092677 6.5021 -0.064958416
3.2791209 6.5017047 -0.061496656
3.0846777 6.5016108 -0.060773771
2.8946288 6.5015202 -0.060103223
2.7086327 6.501431 -0.059480667
2.5263476 6.5013447 -0.058905255
1.8282324 6.5010099 -0.057031859
1.6600976 6.5009308 -0.056662749
0.99298829 6.416822 -0.054835889
0.8350293 6.4167447 -0.054647978
0.68770504 6.5076494 -0.05526413
0.52934569 6.5075736 -0.055139616
0.37161133 6.5074978 -0.055046842
0.057236325 6.5073452 -0.054957733
-0.25682616 6.5071964 -0.054997176
-0.41421875 6.5071197 -0.055065077
-0.57209963 6.5070453 -0.055164795
-0.89000976 6.5068903 -0.055463333
-1.0504589 6.5068145 -0.055663373
-1.2121582 6.5067363 -0.055895843
-1.3753027 6.5066571 -0.056163482
-1.5401269 6.5065775 -0.056467742
-1.8756835 6.5064163 -0.057185743
-2.0468652 6.5063334 -0.057602614
-2.220664 6.5062494 -0.05805885
-2.5772166 6.5060773 -0.059099197
-2.7605176 6.5059881 -0.059685972
-2.9476268 6.505899 -0.060318984
-3.1388769 6.505806 -0.061003339
-3.3345995 6.505712 -0.061738431
-3.7411718 6.5055156 -0.06337738
-4.1062694 6.4043975 -0.064247586
-4.3392382 6.4214358 -0.065449826
-4.8557811 6.4878225 -0.068437725
-5.6313572 6.4874468 -0.072550654
-5.9115524 6.4873123 -0.074122235
-6.5109472 6.4870205 -0.077620693
-6.8327732 6.4868655 -0.079567567
-7.5284667 6.4865265 -0.0839241
-8.7327538 6.4859414 -0.091866836
-9.0928516 6.4189935 -0.093994364
-12.069648 6.5013361 -0.11577797
-12.79919 6.5009794 -0.1212355
-13.601328 6.5005889 -0.12731117
-19.247675 6.4904242 -0.17154479
-20.88415 6.4856167 -0.18468109
-27.866768 6.4878311 -0.24163704
-17.489149 -21.568447 -0.86012679
-14.285488 -21.575592 -0.80152768
-12.83126 -21.571789 -0.77747482
-12.138613 -21.575344 -0.76681244
-10.801786 -21.572046 -0.74729002
-10.157842 -21.570456 -0.73854208
-8.9139357 -21.571119 -0.72297698
-8.3101759 -21.569906 -0.71600586
-7.7175975 -21.56872 -0.70958084
-7.1352243 -21.567551 -0.70366889
-6.5625196 -21.567715 -0.69830692
-5.9981542 -21.567801 -0.69342667
-4.3470216 -21.568054 -0.6815154
-3.2733593 -21.564814 -0.67562759
-2.2157323 -21.562948 -0.67143583
-1.6912109 -21.562023 -0.66994125
-0.64768553 -21.561411 -0.66817135
-0.12738281 -21.560625 -0.66785949
0.3927539 -21.559841 -0.66793334
0.91329098 -21.559057 -0.66839939
1.4348534 -21.558273 -0.66925222
2.4841895 -21.56233 -0.67232049
4.0816307 -21.563425 -0.67979282
4.6230664 -21.563793 -0.68312413
5.1701756 -21.564167 -0.68689299
5.7211328 -21.554987 -0.69078964
6.2811327 -21.554052 -0.69541657
6.8490233 -21.553108 -0.70051116
7.4256539 -21.552145 -0.70610046
8.6097755 -21.552881 -0.71890682
11.126016 -21.552778 -0.75130814
4.2745509 -7.8121905 -0.27584121
13.177353 -21.545568 -0.78230804
13.901181 -21.543791 -0.79419219
14.651865 -21.547987 -0.80713743
16.222675 -21.545004 -0.83539319
17.051025 -21.543432 -0.85105652
17.914179 -21.544941 -0.86791885
20.722178 -21.5417 -0.92587769
27.143721 6.4265399 -0.86402303
24.807968 6.5092678 -0.7944473
22.273954 6.4224334 -0.71806651
19.054697 6.5047588 -0.62366915
14.346445 6.5008807 -0.48788124
13.471425 6.5004802 -0.46332237
12.679853 6.5001187 -0.44136259
11.820107 6.424036 -0.41670594
11.248603 6.4696589 -0.40195197
9.6279688 6.5068231 -0.35994789
9.1442184 6.5066018 -0.34763137
8.2684669 6.5061994 -0.32589957
7.8699508 6.5060172 -0.31628937
7.1385155 6.5056806 -0.29916695
5.881289 6.5027714 -0.27158743
5.6020508 6.5026431 -0.26585945
5.3341699 6.5025187 -0.26051551
5.0767188 6.502399 -0.25552931
4.5895896 6.5021734 -0.24652648
4.358418 6.5020647 -0.24246345
3.706748 6.5017619 -0.23182419
3.3018358 6.5015726 -0.22586928
3.1068652 6.5014811 -0.22319777
2.916328 6.5013919 -0.22071457
2.7299023 6.5013041 -0.21841201
2.5472069 6.5012174 -0.21628135
2.3679395 6.5011334 -0.21431556
2.1917968 6.5010505 -0.21250847
2.0185058 6.5009699 -0.21085182
1.6794043 6.5008097 -0.20797439
1.5130956 6.5007305 -0.2067443
1.3327832 6.4240408 -0.20322196
1.1705956 6.416779 -0.20204102
0.70606446 6.5075312 -0.20275497
0.23246093 6.5073037 -0.20169227
-0.081572264 6.5071526 -0.20157562
-0.39599609 6.5070024 -0.20192802
-0.71223629 6.5068498 -0.20275459
-1.1933594 6.5066166 -0.20490517
-1.5209472 6.5064569 -0.20697173
-1.6874316 6.5063763 -0.20820312
-1.855996 6.5062933 -0.20957267
-2.200371 6.5061245 -0.21274146
-2.7390723 6.5058622 -0.21865241
-2.9257226 6.5057697 -0.22095734
-3.1164453 6.5056767 -0.22344261
-3.8670995 6.4043679 -0.23173736
-4.0810156 6.4042621 -0.2352272
-4.8274903 6.4876785 -0.25048745
-5.0750294 6.4875579 -0.25513649
-5.3320899 6.4874296 -0.26011404
-5.8783689 6.4871573 -0.2711679
-6.1696191 6.4870124 -0.27730307
-6.4745603 6.4868608 -0.28389105
-6.7945309 6.4866996 -0.29097387
-7.8611035 6.486166 -0.31568459
-8.2588472 6.4859662 -0.325279
-9.491601 6.4015594 -0.35462317
-10.160917 6.5020304 -0.37366065
-10.721592 6.5017471 -0.38839668
-13.503808 6.5003457 -0.46422476
-14.335439 6.4795318 -0.48730063
-15.338379 6.4920025 -0.51591545
-16.430332 6.4914517 -0.54721671
-20.679247 6.4852958 -0.67130965
-22.568974 6.4843402 -0.72736537
-27.517294 6.4874506 -0.87572378
-12.888603 -7.7325749 -0.46556678
-16.231113 -21.598658 -0.83683801
-14.641484 -21.576523 -0.80769074
-12.463955 -21.576147 -0.77182692
-4.3085938 -7.8921161 -0.27851838
-9.8232031 -21.569632 -0.73416561
-8.593154 -21.570473 -0.7192207
-7.9954295 -21.569277 -0.71253967
-7.4083691 -21.568098 -0.70638764
-5.7027245 -21.567844 -0.69102871
-3.5245605 -21.565258 -0.67685342
-2.9923339 -21.564318 -0.67436409
-2.4636817 -21.563385 -0.67227757
-1.9380175 -21.562456 -0.67059541
-0.89297849 -21.560616 -0.66842037
2.2356932 -21.55707 -0.67131543
3.82833 -21.563251 -0.67837411
4.3673534 -21.56362 -0.68150359
4.9117088 -21.563992 -0.68506163
5.4598145 -21.555422 -0.68877244
6.5804782 -21.553555 -0.69805264
7.1528711 -21.552599 -0.70340455
7.7344627 -21.551632 -0.70926237
8.9302731 -21.552868 -0.72264707
10.174434 -21.552816 -0.73825485
12.84372 -21.546387 -0.77698714
13.55747 -21.544636 -0.78849113
15.056904 -21.547216 -0.81424266
16.656973 -21.544182 -0.84353191
17.504608 -21.545801 -0.85988396
28.986904 6.5160012 -0.92028868
26.010633 6.5098147 -0.83053833
18.287119 6.5044098 -0.6012122
15.817959 6.5015507 -0.52974081
14.791718 6.5010834 -0.50047934
13.872382 6.5006647 -0.4745414
11.45413 6.4157705 -0.40667099
8.4647751 6.5062895 -0.33070296
7.6684666 6.5059247 -0.31150061
6.5419922 6.4192877 -0.28389779
6.2336912 6.4191461 -0.27716589
4.7012305 6.5022244 -0.24853729
4.4663572 6.5021157 -0.2443428
4.2391601 6.5020099 -0.24042533
4.0189939 6.5019083 -0.23676734
3.8053222 6.5018072 -0.23335311
3.3953514 6.5016165 -0.22719665
3.1981347 6.5015225 -0.22443253
3.0055566 6.5014334 -0.22186042
2.6328223 6.5012589 -0.21726394
1.5912012 6.5007672 -0.20730689
1.4259082 6.5006876 -0.20614707
1.2474999 6.4240007 -0.2027014
0.92756832 6.4166641 -0.20082337
0.77005857 6.4165874 -0.20018157
0.46408203 6.5074148 -0.2020797
0.30653319 6.5073404 -0.20178917
-0.16461913 6.5071135 -0.20162269
-0.32181638 6.5070376 -0.20180313
-1.1170996 6.5066547 -0.20449318
-1.2793652 6.5065751 -0.20540108
-1.4431933 6.5064945 -0.20643814
-1.6087598 6.5064139 -0.20760688
-1.9460839 6.5062518 -0.21035378
-2.2932813 6.5060797 -0.21367927
-2.4712305 6.5059929 -0.21557236
-2.6524706 6.5059052 -0.21762604
-2.8373046 6.5058136 -0.21984954
-3.2191112 6.5056267 -0.22483276
-3.6195898 6.5054288 -0.23059706
-3.8278711 6.5053253 -0.23380028
-3.9794433 6.4043121 -0.23355369
-4.4329882 6.4212384 -0.24169311
-4.7139454 6.4877362 -0.24840377
-4.9572849 6.4876165 -0.25290632
-5.2097559 6.4874897 -0.25772545
-5.7455273 6.4872231 -0.26842329
-6.6418357 6.4867754 -0.28757316
-7.3163571 6.4864397 -0.30286568
-8.0685053 6.4860635 -0.32066536
-8.479228 6.4858561 -0.33067152
-9.9112301 6.5021539 -0.36717147
-10.452061 6.5018826 -0.38128629
-11.036533 6.5015888 -0.39676857
-14.674414 6.4085488 -0.49599722
-15.899921 6.4917192 -0.53197473
-17.063427 6.4911323 -0.56549782
-19.629745 6.4020367 -0.63956106
-21.640976 6.4848089 -0.69978684
-26.184296 6.4881253 -0.835594
-29.175512 6.4866118 -0.92579132
-17.437635 -21.566372 -0.85907048
-16.617704 -21.597698 -0.84410655
-15.003036 -21.577467 -0.81405699
-13.505283 -21.573555 -0.78838933
-11.422939 -21.573578 -0.75613952
-10.764121 -21.571953 -0.74676663
-9.4939747 -21.572283 -0.73005843
-8.8787012 -21.571049 -0.72255903
-8.2756252 -21.569838 -0.71562171
-7.6836424 -21.568651 -0.70922369
-7.1018357 -21.567486 -0.70334548
-6.5296578 -21.567722 -0.6980142
-5.9657516 -21.567804 -0.69315761
-4.8595409 -21.567974 -0.68482083
-4.3157129 -21.568058 -0.68131638
-3.242578 -21.564758 -0.67548615
-2.7123339 -21.563824 -0.67320919
-2.1853125 -21.562895 -0.67134017
-1.660957 -21.56197 -0.66986907
-1.1385547 -21.561047 -0.66879255
-0.097294919 -21.560581 -0.66785198
0.94344723 -21.559013 -0.66843414
1.4650683 -21.558228 -0.66931504
3.043535 -21.562714 -0.67453355
3.5760057 -21.563078 -0.67704803
6.3137794 -21.553999 -0.69569784
7.4592872 -21.55209 -0.70643449
8.6446676 -21.552883 -0.71930671
9.2542086 -21.552856 -0.72654587
10.512763 -21.552803 -0.74279034
4.294414 -7.8225474 -0.27641732
12.51458 -21.547192 -0.77183896
13.218642 -21.545465 -0.78296888
13.94373 -21.543686 -0.79490149
15.46917 -21.546434 -0.8216005
16.269756 -21.544916 -0.8362695
17.099873 -21.543343 -0.85198402
17.96496 -21.544834 -0.86892211
18.862637 -21.542953 -0.88694352
20.780067 -21.541628 -0.92712039
24.667549 6.5092044 -0.79024017
22.157656 6.4223795 -0.71458286
20.57456 6.5054498 -0.66840023
18.967978 6.5047183 -0.62112808
17.57288 6.5040836 -0.58041173
16.344414 6.501791 -0.54485905
13.423525 6.5004597 -0.46198615
12.636396 6.5000992 -0.44016525
11.780869 6.4240203 -0.41564399
10.674287 6.5073013 -0.38723531
10.116504 6.5070477 -0.37258658
9.1172361 6.5065885 -0.34694931
8.2447853 6.5061884 -0.32532418
7.8476071 6.5060077 -0.31575507
7.472959 6.5058341 -0.30690771
6.0786328 6.4214029 -0.27388999
5.8648243 6.5027628 -0.27124518
5.5862598 6.5026345 -0.26553985
5.062129 6.5023918 -0.2552523
4.5760255 6.5021658 -0.24628371
4.3452735 6.5020585 -0.24223702
4.1218848 6.501956 -0.23845893
3.694746 6.5017557 -0.23164016
3.2904394 6.5015678 -0.22570968
3.0957325 6.5014749 -0.22304763
2.5367479 6.501214 -0.21616408
1.6697363 6.5008049 -0.20789963
1.5035449 6.5007257 -0.20667686
1.3234375 6.4240375 -0.20316398
1.0021386 6.4166999 -0.20116799
0.84413081 6.4166226 -0.20046814
0.69687498 6.5075259 -0.20272446
0.53847653 6.5074492 -0.20225769
-0.090644531 6.5071478 -0.20157959
-0.40510741 6.5069976 -0.20194504
-0.56292969 6.5069208 -0.20230575
-0.721416 6.506845 -0.20278533
-0.88074219 6.5067682 -0.20338646
-1.2027441 6.5066118 -0.20495743
-1.6971191 6.5063715 -0.20827842
-2.0368555 6.5062051 -0.21117553
-2.2104883 6.5061197 -0.21284187
-2.5666602 6.5059466 -0.21663818
-2.7497559 6.5058575 -0.21878028
-3.3230662 6.5055742 -0.22627814
-4.0935645 6.4042544 -0.23543578
-4.3145509 6.4041462 -0.23918869
-4.8415527 6.4876728 -0.25074691
-5.0896192 6.4875493 -0.25541466
-5.3472557 6.4874225 -0.26041228
-6.1868653 6.4870038 -0.27767196
-8.2826071 6.4859552 -0.32585824
-8.7070704 6.4857426 -0.3363044
-9.0906248 6.4364543 -0.34501517
-9.5201654 6.4015446 -0.35535398
-11.365352 6.5014224 -0.40557495
-12.75457 6.5007229 -0.44343269
-13.552129 6.5003204 -0.4655731
-14.33542 6.455462 -0.48699278
-16.497559 6.4914188 -0.54915535
-17.740351 6.4907904 -0.58513826
-19.158319 6.4900737 -0.62656194
-22.688017 6.4842792 -0.73090613
-24.824951 6.4515872 -0.79450715
-12.867393 -7.7443051 -0.46519193
-19.166983 -22.056309 -0.90508503
-16.184042 -21.598774 -0.83600843
-15.370341 -21.57843 -0.82062584
-13.124551 -21.572557 -0.78216612
-12.423769 -21.576046 -0.77120209
-11.072461 -21.572712 -0.75109923
-10.42209 -21.571108 -0.74206817
-7.9611621 -21.569208 -0.71217024
-5.670527 -21.567852 -0.69077706
-4.5712204 -21.568018 -0.68291622
-4.0302634 -21.5681 -0.6796484
-0.34233397 -21.560949 -0.66794288
1.2191699 -21.558598 -0.66885173
1.7416308 -21.557812 -0.66993803
2.7940037 -21.562544 -0.67349041
3.8593554 -21.563274 -0.67854446
4.3987207 -21.563643 -0.68169576
4.9433789 -21.564013 -0.6852783
5.4918165 -21.555368 -0.68901348
6.0487986 -21.55444 -0.69344723
7.7683883 -21.551575 -0.70960408
8.3616018 -21.552893 -0.71608853
8.9655561 -21.552868 -0.72306395
4.1702538 -7.8053503 -0.27411863
12.189707 -21.547991 -0.76685393
13.599404 -21.544531 -0.78918195
14.340273 -21.548578 -0.80176651
15.10163 -21.547132 -0.81503403
15.889091 -21.545639 -0.82923871
16.70495 -21.544092 -0.8444528
17.55455 -21.545696 -0.86085826
20.310938 -21.539919 -0.91704512
21.229111 -7.9042697 -0.70167923
16.683632 6.4181561 -0.55371606
12.997685 6.5002651 -0.450147
11.416728 6.4157538 -0.40564978
10.373897 6.507165 -0.37931854
9.3400879 6.5066924 -0.35259369
8.4403515 6.5062785 -0.33010367
8.0317574 6.5060916 -0.3201693
7.6468062 6.5059147 -0.31099045
6.5237498 6.4192791 -0.28349432
6.0002637 6.5028262 -0.27407432
5.7159958 6.5026956 -0.26817811
5.4435544 6.5025687 -0.26267937
5.1819139 6.5024481 -0.25755003
4.2262497 6.5020046 -0.24020751
3.7931445 6.5018024 -0.23316208
3.5857518 6.5017047 -0.22998901
3.3837988 6.5016108 -0.22703171
2.2642188 6.5010858 -0.21323569
1.9180175 6.5009222 -0.20994812
1.7487109 6.5008402 -0.20852333
1.2381933 6.423996 -0.20264557
1.0769726 6.4167337 -0.20153899
0.7627539 6.4315643 -0.2006163
0.1402832 6.5072598 -0.20161018
-0.17371093 6.5071087 -0.20163032
-0.33090821 6.5070343 -0.20181602
-0.64666992 6.5068817 -0.20254485
-0.80557615 6.5068035 -0.2030886
-0.96542966 6.5067253 -0.20375389
-1.1264355 6.5066485 -0.20454231
-1.4527148 6.5064898 -0.20650145
-1.6183984 6.5064106 -0.20767806
-1.7860644 6.5063272 -0.20898925
-2.1283691 6.5061612 -0.21203826
-2.848125 6.5058084 -0.21998222
-3.0371094 6.5057158 -0.22239235
-3.2304101 6.5056205 -0.22498894
-3.4284081 6.5055227 -0.22777976
-3.9918261 6.4043059 -0.23375563
-4.2095995 6.4041972 -0.23738967
-5.224658 6.4874821 -0.25801507
-5.7616892 6.487215 -0.26875526
-6.3468065 6.4869242 -0.28111076
-7.3369532 6.4864273 -0.3033441
-7.7034664 6.4862466 -0.31193617
-8.0915823 6.4860516 -0.32122236
-8.5037498 6.4858451 -0.331276
-9.9413967 6.5021405 -0.36795279
-11.709199 6.5012503 -0.41485122
-12.404453 6.5009003 -0.43380156
-13.166689 6.5005145 -0.4548406
-14.730371 6.4085212 -0.49758598
-15.963418 6.4916873 -0.53379577
-17.135176 6.4910965 -0.56757432
-18.4662 6.4904227 -0.60629886
-19.7229 6.4019904 -0.64231247
