# .PCD v0.7 - Point Cloud Data file format
VERSION 0.7
FIELDS x y z
SIZE 4 4 4
TYPE F F F
COUNT 1 1 1
WIDTH 1500
HEIGHT 1
VIEWPOINT 0 0 0 1 0 0 0
POINTS 1500
DATA ascii
-9.584199 1.6922674 -1.8576993
-9.6206055 1.460332 -1.8573865
-9.6516113 1.2276379 -1.8571119
-9.6973143 0.76051265 -1.8566784
-9.7233791 -0.177359 -1.8562753
-9.7162304 -0.41186583 -1.8562716
-9.7036619 -0.64614683 -1.8563064
-9.6621876 -1.1135424 -1.856493
-9.5989943 -1.5785687 -1.8568344
-9.5592871 -1.8098902 -1.8570629
-9.463789 -2.2695532 -1.8576355
-9.2805958 -2.9497945 -1.8587801
-8.9630756 -3.8345101 -1.8608328
-8.8708496 -4.0509315 -1.8614384
-8.7735834 -4.2652149 -1.8620803
-8.6712885 -4.4772534 -1.8627584
-8.5640526 -4.6869287 -1.8634726
-8.4518948 -4.8941278 -1.864222
-8.0865326 -5.4997449 -1.8666795
-7.9552441 -5.6959257 -1.8675677
-7.5721579 -5.9945269 -1.8434373
-7.2178416 -6.0028901 -1.7919263
-6.882441 -6.0106421 -1.7441565
-6.6587791 -6.1045814 -1.7242886
-6.3639646 -6.4261742 -1.7263104
-6.2108788 -6.5818319 -1.727363
-6.0540719 -6.7339525 -1.7284427
-5.7296581 -7.0272098 -1.7306818
-5.5621777 -7.1681738 -1.73184
-4.6757321 -7.8130808 -1.7379942
-4.299922 -8.0416193 -1.7406137
-3.7158105 -8.3510475 -1.7446955
-3.5161035 -8.4450159 -1.746094
-3.3140526 -8.5342951 -1.7475101
-3.1097558 -8.6188173 -1.7489434
-2.9033496 -8.6985283 -1.7503927
-2.2724707 -8.9082384 -1.7548305
-2.0586815 -8.9681616 -1.7563368
-1.8433398 -9.0230036 -1.7578555
-1.6265429 -9.0727406 -1.7593858
-1.4084473 -9.1173162 -1.7609264
-0.52525389 -9.2432966 -1.7671781
-0.3023828 -9.2615547 -1.7687585
-0.078955077 -9.2744617 -1.7703445
0.14491211 -9.2820024 -1.7719347
0.36911133 -9.2841492 -1.7735287
1.0423535 -9.2581024 -1.7783225
1.2665136 -9.2385645 -1.7799209
1.7137011 -9.1831713 -1.783114
1.9364648 -9.1473188 -1.7847064
2.0409961 -7.7701097 -1.5334456
2.5997851 -9.0072384 -1.7894561
2.8187792 -8.9497566 -1.7910268
3.0365038 -8.8868933 -1.79259
3.4675877 -8.7451868 -1.7956884
3.8919725 -8.5823383 -1.7987442
4.3085837 -8.3986397 -1.8017496
4.7163572 -8.1944294 -1.8046969
4.9166017 -8.0847578 -1.8061464
5.1142673 -7.9701171 -1.8075787
5.5012693 -7.72616 -1.8103875
5.690361 -7.5969644 -1.8117621
6.2385645 -7.1813822 -1.8157572
6.4145312 -7.0337696 -1.8170427
6.7555761 -6.725421 -1.8195398
7.2383204 -6.2314196 -1.8230875
7.3911133 -6.0587363 -1.8242141
7.6691895 -5.983283 -1.8566738
8.0499315 -5.9736166 -1.9133941
8.454648 -5.9631543 -1.9748154
8.6429005 -5.7888551 -1.9855827
8.9213667 -5.3708639 -1.9876601
9.0528517 -5.1566367 -1.9886448
9.1789551 -4.9391012 -1.9895921
9.9060545 -3.3353264 -1.9951352
9.9867773 -3.0963616 -1.9957647
10.477002 -0.1167163 -1.9999429
10.47084 0.38877439 -2.0000167
10.439345 0.8933087 -1.9999098
10.414111 1.1448169 -1.9997886
10.382607 1.395592 -1.9996229
10.30081 1.8943048 -1.9991571
9.9883204 3.1170726 -1.9972187
9.9076366 3.3562486 -1.9967005
9.7285547 3.827976 -1.9955364
9.5262108 4.2898865 -1.9942046
8.3375874 4.7696447 -1.8334594
8.216445 4.9671788 -1.8326439
7.9597559 5.352622 -1.8309081
7.8243847 5.5402927 -1.829989
7.6844625 5.7244482 -1.8290365
6.7548728 6.7496104 -1.822704
6.5861621 6.9064865 -1.8216199
5.1023145 6.5047545 -1.5779983
4.6133494 6.5045614 -1.5221363
4.3813376 6.5044689 -1.4969391
3.8868456 6.4181638 -1.4322108
3.6796288 6.4206104 -1.4125284
3.520576 6.5017929 -1.4112926
3.3202538 6.5017099 -1.3934778
2.9338672 6.5015464 -1.3614923
2.3843944 6.5013123 -1.321771
2.2079492 6.5012364 -1.3105422
1.5282812 6.5009336 -1.2746998
1.3636621 6.5008578 -1.2678635
1.0391992 6.5007091 -1.2565827
0.71971679 6.5005579 -1.2483816
0.56135744 6.5004845 -1.2454029
0.40364257 6.5004086 -1.2431607
-0.38142577 6.5000229 -1.2428313
-0.69725585 6.4998646 -1.2477844
-0.8562988 6.4997826 -1.251372
-1.0043945 6.4231129 -1.2409155
-1.1624609 6.4158483 -1.2445686
-1.4852246 6.4156785 -1.2569834
-1.6726074 6.5065403 -1.2823197
-1.8410058 6.5064511 -1.2906816
-2.011709 6.5063572 -1.2999144
-2.1849804 6.5062656 -1.3100491
-2.909209 6.5058665 -1.3603142
-3.9094141 6.5052991 -1.4486767
-4.126152 6.5051732 -1.4703957
-4.5803905 6.5049095 -1.5185597
-4.8191309 6.5047693 -1.5452243
-5.0665622 6.5046225 -1.5737736
-5.9171777 6.8841453 -1.7327223
-6.2333202 6.5812192 -1.7302202
-6.3862696 6.4249048 -1.7291361
-6.8214746 5.9352417 -1.7259277
-7.4653711 5.0571837 -1.7211447
-7.5813766 4.8731556 -1.720277
-7.8001461 4.4975195 -1.718634
-8.1977053 4.4667869 -1.7819631
-8.6599312 4.4511547 -1.858551
-9.0645409 3.6024034 -1.8618383
-9.1457224 3.3815441 -1.8612096
-9.2924414 2.9346788 -1.8600625
-9.3579102 2.7088995 -1.8595445
-9.4181252 2.4817224 -1.8590635
-9.4729786 2.2532756 -1.8586204
-9.6054201 1.5614123 -1.857518
-9.6387691 1.3290319 -1.8572268
-9.7062788 0.62832457 -1.856584
-9.7240725 0.15940735 -1.8563485
-9.7247753 -0.075219117 -1.856289
-9.7200193 -0.30978453 -1.8562684
-9.6730661 -1.0119629 -1.8564391
-9.6465235 -1.245108 -1.8565737
-9.6145802 -1.4775848 -1.8567469
-9.5772362 -1.7092896 -1.8569589
-9.534502 -1.940079 -1.8572091
-9.4864063 -2.169862 -1.8574978
-9.3101463 -2.8518627 -1.8585927
-9.2408199 -3.0763559 -1.8590338
-8.8165522 -4.172194 -1.8617964
-8.716445 -4.3852191 -1.8624587
-8.5012989 -4.8042254 -1.8638914
-8.3864155 -5.0099826 -1.8646607
-8.2666597 -5.2130799 -1.8654652
-8.1421776 -5.4134083 -1.8663039
-8.012969 -5.6108775 -1.8671768
-6.7207322 -6.0328221 -1.7238647
-6.5770602 -6.1967258 -1.7248483
-6.277988 -6.5144897 -1.7269014
-5.8014746 -6.9646463 -1.7301854
-5.2933884 -7.3808975 -1.7337021
-4.7560349 -7.7610407 -1.7374351
-4.1917968 -8.1029491 -1.7413682
-3.9982128 -8.2080879 -1.7427206
-3.8020215 -8.3086824 -1.7440923
-3.6033592 -8.4046755 -1.7454829
-3.4022949 -8.496006 -1.7468915
-3.1989648 -8.5826101 -1.7483174
-2.9934666 -8.6644192 -1.7497598
-2.7859082 -8.7413893 -1.751218
-1.0648047 -9.1766224 -1.7633563
-0.3994824 -9.2542639 -1.7680697
-0.17631836 -9.2695026 -1.7696533
0.2714746 -9.2838717 -1.7728342
0.94467771 -9.2649145 -1.7776263
1.1689453 -9.2477341 -1.779225
1.3929492 -9.2251282 -1.7808232
1.6165429 -9.1970758 -1.7824198
1.7450488 -7.7223883 -1.5111914
1.9402832 -7.7156076 -1.5185852
2.7235937 -8.9754381 -1.7903439
2.941875 -8.9149256 -1.7919105
4.2186036 -8.4403915 -1.8010998
4.6283884 -8.2406158 -1.8040606
5.224658 -7.903214 -1.8083792
5.9799705 -7.3853893 -1.8138707
6.6826072 -6.7940154 -1.8190048
7.011816 -6.4723802 -1.8214207
7.3250875 -6.1344023 -1.8237269
7.5102735 -5.9872632 -1.8333266
7.8813672 -5.9779181 -1.8881525
8.5795898 -5.8779297 -1.9851116
8.8625097 -5.4630704 -1.9872199
9.6848049 -3.9079247 -1.9934289
9.8690529 -3.4386916 -1.9948481
10.101084 -2.7184966 -1.9966656
10.166357 -2.4746828 -1.9971862
10.225556 -2.2292469 -1.9976643
10.278593 -1.9823589 -1.9980987
10.366074 -1.4848285 -1.9988363
10.428555 -0.98339415 -1.9993973
10.477841 0.026007079 -1.9999821
10.474336 0.27876952 -2.0000157
10.464512 0.53135622 -2.0000048
10.448339 0.78362119 -1.999948
10.425879 1.0353943 -1.9998471
10.362051 1.5367962 -1.9995096
10.320742 1.7861114 -1.9992737
10.273222 2.0342705 -1.9989932
10.159609 2.5265288 -1.9982998
10.093623 2.7703075 -1.9978869
10.021582 3.0123112 -1.997431
9.8594818 3.4903467 -1.9963892
9.048769 4.4930201 -1.9283999
8.5578127 4.5097814 -1.8464237
8.2697849 4.8815589 -1.8330035
8.1458979 5.0773144 -1.832168
8.0172462 5.2698398 -1.8312975
7.8838863 5.4590173 -1.8303932
7.6034861 5.8268332 -1.8284847
7.1500387 6.3506298 -1.8253814
6.8271384 6.679985 -1.8231665
6.6601071 6.838706 -1.8220956
6.0363379 6.5051107 -1.6938995
4.4813962 6.504509 -1.5076981
4.1973438 6.4182882 -1.4638127
3.9795995 6.4182019 -1.4414686
3.7696581 6.420444 -1.4211289
3.6094334 6.5018296 -1.4194527
3.2093358 6.5016623 -1.3839701
3.0164745 6.5015817 -1.3680594
2.2843945 6.5012693 -1.3153126
1.7679394 6.5010409 -1.2859591
1.6005371 6.5009665 -1.2779324
1.4351269 6.5008907 -1.270739
0.94857419 6.5006661 -1.253961
0.47224608 6.5004416 -1.2440468
0.31481445 6.5003662 -1.2422175
-0.62827146 6.4998984 -1.2464556
-0.78694332 6.4998178 -1.2497176
-0.93538082 6.4231491 -1.2389565
-1.0929785 6.415885 -1.2422799
-1.2529395 6.4158006 -1.2477558
-1.5999414 6.5065794 -1.2789447
-1.93708 6.5063987 -1.2957853
-2.1092088 6.5063062 -1.305524
-2.2840428 6.5062108 -1.3161801
-2.4618554 6.5061131 -1.3277917
-3.0161815 6.5058069 -1.3687656
-3.8170116 6.5053515 -1.4396811
-4.0309863 6.5052295 -1.4607546
-4.4789648 6.5049682 -1.507507
-4.71416 6.5048313 -1.5333909
-4.9577146 6.5046873 -1.5611038
-6.0079293 6.8000937 -1.7320065
-6.1657615 6.6483898 -1.7307562
-6.3202147 6.4934521 -1.7296219
-6.7605176 6.0081248 -1.726378
-6.8993845 5.8398166 -1.7253513
-7.0341797 5.6683969 -1.724353
-7.1648436 5.4939756 -1.7233832
-7.7541013 4.5801344 -1.7189807
-8.8453512 4.1321864 -1.8635201
-8.9390135 3.9160974 -1.8628038
-9.0275879 3.6979747 -1.8621234
-9.1110058 3.4779162 -1.8614788
-9.1892481 3.2560606 -1.8608711
-9.3300486 2.8073778 -1.8597655
-9.5480862 1.8935424 -1.8580029
-9.5892086 1.6623437 -1.8576567
-9.6249218 1.4303063 -1.8573489
-9.6995306 0.73026669 -1.8566555
-9.7251263 0.026932372 -1.8563104
-9.7227631 -0.20767273 -1.8562726
-9.7016306 -0.67639893 -1.8563141
-9.68291 -0.91027218 -1.8563927
-9.65874 -1.1436682 -1.8565104
-9.5941505 -1.6085076 -1.8568618
-9.507988 -2.0699484 -1.8573675
-9.4004192 -2.5270391 -1.8580264
-9.3386908 -2.7536371 -1.8584127
-9.2716408 -2.9788001 -1.8588372
-9.0392284 -3.6444097 -1.8603354
-8.8585739 -4.0787439 -1.8615191
-8.6577148 -4.5044847 -1.8628488
-8.5498343 -4.7138529 -1.8635675
-8.4370308 -4.9207091 -1.8643216
-8.319375 -5.1249824 -1.8651108
-8.1969624 -5.3265381 -1.8659344
-7.9379587 -5.7210541 -1.8676847
-7.8014746 -5.9138131 -1.8686105
-7.5252342 -5.9956436 -1.8365557
-7.1734862 -6.0039248 -1.7855496
-6.3444042 -6.4464793 -1.726445
-6.0335641 -6.7533355 -1.7285843
-5.7081933 -7.0456438 -1.7308301
-5.5402832 -7.1861115 -1.7319915
-4.6517968 -7.8283701 -1.7381608
-4.4649415 -7.9442563 -1.7394627
-4.2752247 -8.0557852 -1.7407861
-4.0828028 -8.1628637 -1.7421294
-3.4901366 -8.4568224 -1.7462759
-3.2877734 -8.5454865 -1.7476945
-2.6678417 -8.7826834 -1.7520479
-2.4572754 -8.8519669 -1.7535293
-1.1607128 -9.1613998 -1.7626779
-0.71875 -9.2230654 -1.7658066
-0.27355468 -9.2635317 -1.7689631
-0.05003906 -9.2757406 -1.7705498
1.0713378 -9.255887 -1.778529
1.9652051 -9.1422882 -1.7849119
1.8414648 -7.6621237 -1.5041664
2.0712597 -7.7864933 -1.5379472
3.0645213 -8.8783903 -1.7927911
4.1282029 -8.4811611 -1.8004477
4.3351855 -8.3860617 -1.8019416
4.5399704 -8.2858362 -1.8034213
4.742373 -8.1805372 -1.8048853
4.9423141 -8.0702276 -1.8063325
5.3341599 -7.8347631 -1.8091737
5.71457 -7.5799246 -1.8119382
5.900156 -7.4454117 -1.8132892
6.0825 -7.3062606 -1.8146183
6.6088867 -6.8618064 -1.8184649
6.9414845 -6.5438108 -1.8209039
7.1019039 -6.3785958 -1.8220831
7.4105468 -6.0361481 -1.8243575
7.7171288 -5.9820757 -1.863757
8.1008101 -5.9723105 -1.9210573
8.5088081 -5.96174 -1.9831175
8.6615038 -5.7622986 -1.9857211
8.8026562 -5.5546093 -1.9867731
8.938652 -5.343369 -1.9877893
9.1948729 -4.9107513 -1.9897119
9.5383587 -4.2385135 -1.9923106
9.7391987 -3.7764285 -1.9938461
9.8309565 -3.541635 -1.9945532
9.9168262 -3.304569 -1.9952189
10.256249 -2.0900307 -1.9979148
10.349131 -1.5935211 -1.9986907
10.41708 -1.0928186 -1.9992901
10.44163 -0.84131896 -1.9995232
10.471807 -0.33676147 -1.999855
10.477363 -0.084049068 -1.9999533
10.476641 0.16873778 -2.0000067
10.46955 0.42140442 -2.000015
10.436436 0.92584348 -1.9998966
10.41041 1.1772656 -1.9997698
10.378086 1.4279394 -1.9995981
10.339501 1.6777014 -1.9993817
10.294687 1.9263684 -1.9991207
10.053672 2.9071844 -1.9976346
9.5123825 4.3193641 -1.9941133
9.2791109 4.4865146 -1.9673361
8.7631836 4.50103 -1.8804281
8.2004299 4.9924717 -1.832536
7.8065524 5.5642953 -1.8298675
7.6660447 5.747992 -1.8289111
6.5640917 6.9264417 -1.8214777
5.5944629 6.5049424 -1.6376724
4.8219333 6.5046434 -1.5455244
4.5829101 6.5045505 -1.5187823
4.2942872 6.4183273 -1.4740282
4.0735841 6.4182382 -1.4510081
3.6795506 6.4671178 -1.4202284
3.4944043 6.5017819 -1.4089187
3.2947361 6.5017004 -1.3912678
3.0998926 6.5016174 -1.3748432
2.9095018 6.5015378 -1.359584
2.7231934 6.5014586 -1.3454351
2.5405955 6.501379 -1.3323443
2.3614256 6.5013022 -1.3202662
2.1853516 6.5012264 -1.3091592
2.0121386 6.5011497 -1.2989886
1.8415039 6.5010738 -1.2897213
1.3425195 6.5008483 -1.2670394
1.1797558 6.5007739 -1.2611089
1.0184277 6.5006995 -1.2559618
0.54093748 6.5004749 -1.2450721
0.06920898 6.5002465 -1.24081
-0.087617189 6.5001698 -1.2408376
-0.24455078 6.5000916 -1.2415876
-0.40174803 6.5000119 -1.2430632
-0.8769238 6.499773 -1.2518901
-1.5063086 6.4156675 -1.257895
-1.8629394 6.5064392 -1.2918252
-2.5636718 6.5060582 -1.334784
-2.9335742 6.5058532 -1.3622171
-3.1245117 6.5057459 -1.3775803
-3.5201855 6.5055223 -1.4118818
-3.7257421 6.5054049 -1.4309521
-3.9370701 6.5052819 -1.4513998
-4.1546288 6.505156 -1.4733111
-4.8505955 6.5047507 -1.5488039
-5.0991993 6.504602 -1.5776083
-5.3573923 6.5044494 -1.608458
-6.0974903 6.7148886 -1.7312982
-6.253242 6.5611534 -1.7300617
-6.4057322 6.4044299 -1.7289931
-6.6987987 6.08041 -1.7268338
-7.3608398 5.215239 -1.7219247
-7.4806247 5.0335608 -1.7210307
-7.8375974 4.486659 -1.723816
-8.9896479 3.7931895 -1.8624151
-9.231123 3.1300397 -1.8605441
-9.3011913 2.9055834 -1.8599936
-9.5719728 1.7631171 -1.8578027
-9.6699409 1.0658313 -1.856944
-9.6917286 0.83214962 -1.8567349
-9.724472 -0.1055426 -1.8562841
-9.7080956 -0.57444519 -1.8562917
-9.6699505 -1.042127 -1.8564544
-9.6426954 -1.2751929 -1.8565942
-9.6100874 -1.5075653 -1.8567721
-9.5720119 -1.7391589 -1.8569891
-9.5285645 -1.9698404 -1.8572444
-9.4797754 -2.1994781 -1.8575381
-9.3662014 -2.6551483 -1.8582397
-9.3014545 -2.8809536 -1.8586477
-9.2314844 -3.1052444 -1.8590933
-9.1562595 -3.3279009 -1.8595767
-9.0758591 -3.5488091 -1.8600971
-8.9903021 -3.7678292 -1.8606547
-8.8039064 -4.1998396 -1.8618798
-8.7031441 -4.4125853 -1.8625469
-8.4867573 -4.8309546 -1.8639886
-8.2508593 -5.2391214 -1.8655715
-8.125742 -5.4390955 -1.8664148
-7.9959178 -5.6361823 -1.8672922
-7.6847167 -5.9918346 -1.8600143
-7.3242188 -6.0003972 -1.8072821
-6.9832325 -6.0083299 -1.758404
-6.5582128 -6.2176728 -1.7249774
-6.4100876 -6.3778162 -1.7259936
-6.2581444 -6.534544 -1.7270378
-6.1024899 -6.6877499 -1.7281091
-5.9431348 -6.8373685 -1.7292078
-5.2708397 -7.3980346 -1.7338583
-5.0944138 -7.5283451 -1.7350829
-4.9148731 -7.6545553 -1.7363303
-3.9729881 -8.2213469 -1.7428968
-3.5775194 -8.4167395 -1.7456638
-3.3761621 -8.5074644 -1.7470747
-3.1725292 -8.5934534 -1.748503
-2.5491796 -8.8224115 -1.7528826
-2.3375878 -8.8888884 -1.7543719
-1.9094141 -9.0067606 -1.7573893
-1.4753516 -9.1042194 -1.7604535
-1.0363281 -9.1809378 -1.7635579
-0.37069336 -9.2565298 -1.7682738
0.076347657 -9.2802601 -1.7714475
0.30044922 -9.2840652 -1.7730404
0.97363281 -9.2629957 -1.7778326
1.1979198 -9.245122 -1.7794316
1.4218554 -9.2218046 -1.7810296
1.6453809 -9.1930532 -1.7826258
2.5324903 -9.0237646 -1.7889739
2.7518651 -8.967926 -1.7905469
3.4020019 -8.7682581 -1.7952167
3.6156249 -8.6910725 -1.7967535
4.4510937 -8.3301001 -1.8027788
4.654541 -8.2270041 -1.8042495
5.6327829 -7.6370215 -1.8113433
5.819746 -7.50455 -1.8127036
6.1839647 -7.2256832 -1.8153585
6.3610153 -7.0794358 -1.8166516
6.5345116 -6.9287624 -1.8179204
6.7043357 -6.773737 -1.819164
6.8704004 -6.6144614 -1.820382
7.0325389 -6.4510288 -1.8215731
7.5570407 -5.9860954 -1.8401753
8.3279982 -5.9664469 -1.9554778
8.7418261 -5.6454749 -1.9863194
8.8800879 -5.4357681 -1.9873513
9.013135 -5.2225819 -1.9883472
9.2633009 -4.7863016 -1.9902273
9.3802338 -4.5634637 -1.9911107
9.4916115 -4.3376951 -1.991955
9.6974115 -3.8779111 -1.9935255
9.8801365 -3.4080627 -1.9949341
9.9626856 -3.1697509 -1.9955764
10.039287 -2.9293654 -1.9961771
10.109854 -2.6870804 -1.9967352
10.174365 -2.4430654 -1.9972504
10.285 -1.9503536 -1.9981517
10.370869 -1.4525293 -1.998878
10.477744 0.058665771 -1.9999889
10.473437 0.311416 -2.0000169
10.4225 1.0678881 -1.9998306
10.392929 1.318886 -1.9996785
10.35707 1.5690649 -1.9994814
10.21209 2.3129401 -1.9986233
9.7574902 3.7563586 -1.9957256
8.3737106 4.7085462 -1.8337022
8.1295309 5.1023779 -1.8320571
8.0002737 5.294486 -1.8311825
7.7277732 5.6684437 -1.8293316
7.5847559 5.8500986 -1.8283569
7.4373145 6.028048 -1.8273495
7.2855859 6.2021837 -1.826311
7.1296678 6.3724036 -1.8252417
6.6382127 6.8589063 -1.821955
5.9986911 6.5050964 -1.6890167
5.7144432 6.5049877 -1.6527045
5.1804295 6.5047836 -1.587247
4.9286523 6.5046849 -1.5577486
4.168828 6.4182773 -1.4608358
3.9519627 6.418191 -1.4386955
3.7427928 6.420433 -1.418534
3.5829394 6.5018187 -1.4170047
3.3810351 6.5017343 -1.3987985
2.6196582 6.5014148 -1.3379163
2.2616405 6.5012598 -1.3138782
2.0872266 6.5011826 -1.3033061
1.7461816 6.5010314 -1.2848741
1.5790527 6.5009556 -1.2769562
1.4138769 6.5008812 -1.2698702
1.0885156 6.500731 -1.2581071
0.29452148 6.5003552 -1.2420337
0.1375 6.5002794 -1.2410237
-0.019345703 6.5002036 -1.2407374
-0.17620116 6.5001254 -1.2411724
-0.49070311 6.4999695 -1.2442169
-0.64873046 6.4998889 -1.2468355
-0.80750972 6.4998083 -1.2501943
-0.95583981 6.4231396 -1.2395219
-1.4353906 6.4157052 -1.2548769
-1.6214648 6.506567 -1.2799298
-2.1316504 6.5062938 -1.3068469
-2.3068457 6.5061998 -1.3176264
-3.2342577 6.5056834 -1.3867674
-3.4323633 6.5055714 -1.4039911
-3.635576 6.505455 -1.422485
-3.844326 6.5053368 -1.442323
-4.0591111 6.5052123 -1.4635856
-4.5089064 6.5049524 -1.5107527
-4.9898338 6.5046692 -1.5648242
-5.2437205 6.5045176 -1.5947617
-5.8675098 6.9292331 -1.7331134
-6.3398924 6.473175 -1.7294772
-6.4900389 6.3143287 -1.7283726
-6.9170508 5.8178368 -1.7252206
-7.1814356 5.4712291 -1.72326
-7.3073535 5.2935104 -1.7223234
-7.4289942 5.112998 -1.7214162
-7.5463281 4.9297814 -1.7205392
-8.514287 4.4561 -1.8343042
-8.8577337 4.1043811 -1.8634256
-9.1214256 3.4493494 -1.8613982
-9.1989746 3.2272606 -1.8607953
-9.4567575 2.3233466 -1.8587521
-9.5078907 2.0940673 -1.8583353
-9.5537014 1.8637115 -1.8579559
-9.594121 1.6323999 -1.8576148
-9.6291304 1.4002666 -1.8573118
-9.6587496 1.1674017 -1.8570471
-9.7016506 0.70001221 -1.8566335
-9.714922 0.46572998 -1.8564848
-9.722744 0.23124389 -1.8563747
-9.7251263 -0.0033764648 -1.8563032
-9.7220411 -0.23797791 -1.8562707
-9.6995115 -0.70664978 -1.8563219
-9.6249313 -1.4064825 -1.85669
-9.5016794 -2.0996377 -1.8574053
-9.2626076 -3.0077887 -1.8588947
-9.028183 -3.6727045 -1.8604074
-8.9397364 -3.8906417 -1.8609856
-8.8461914 -4.1065249 -1.8616009
-8.4220896 -4.9472666 -1.8644216
-8.3038378 -5.1511841 -1.8652151
-8.1807909 -5.3523855 -1.8660433
-8.0531349 -5.5507207 -1.8669052
-7.478652 -5.9967504 -1.8297437
-6.7986035 -6.0125523 -1.7323784
-6.4750485 -6.3085051 -1.7255478
-6.3247657 -6.4667315 -1.7265799
-6.0129786 -6.7726707 -1.728726
-5.8515916 -6.920208 -1.7298394
-5.1716113 -7.4721146 -1.7345469
-4.9934473 -7.6001072 -1.7357841
-4.6278224 -7.8435907 -1.7383277
-4.4405761 -7.9589219 -1.7396325
-4.057754 -8.1763706 -1.7423044
-3.8623631 -8.2783632 -1.7436703
-2.8496678 -8.7183466 -1.75077
-2.0031641 -8.9828176 -1.7567283
-1.7874218 -9.0363483 -1.7582501
-1.1322558 -9.1660185 -1.7628791
-0.91164058 -9.1988058 -1.7644404
-0.69009763 -9.2263136 -1.7660094
-0.46772459 -9.2485266 -1.7675859
-0.24470703 -9.2654047 -1.7691679
-0.021132812 -9.276927 -1.7707549
0.20285156 -9.2830763 -1.7723465
0.42710936 -9.2838202 -1.7739413
0.87596679 -9.269083 -1.7771364
1.1003125 -9.2535734 -1.7787356
1.5481249 -9.2062454 -1.7819312
1.7713476 -9.1744213 -1.7835259
1.8706055 -7.6778922 -1.5084008
2.1015429 -7.8023119 -1.5423578
2.8751659 -8.93402 -1.7914315
3.0925488 -8.8697824 -1.7929924
3.3084764 -8.800211 -1.794544
3.7354686 -8.6451693 -1.7976167
3.9462597 -8.5597677 -1.7991356
4.1550779 -8.4691629 -1.8006414
4.3617868 -8.3733912 -1.8021338
4.5662498 -8.2725067 -1.8036113
4.9679589 -8.0556087 -1.8065182
5.1648927 -7.9396868 -1.8079458
5.7387109 -7.5628099 -1.8121139
6.1058202 -7.2879472 -1.8147885
6.2843847 -7.1436591 -1.8160918
6.7985544 -6.6843357 -1.819855
7.122334 -6.3569355 -1.8222336
7.2782226 -6.1871643 -1.8233814
7.4299216 -6.0134721 -1.8245007
8.6800385 -5.7356505 -1.985859
9.0859566 -5.1007328 -1.9888934
9.2106838 -4.8823581 -1.9898309
9.4438181 -4.4363322 -1.9915924
9.552021 -4.2089844 -1.9924145
9.7513771 -3.7462242 -1.9939398
9.8423529 -3.5111325 -1.9946414
9.9274902 -3.2737625 -1.9953021
10.079873 -2.7928064 -1.9964973
10.208066 -2.3045557 -1.9975222
10.262998 -2.0580864 -1.9979702
10.354297 -1.5612885 -1.9987348
10.444345 -0.80876034 -1.99955
10.47288 -0.30412108 -1.9998703
10.477627 -0.05139038 -1.9999626
10.468174 0.45405701 -2.0000129
10.453964 0.70644104 -1.9999703
10.373447 1.4602618 -1.9995728
10.334052 1.7098937 -1.9993505
10.288418 1.958432 -1.9990839
10.236601 2.2056928 -1.9987727
10.114482 2.6958532 -1.9980181
9.8858299 3.4177012 -1.9965597
9.7037401 3.888242 -1.9953738
9.2098236 4.4884763 -1.9555992
8.6997852 4.5028 -1.869828
8.4242182 4.6211877 -1.8340411
8.1843557 5.0177283 -1.8324275
8.0571384 5.2112389 -1.8315676
7.9252243 5.4014511 -1.8306738
7.7886715 5.5882273 -1.829746
7.3521676 6.1268454 -1.826767
6.8775001 6.630538 -1.8234881
6.7116404 6.7905664 -1.8224267
5.293047 6.5048265 -1.6007361
4.7905564 6.504631 -1.5419641
4.0455661 6.4182272 -1.4481484
3.6725194 6.5018539 -1.4253403
3.4683201 6.501771 -1.4065667
3.0750585 6.5016065 -1.3728081
2.885205 6.5015268 -1.3576934
2.5172656 6.5013695 -1.3307282
2.3385057 6.5012927 -1.3187776
2.1628222 6.5012155 -1.3077939
1.9899414 6.5011401 -1.2977414
1.6515722 6.5009899 -1.2802997
1.4855762 6.5009141 -1.272855
0.36296874 6.5003891 -1.2427003
0.20583007 6.5003123 -1.2413751
-0.26483399 6.5000806 -1.2417383
-0.57984376 6.4999242 -1.2456055
-1.0454491 6.4230933 -1.2421465
-1.2038085 6.4158263 -1.2459966
-1.3647851 6.4157434 -1.2520112
-1.7159082 6.5065174 -1.2843984
-2.0562303 6.5063353 -1.3024461
-2.2302051 6.5062399 -1.3128179
-2.4070799 6.5061436 -1.3241327
-3.3455272 6.505621 -1.3963412
-3.5464354 6.5055065 -1.4142703
-3.9648144 6.5052671 -1.454147
-4.1832423 6.5051413 -1.4762535
-4.6412988 6.5048728 -1.5252789
-5.9588671 6.8458152 -1.7323937
-6.2733006 6.5412755 -1.7299665
-6.5731344 6.2231283 -1.7277606
-6.8573046 5.8916759 -1.7256627
-6.9933395 5.7212119 -1.7246557
-7.253037 5.3712316 -1.7227277
-7.3765621 5.1919212 -1.7218075
-7.6106348 4.8251867 -1.7200576
-7.7211032 4.6379528 -1.7192287
-8.3135061 4.4628868 -1.8010516
-8.7153711 4.4111657 -1.8645092
-8.8156443 4.1979322 -1.8637466
-8.9108591 3.9824901 -1.8630195
-9.0860052 3.5454919 -1.8616723
-9.1658592 3.3241625 -1.8610531
-9.2404785 3.1011314 -1.8604709
-9.4862795 2.1940308 -1.8585119
-9.5771971 1.7332342 -1.8577586
-9.6730566 1.0356488 -1.8569148
-9.7098045 0.56778377 -1.8565447
-9.7200098 0.33335754 -1.8564178
-9.7247658 0.09876892 -1.8563294
-9.7179003 -0.37039 -1.8562694
-9.7062788 -0.60470277 -1.8562976
-9.6667185 -1.072268 -1.8564703
-9.6387787 -1.305257 -1.8566149
-9.6054392 -1.5375555 -1.8567981
-9.566699 -1.7690185 -1.8570199
-9.3581247 -2.6844172 -1.8582906
-9.2220507 -3.1341074 -1.8591537
-9.146162 -3.356544 -1.8596417
-8.9788866 -3.7960036 -1.8607293
-8.6897554 -4.4399033 -1.862636
-8.5833588 -4.6500077 -1.8633437
-8.4720898 -4.857655 -1.8640869
-7.9787793 -5.6614327 -1.8674083
-7.8437595 -5.8551316 -1.8683237
-6.6840134 -6.0754938 -1.7241158
-5.9222946 -6.8564348 -1.7293515
-5.4218063 -7.2812786 -1.7328118
-5.2482324 -7.4151006 -1.7340153
-5.0714159 -7.544889 -1.7352426
-4.8914356 -7.6705532 -1.7364932
-4.5224609 -7.909235 -1.7390617
-4.1420212 -8.1305542 -1.7417159
-3.7509179 -8.3339376 -1.7444501
-3.3499999 -8.5188284 -1.7472581
-3.1460838 -8.6042042 -1.7486885
-2.7319629 -8.7604885 -1.7515973
-2.5219531 -8.8312769 -1.753074
-2.3101172 -8.897109 -1.7545652
-1.665 -9.0643148 -1.7591141
-1.4471191 -9.1098051 -1.760653
-0.78667969 -9.2149839 -1.7653253
-0.34187499 -9.2587147 -1.7684784
0.1052832 -9.2810545 -1.7716531
0.32944337 -9.2841616 -1.7732465
0.55381835 -9.2818556 -1.7748427
0.77826172 -9.2741385 -1.7764405
1.0026855 -9.2609949 -1.7780397
1.4508008 -9.2183943 -1.7812362
1.8970898 -9.1540585 -1.784425
1.7730956 -7.6251049 -1.4942877
2.5609179 -9.0168562 -1.7891775
2.7801268 -8.9603176 -1.7907494
2.9980762 -8.898407 -1.7923139
4.064404 -8.5092506 -1.7999874
5.2749023 -7.8720641 -1.8087437
5.4674997 -7.7485089 -1.810142
6.0270214 -7.3493662 -1.8142139
6.7260156 -6.7533994 -1.8193231
7.0532031 -6.4296017 -1.8217251
7.2108884 -6.2615647 -1.8228853
7.6041598 -5.9849157 -1.847095
7.9808493 -5.9753838 -1.9030252
8.3811331 -5.9650674 -1.963578
8.7599802 -5.6185789 -1.9864547
8.8975582 -5.4084191 -1.987482
9.0299511 -5.1947875 -1.9884732
9.1570311 -4.9778214 -1.9894271
9.3949709 -4.5344357 -1.9912221
9.5056152 -4.3082933 -1.9920616
9.6106052 -4.079411 -1.9928613
9.7099218 -3.847847 -1.9936215
9.972929 -3.1388049 -1.9956564
10.182265 -2.4113913 -1.997314
10.239843 -2.165561 -1.9977806
10.336523 -1.6698077 -1.9985833
10.375527 -1.4202484 -1.9989185
10.454961 -0.66646969 -1.9996586
10.468818 -0.41409057 -1.9998156
10.476337 -0.16143188 -1.9999279
10.477539 0.091346435 -1.9999951
10.472403 0.34408203 -2.0000172
10.443154 0.84876585 -1.9999264
10.388662 1.3512609 -1.9996556
10.309062 1.8503546 -1.9992056
10.259941 2.0981989 -1.9989135
10.143134 2.5897026 -1.9981973
10.075576 2.8330364 -1.9977733
10.001972 3.0745556 -1.9973059
9.5450287 4.2494431 -1.9943292
9.436367 4.4768519 -1.9936093
8.473877 4.5332713 -1.8343737
8.3585253 4.7343812 -1.8336002
8.2382126 4.9324646 -1.8327907
8.1131153 5.1274023 -1.8319464
7.9832225 5.3190756 -1.8310672
7.5659375 5.8732934 -1.8282284
7.2656837 6.2243958 -1.8261746
7.1092281 6.3941026 -1.8251013
6.9486914 6.5597754 -1.8239982
6.6162791 6.8790526 -1.8218138
5.9612403 6.5050831 -1.6841785
5.6786423 6.5049753 -1.6481988
5.4076657 6.5048718 -1.6146387
5.1473632 6.5047717 -1.5833223
3.3553514 6.5017247 -1.396541
3.1590819 6.5016418 -1.3797463
2.9673631 6.5015621 -1.3641369
2.7798243 6.501482 -1.3496526
2.5961132 6.5014038 -1.3362423
2.4159276 6.5013256 -1.3238597
2.2389355 6.5012488 -1.3124596
1.8934667 6.5010972 -1.2924633
1.3926855 6.5008717 -1.269014
1.2294433 6.5007968 -1.2628407
1.0676953 6.5007224 -1.2574553
0.58931637 6.5004954 -1.245876
0.43150389 6.500422 -1.2435048
0.27419922 6.5003452 -1.2418628
0.11722656 6.5002685 -1.2409463
-0.03961914 6.5001926 -1.2407531
-0.35357422 6.5000362 -1.2425342
-0.51108396 6.4999585 -1.2445152
-0.66919923 6.4998779 -1.2472278
-1.1341991 6.415864 -1.2436213
-1.6430371 6.5065551 -1.2809291
-1.9813086 6.5063758 -1.2982155
-2.1541114 6.5062814 -1.3081874
-2.5083203 6.5060887 -1.3309519
-2.875957 6.5058837 -1.3577392
-3.0656054 6.5057774 -1.3727554
-3.2595994 6.5056686 -1.3889256
-3.4583397 6.5055552 -1.4063081
-3.8717186 6.505321 -1.4449863
-4.0873046 6.5051966 -1.4664413
-5.888535 6.9102402 -1.7329479
-6.0490723 6.7612281 -1.7316812
-7.5611815 4.9058981 -1.7204281
-8.7726173 4.2910461 -1.8640742
-9.1317282 3.4207373 -1.8613183
-9.2086325 3.1984253 -1.8607199
-9.2802925 2.9744513 -1.8601581
-9.3467188 2.7489703 -1.8596334
7.2841406 4.508822 -1.8360635
7.1296482 4.654603 -1.8248425
6.6356835 5.3101048 -1.8214821
5.9327049 6.0539441 -1.8166559
5.4697361 6.4557247 -1.8134567
4.8104491 6.9356823 -1.8090152
4.2258692 6.4181442 -1.6469449
4.0072751 6.4180589 -1.6216363
3.7965429 6.4203038 -1.5985837
3.6358984 6.5016894 -1.5965419
3.4326563 6.5016065 -1.5757233
3.2345116 6.5015268 -1.5563344
3.0410838 6.5014477 -1.5383002
2.666826 6.5012913 -1.5060383
2.3071485 6.5011401 -1.4784727
2.1320019 6.5010643 -1.4663287
1.9595898 6.5009885 -1.4552221
1.6220117 6.5008397 -1.435984
1.4563671 6.5007653 -1.4277886
0.8094824 6.5004687 -1.4039495
0.49259764 6.5003171 -1.3971517
0.33512694 6.5002441 -1.3949912
0.021191405 6.5000916 -1.3931154
-0.29263672 6.4999352 -1.3944855
-0.44996092 6.499856 -1.3963919
-0.60781246 6.4997764 -1.3991189
-0.92583007 6.4996142 -1.4070679
-1.0736035 6.4229455 -1.3956718
-1.2321582 6.4156785 -1.4001456
-1.393418 6.4155941 -1.4070562
-1.5563574 6.4155064 -1.4148617
-1.745625 6.5063648 -1.4437678
-1.9149902 6.5062733 -1.4535794
-2.4386523 6.5059862 -1.4891074
-2.619287 6.5058846 -1.5031128
-2.8034766 6.5057812 -1.5182767
-3.1837792 6.5055652 -1.5522968
-3.5824609 6.5053368 -1.5916656
-3.7897265 6.5052147 -1.6135412
-4.2657809 6.9322872 -1.7445048
-4.4285936 6.8224792 -1.7432548
-4.5886521 6.7089071 -1.7420214
-4.74582 6.59166 -1.7408055
-4.9003906 6.4711986 -1.7397137
-5.0518456 6.3470578 -1.7386078
-5.761621 5.6759763 -1.7334044
-6.0220017 5.3855028 -1.7314852
-6.2681642 5.0834265 -1.7296646
-6.3857422 4.9282494 -1.7287924
-6.6095996 4.6100683 -1.7271266
-6.7663279 4.48068 -1.7393152
-7.4858594 4.453258 -1.866817
-7.8051853 3.9087207 -1.8708651
-8.0590429 3.3306079 -1.8689257
-8.2714939 2.7366912 -1.8672769
-8.3329391 2.5357072 -1.8667933
-8.4416208 2.129848 -1.8659261
-8.5311909 1.7195325 -1.8651941
-8.6014547 1.3056281 -1.864598
-8.6292963 1.0976044 -1.8643517
-8.6522751 0.88901734 -1.8641399
-8.6703711 0.67997313 -1.8639627
-8.6919241 0.26094848 -1.8637121
-8.6953316 0.051189575 -1.8636392
-8.6938572 -0.15857971 -1.8636011
-8.660078 -0.78689331 -1.8636954
-8.6131344 -1.2038293 -1.8639323
-8.461113 -2.0290983 -1.8648218
-8.356308 -2.4356856 -1.8654727
-8.2325487 -2.8370962 -1.8662596
-8.1636715 -3.0355883 -1.8667032
-8.0901365 -3.2324655 -1.8671805
-8.0119925 -3.4276235 -1.8676908
-7.9292769 -3.6209538 -1.8682342
-7.7503123 -4.0017252 -1.8694185
-7.65415 -4.1889601 -1.8700589
-7.5535741 -4.3739591 -1.870731
-7.4486718 -4.5566206 -1.8714347
-7.3394527 -4.7368388 -1.8721695
-6.5971189 -5.7614818 -1.8772106
-6.2276754 -5.9922605 -1.8522617
-5.9411325 -5.9991965 -1.8095641
-5.6671972 -6.005661 -1.7697515
-5.4067478 -6.013845 -1.7332133
-5.2630372 -6.1460438 -1.7342046
-5.11624 -6.2748795 -1.7352186
-4.9663377 -6.4002938 -1.7362556
-4.8134274 -6.5222149 -1.7373147
-4.4988866 -6.7552629 -1.7394973
-4.1732516 -6.9734631 -1.7417624
-4.0065036 -7.0768309 -1.7429243
-3.665498 -7.2717547 -1.7453041
-3.4914355 -7.3631873 -1.7465206
-3.3151464 -7.4505272 -1.747754
-2.7736914 -7.6874137 -1.7515496
-2.5893555 -7.7578111 -1.7528441
-2.0261621 -7.9426627 -1.7568063
-1.8353612 -7.9953465 -1.7581509
-1.6432226 -8.0434866 -1.759506
-1.2553027 -8.1260128 -1.7622457
-1.059746 -8.1603346 -1.7636282
-0.46796873 -8.2351246 -1.7678195
-0.070322268 -8.2612782 -1.7706411
0.12910156 -8.2671785 -1.7720578
0.72833008 -8.2560167 -1.776322
1.3266308 -8.2013903 -1.7805892
1.7233789 -8.1408033 -1.783425
2.0369432 -7.7546825 -1.7183834
2.3130469 -8.0137959 -1.7876477
2.507627 -7.9618797 -1.7890435
2.7010741 -7.9052005 -1.7904325
2.8932128 -7.8437839 -1.7918131
3.2731543 -7.7068481 -1.7945467
3.8304589 -7.4666638 -1.7985657
4.0124021 -7.3774724 -1.7998805
4.1922264 -7.2837896 -1.801181
4.3698239 -7.1856666 -1.8024668
5.0558004 -6.749783 -1.8074462
5.2206149 -6.6302567 -1.8086462
5.3825488 -6.5066271 -1.8098261
5.5415039 -6.3789806 -1.8109863
6.0172653 -5.9904084 -1.8197536
6.6110449 -5.9750609 -1.9098438
7.1258984 -5.8413196 -1.9747823
7.5413671 -5.3190036 -1.9778582
7.6712012 -5.1380377 -1.9788235
7.7966113 -4.9538288 -1.9797583
7.9174509 -4.7664814 -1.9806612
8.0336714 -4.5761018 -1.9815316
8.2518845 -4.1867561 -1.9831741
8.3537111 -3.9880223 -1.9839442
8.5425196 -3.5830569 -1.9853811
8.7875881 -2.9587505 -1.9872688
8.924922 -2.5328255 -1.9883444
8.9855757 -2.3173523 -1.9888258
9.0408888 -2.1003845 -1.9892695
9.0907907 -1.8820574 -1.9896749
9.1352148 -1.6625171 -1.990042
9.1741896 -1.4418994 -1.9903703
9.2076368 -1.2203461 -1.9906597
9.2859373 -0.32760742 -1.991424
9.2915621 -0.10351013 -1.9915158
9.1357126 1.6800439 -1.9908218
9.0913181 1.8996881 -1.990557
8.9861813 2.3352165 -1.9899105
8.8595314 2.7648132 -1.9891096
8.7116995 3.1873822 -1.9881564
8.6299505 3.3956981 -1.9876235
8.4511232 3.8057334 -1.9864471
8.3541498 4.0072021 -1.9858041
8.2522163 4.2061305 -1.9851254
8.1454592 4.4023948 -1.9844118
7.443574 4.4999561 -1.8641921
7.1793847 4.5803051 -1.8251791
6.5608883 5.3984799 -1.8209708
6.1436524 5.8495822 -1.8181084
5.6948533 6.2678514 -1.815014
5.5386915 6.3996005 -1.813934
5.0521579 6.770946 -1.8106123
4.8843651 6.8866358 -1.8095045
3.6794238 6.4202576 -1.5859468
3.1247461 6.501482 -1.5459898
2.9337988 6.5014038 -1.5286926
2.7469726 6.5013242 -1.5126485
2.3843455 6.5011716 -1.4840943
1.8633691 6.500947 -1.4493972
1.6947656 6.5008726 -1.4398429
1.3636426 6.5007238 -1.4235668
0.87891603 6.5005016 -1.4058735
0.40362304 6.500277 -1.3958315
0.24640624 6.5002012 -1.3941329
-0.067343749 6.5000477 -1.3931732
-0.38141599 6.4998913 -1.3954612
-0.53901368 6.4998116 -1.3978297
-0.6972363 6.4997325 -1.4010236
-1.1624414 6.4157162 -1.3974109
-1.3230078 6.4156308 -1.4039388
-1.4851855 6.4155469 -1.4113498
-1.6725683 6.5064034 -1.4397987
-2.0116699 6.5062203 -1.4595534
-2.1849413 6.5061255 -1.4709327
-2.5402246 6.505929 -1.496876
-2.9091504 6.5057211 -1.5273699
-3.2943261 6.5055017 -1.5628449
-3.6987889 6.5052686 -1.6038291
-4.5192966 6.7588086 -1.7425565
-5.2826657 6.1459107 -1.7369196
-5.426084 6.0130467 -1.7358688
-5.8365331 5.5951905 -1.7328531
-6.2158203 5.1501403 -1.7300525
-6.3350196 4.9961414 -1.7291688
-6.6700778 4.5184302 -1.7266753
-6.9578123 4.4723411 -1.7727078
-7.7649608 3.9911425 -1.8711706
-7.8560643 3.8012536 -1.8704785
-7.9426856 3.609364 -1.8698177
-8.0247459 3.4155567 -1.8691894
-8.1750679 3.0226586 -1.8680291
-8.3067579 2.6233912 -1.8669997
-8.3655663 2.4216309 -1.8665348
-8.4195795 2.2186084 -1.8661035
-8.4688473 2.0144286 -1.8657058
-8.51334 1.80919 -1.8653418
-8.6177731 1.1882501 -1.8644547
-8.6428614 0.97990292 -1.8642279
-8.6630859 0.77103513 -1.8640356
-8.6951075 -0.067253418 -1.8636132
-8.6908789 -0.27698365 -1.8635947
-8.6817379 -0.48656371 -1.8636111
-8.562871 -1.5282501 -1.8642144
-8.5245314 -1.734574 -1.864439
-8.4813862 -1.9399819 -1.8646982
-8.3807421 -2.3475864 -1.8653195
-8.3232718 -2.5495698 -1.8656811
-8.2610931 -2.7502 -1.8660768
-8.1227245 -3.1469529 -1.8669686
-8.0465822 -3.3428631 -1.8674645
-7.9658494 -3.5370119 -1.8679936
-7.8805566 -3.7292666 -1.8685555
-7.6965623 -4.1077075 -1.8697761
-7.4948826 -4.477386 -1.8711245
-7.3875389 -4.6586795 -1.8718456
-7.0401268 -5.1871905 -1.8741937
-6.9160643 -5.3579259 -1.8750362
-6.7879782 -5.5257726 -1.8759081
-6.6558495 -5.6906486 -1.8768094
-6.3566895 -5.9890819 -1.8718176
-6.0642772 -5.9962373 -1.8277858
-5.7849708 -6.002902 -1.7867467
-5.5176759 -6.0091162 -1.7484593
-5.3261228 -6.0888915 -1.7337692
-5.1805372 -6.2192039 -1.7347745
-5.0319724 -6.3461127 -1.7358013
-4.7258005 -6.5894761 -1.7379223
-4.4080567 -6.8183966 -1.7401288
-4.2450681 -6.9272518 -1.7412624
-4.0794139 -7.0323048 -1.7424161
-3.9112108 -7.1334648 -1.7435888
-3.5674901 -7.3238773 -1.7459891
-3.3921776 -7.4130063 -1.7472149
-3.2146387 -7.498013 -1.7484578
-2.8533788 -7.6554055 -1.7509903
-2.6698339 -7.7276983 -1.7522787
-2.4844823 -7.7956448 -1.753581
-2.1087694 -7.9183164 -1.7562245
-1.5341699 -8.0686531 -1.7602758
-1.3401366 -8.1096191 -1.761646
-1.145 -8.1459618 -1.7630253
-0.94890624 -8.17764 -1.7644125
-0.7519629 -8.2046299 -1.7658068
-0.35590819 -8.2444382 -1.7686142
-0.15705077 -8.2572126 -1.7700253
0.042216796 -8.2651968 -1.7714405
0.44153321 -8.2667723 -1.7742797
0.64134765 -8.2603321 -1.7757024
1.2399805 -8.212018 -1.7799706
1.4388672 -8.1862402 -1.7813911
1.9364648 -7.7004371 -1.7017618
2.2279882 -8.0349112 -1.787038
2.617002 -7.9304624 -1.7898288
2.8097265 -7.8711023 -1.791213
3.0010839 -7.8070211 -1.7925887
3.5658495 -7.5867438 -1.7966561
3.7506249 -7.5040751 -1.7979895
3.9334471 -7.4168591 -1.7993096
4.1142087 -7.3251286 -1.8006164
4.4690919 -7.1283183 -1.8031859
4.6429977 -7.0233393 -1.8044469
5.149199 -6.6828022 -1.8081262
5.3124022 -6.5609484 -1.8093148
5.6298728 -6.3051476 -1.811632
5.9347363 -6.0336857 -1.813863
6.1792383 -5.9862919 -1.8439044
7.3473339 -5.5728555 -1.9764194
7.6152244 -5.2172375 -1.9784071
7.742578 -5.0344238 -1.9793551
7.8653903 -4.8484297 -1.9802718
8.4090233 -3.874691 -1.9843639
8.5921679 -3.4670358 -1.985761
8.7549314 -3.0504973 -1.9870154
8.8968163 -2.6261356 -1.9881228
8.9598436 -2.4113533 -1.9886209
9.0174608 -2.1950235 -1.989081
9.069746 -1.9772689 -1.9895031
9.1165428 -1.7582464 -1.9898868
9.1578999 -1.5380743 -1.9902322
9.2240725 -1.0948919 -1.9908056
9.2488861 -0.87215328 -1.9910339
9.2680855 -0.64885372 -1.9912221
9.2817383 -0.42511413 -1.9913713
9.289814 -0.2010913 -1.9914808
9.2661619 0.69495726 -1.9915206
9.1533394 1.5840777 -1.9909248
9.1113186 1.8041955 -1.9906771
9.063838 2.0231793 -1.9903903
8.9526072 2.4571428 -1.9897
8.819931 2.8848608 -1.9888558
8.0292969 4.4820018 -1.9708093
7.6145215 4.4947596 -1.8950716
7.1146383 4.676549 -1.824741
6.9966989 4.8446937 -1.8239413
6.7486134 5.1717248 -1.8222531
6.6186814 5.330421 -1.821366
6.0615234 5.930881 -1.8175433
5.7618551 6.20927 -1.8154767
5.2881837 6.5977454 -1.8121984
4.9577537 6.8367858 -1.8099896
3.979502 6.4180479 -1.618488
3.6093457 6.5016794 -1.5937682
3.2092676 6.5015159 -1.5539291
2.6431932 6.5012817 -1.5041201
2.4621191 6.5012045 -1.4899244
2.2843554 6.5011301 -1.4768448
1.9375 6.5009789 -1.453861
1.7678906 6.5009046 -1.4438843
1.4350976 6.5007567 -1.4267973
1.2714355 6.5006809 -1.4196339
1.1093261 6.500608 -1.4133608
0.94854492 6.5005331 -1.4079576
0.78890622 6.5004587 -1.4034097
0.63019532 6.5003843 -1.3997027
0.47222656 6.5003099 -1.3968267
0.31481445 6.5002341 -1.3947717
-0.31293944 6.4999256 -1.3946857
-0.47033203 6.499846 -1.3966981
-0.62827146 6.4997678 -1.3995308
-1.0939453 6.4215183 -1.3960928
-1.2529101 6.415669 -1.4009895
-1.7673827 6.5063524 -1.4449824
-1.9370409 6.5062618 -1.4549173
-2.2839942 6.5060706 -1.4778166
-2.6428809 6.5058727 -1.5050057
-3.0161133 6.5056615 -1.5368592
-3.2089453 6.5055518 -1.5546722
-3.4063964 6.5054379 -1.5738304
-4.286953 6.9183092 -1.7443426
-4.4494333 6.8080077 -1.7430944
-4.6090918 6.6939635 -1.7418634
-4.7659178 6.5762439 -1.7406497
-5.0712109 6.3307638 -1.7384665
-5.6439452 5.7986484 -1.7342699
-6.0383496 5.3663282 -1.7313646
-6.2835641 5.0635204 -1.7295505
-6.4006639 4.9080067 -1.7286816
-7.1590915 4.4651108 -1.8083301
-7.5244823 4.4445434 -1.8729858
-7.9055467 3.6931529 -1.8701016
-7.9895701 3.5001624 -1.869459
-8.1439161 3.1087554 -1.8682706
-8.279707 2.7108018 -1.8672125
-8.447998 2.1034601 -1.8658748
-8.4945507 1.8986731 -1.8654962
-8.5363083 1.692885 -1.8651513
-8.5732126 1.4862182 -1.864841
-8.6052923 1.2787853 -1.8645647
-8.6325293 1.070683 -1.8643227
-8.6548824 0.86202455 -1.8641152
-8.6849413 0.44350097 -1.8638042
-8.6954193 0.024082031 -1.8636323
-8.6744041 -0.60477966 -1.8636358
-8.5780373 -1.4381512 -1.8641275
-8.5007515 -1.8506701 -1.8645812
-8.4549017 -2.0555077 -1.8648599
-8.1544333 -3.0611184 -1.866763
-7.8304296 -3.8369441 -1.8688869
-7.7381444 -4.0260386 -1.8694994
-7.6413865 -4.2129946 -1.870144
-7.4348044 -4.5800481 -1.871528
-7.3250289 -4.7599497 -1.8722668
-7.2110448 -4.9372883 -1.8730361
-6.5795703 -5.7823825 -1.8773305
-6.4413867 -5.9424143 -1.878276
-5.9050388 -6.0000577 -1.8042631
-5.2442384 -6.1628766 -1.7343345
-4.6372461 -6.6555905 -1.7385366
-4.4781737 -6.7698131 -1.7396414
-4.1518455 -6.9870305 -1.7419115
-3.9847655 -7.0898972 -1.7430758
-3.8151562 -7.1888409 -1.744259
-3.6431346 -7.2837963 -1.7454602
-3.2921972 -7.4615116 -1.7479147
-2.1910937 -7.893126 -1.7556448
-1.618291 -8.0493727 -1.7596819
-1.2300781 -8.1307087 -1.762424
-1.0343847 -8.1644268 -1.7638077
-0.83780271 -8.1934614 -1.7651991
-0.6404199 -8.2177887 -1.7665969
-0.44231445 -8.2373886 -1.7680013
-0.2436914 -8.2522373 -1.7694104
0.95381832 -8.2405634 -1.7779291
1.1532519 -8.2217255 -1.7793517
1.5509472 -8.1695528 -1.7821919
1.748955 -8.1362247 -1.783608
2.3382518 -8.0073547 -1.7878284
2.9179492 -7.8355045 -1.7919909
3.1084862 -7.7687726 -1.7933614
3.2974999 -7.6973581 -1.7947222
3.484834 -7.6212997 -1.796072
3.6704102 -7.5406332 -1.7974105
4.5675974 -7.069582 -1.8039001
4.740078 -6.9621696 -1.8051516
5.0772362 -6.7345724 -1.8076022
5.7172461 -6.2300773 -1.8122708
5.8694725 -6.0940924 -1.813385
6.3455372 -5.9820104 -1.8690368
6.6514158 -5.9739928 -1.9161178
7.1445603 -5.8194909 -1.9749203
7.4246969 -5.4738469 -1.9769926
7.6876755 -5.114428 -1.9789462
7.8124804 -4.9297991 -1.9798766
7.932744 -4.7420468 -1.9807756
8.0483303 -4.5512867 -1.9816418
8.4627533 -3.7605641 -1.9847726
8.5540333 -3.5565634 -1.985469
8.6402149 -3.3502905 -1.9861299
8.7971096 -2.9314525 -1.9873428
8.867734 -2.7191362 -1.9878944
8.9330568 -2.5050695 -1.9884088
8.9930468 -2.2893932 -1.9888853
9.0968361 -1.8537627 -1.9897245
9.1788282 -1.4133203 -1.99041
9.2387695 -0.96920466 -1.9909393
9.2603998 -0.74614441 -1.991145
9.2764845 -0.52257568 -1.9913113
9.2869921 -0.29865843 -1.9914382
9.2918844 -0.074539185 -1.9915249
9.2730465 0.59759218 -1.9915472
9.2325783 1.0440717 -1.9913629
9.2039938 1.2663977 -1.9912112
9.1302929 1.7084851 -1.9907898
8.978652 2.3631701 -1.9898633
8.8506155 2.7923315 -1.9890527
8.3412399 4.0330482 -1.9857184
8.2386818 4.2316432 -1.9850351
8.1312399 4.4275584 -1.9843163
7.7911425 4.4893527 -1.9271889
6.9282813 4.9382858 -1.8234766
6.543613 5.4185581 -1.8208526
6.4077148 5.5719857 -1.8199219
6.1249704 5.8682933 -1.8179797
5.0306249 6.7861304 -1.8104706
2.9094336 6.5013914 -1.5265489
2.723125 6.5013146 -1.5106639
2.1853027 6.5010862 -1.4699353
1.6731347 6.5008631 -1.4386792
1.0183984 6.5005651 -1.4102044
0.85829097 6.5004907 -1.4052857
0.54092771 6.5003414 -1.3979771
0.22612303 6.5001903 -1.3939724
-0.244541 6.4999595 -1.394066
-0.40174803 6.4998813 -1.395722
-0.71773434 6.4997201 -1.4014971
-0.87691402 6.4996395 -1.4056329
-1.0248828 6.4229722 -1.3939939
-1.1831055 6.4157052 -1.3982072
-1.343877 6.4156213 -1.4048462
-2.2075293 6.5061131 -1.4724783
-2.7466893 6.5058141 -1.5135083
-3.7256541 6.5052524 -1.6066803
-5.0058007 6.3854356 -1.7389442
-5.1551466 6.2588868 -1.7378527
-5.4443846 5.9956422 -1.7357348
-5.5841208 5.8591051 -1.7347093
-5.8535447 5.5765586 -1.7327276
-5.9830761 5.4307346 -1.7317728
-6.2314258 5.130394 -1.7299368
-6.3501368 4.9760389 -1.7290567
-6.6837206 4.4973536 -1.7265733
-7.0031738 4.4707165 -1.7807062
-7.3686132 4.4575243 -1.8457391
-7.8675094 3.7765734 -1.8703912
-7.9535351 3.5844226 -1.8697349
-8.0350094 3.390377 -1.8691107
-8.1118946 3.1945453 -1.8685184
-8.1841497 2.9970465 -1.8679587
-8.2517281 2.7979479 -1.8674318
-8.3146286 2.5973895 -1.8669379
-8.4748631 1.9879669 -1.8656569
-8.557724 1.5763037 -1.8649719
-8.6653509 0.74402344 -1.8640133
-8.6898727 0.32515013 -1.8637418
-8.6948433 -0.094364621 -1.863609
-8.6802053 -0.51362181 -1.8636156
-8.621582 -1.1401544 -1.863887
-8.5922947 -1.3479053 -1.8640469
-8.5582027 -1.5549579 -1.8642415
-8.5192184 -1.7611773 -1.8644708
-8.4754591 -1.9664569 -1.8647343
-8.4269037 -2.1706879 -1.8650322
-8.1852541 -2.9749832 -1.8665638
-8.0364161 -3.3680508 -1.8675309
-7.9550977 -3.561955 -1.8680643
-7.144824 -5.0362616 -1.8734841
-7.0243258 -5.2094078 -1.8743008
-6.8997264 -5.379776 -1.8751473
-6.5020213 -5.8731351 -1.877861
-6.3181152 -5.990036 -1.8659488
-5.7498045 -6.0037293 -1.7816489
-5.4839354 -6.0098882 -1.7436992
-5.307363 -6.1059232 -1.7338988
-5.1615038 -6.2357965 -1.734906
-5.0125685 -6.3622656 -1.7359357
-4.8605762 -6.4852581 -1.7369881
-3.7183201 -7.2429504 -1.7449352
-3.5449512 -7.3356304 -1.7461466
-3.1915526 -7.5086913 -1.7486193
-2.4604199 -7.8040996 -1.7537503
-2.0842676 -7.9256334 -1.756397
-1.8939356 -7.9796991 -1.757738
-1.7021874 -8.0292292 -1.7590901
-1.5091602 -8.0742054 -1.7604524
-1.314961 -8.1145763 -1.761824
-1.1197168 -8.1503201 -1.7632041
-0.92348629 -8.1813927 -1.7645924
-0.72644532 -8.207778 -1.7659875
-0.13131836 -8.2585144 -1.7702081
0.067998044 -8.2658787 -1.7716238
1.2656933 -8.2089548 -1.7801543
1.9660839 -7.7164245 -1.7066408
2.2532423 -8.0287323 -1.787219
2.4481835 -7.9782805 -1.788617
2.8345311 -7.8630877 -1.7913913
3.025703 -7.7984023 -1.7927657
3.2153904 -7.7290215 -1.7941308
3.9569237 -7.4052591 -1.7994795
4.1374121 -7.3129425 -1.8007842
4.3157225 -7.2161765 -1.8020749
4.4917088 -7.1149931 -1.8033499
4.8363571 -6.8996267 -1.8058507
5.004756 -6.7855487 -1.8070749
5.4931445 -6.4184861 -1.8106332
5.6499705 -6.288075 -1.8117788
5.8036132 -6.1537633 -1.8129027
5.9540133 -6.0156164 -1.8140042
6.2169042 -5.9853263 -1.8495682
7.0813475 -5.892817 -1.9744537
7.2253418 -5.7233515 -1.9755169
7.3651757 -5.5502911 -1.9765514
7.5007029 -5.3737478 -1.9775565
7.8809276 -4.8241687 -1.980388
7.9985838 -4.6347008 -1.9812685
8.1115131 -4.4423084 -1.9821163
8.219697 -4.2470837 -1.9829311
8.3230562 -4.0491505 -1.9837121
8.6033201 -3.4403844 -1.9858465
8.9052534 -2.5984714 -1.9881893
8.9675779 -2.3834779 -1.9886824
9.0760841 -1.9490427 -1.989555
9.2701654 -0.61995786 -1.9912438
9.2831049 -0.39617553 -1.9913877
9.2904396 -0.17212646 -1.9914919
9.2922068 0.052028809 -1.9915565
9.2638865 0.72384399 -1.9915112
9.24331 0.94706726 -1.9914166
9.2171478 1.1696765 -1.9912823
9.1854296 1.3915662 -1.9911083
9.0573044 2.0513878 -1.9903502
8.7357025 3.1231983 -1.9883121
8.6555367 3.3321338 -1.9877905
8.5702143 3.5389683 -1.9872319
8.4798145 3.7435644 -1.9866366
8.3843746 3.9457812 -1.9860049
8.1786232 4.3426023 -1.9846338
6.9811521 4.8662047 -1.8238357
6.7320604 5.1924143 -1.8221401
6.4673338 5.505609 -1.8203303
6.3293457 5.6570835 -1.8193842
5.8939648 6.0899205 -1.8163885
5.7420411 6.2267356 -1.8153399
5.5868454 6.3596864 -1.8142673
5.1029687 6.7346897 -1.8109469
4.9360156 6.851666 -1.8098462
4.4514356 6.5043368 -1.6892259
4.1687303 6.4181213 -1.6402313
3.9518652 6.4180384 -1.6153698
3.5828612 6.5016685 -1.5910199
3.3809667 6.5015855 -1.5705774
2.9918261 6.5014267 -1.5338528
2.8037598 6.5013485 -1.5174304
2.6195898 6.5012717 -1.5022219
2.4389648 6.501195 -1.4881707
2.0871875 6.5010448 -1.4633614
1.9154589 6.5009689 -1.4525175
1.7461425 6.5008945 -1.4426659
1.0884765 6.500598 -1.4126126
0.76834959 6.5004492 -1.4028828
0.6097461 6.5003734 -1.3992851
0.45186523 6.5002999 -1.3965139
0.29452148 6.5002246 -1.3945662
0.1375 6.5001473 -1.3934315
-0.019335937 6.5000696 -1.3931097
-0.33324218 6.4999156 -1.3948997
-0.64871091 6.4997568 -1.3999573
-0.95583004 6.4230075 -1.3917463
-1.4353515 6.4155722 -1.4089859
-2.3067968 6.5060596 -1.4794394
-3.2341893 6.505537 -1.5570722
-3.4322851 6.5054235 -1.576408
-3.8442383 6.5051827 -1.6194485
-4.308125 6.9042721 -1.7441802
-4.4702344 6.7934837 -1.7429346
-4.6295505 6.6789551 -1.7417054
-5.2380958 6.1859336 -1.7372459
-5.5236912 5.9189367 -1.735153
-5.661572 5.7805929 -1.7341403
-5.7960448 5.6391258 -1.7331511
-6.0546384 5.3471079 -1.7312443
-6.2989159 5.0435767 -1.7294366
-6.528379 4.7292318 -1.7277319
-6.8518748 4.4761167 -1.7540942
-7.2063184 4.463408 -1.8167309
-7.5379195 4.4208093 -1.8728848
-7.6392283 4.2359667 -1.8721213
-7.7361717 4.0488634 -1.8713886
-7.8286619 3.8596129 -1.8706869
-7.9166503 3.6683166 -1.8700167
-8.0001068 3.4750829 -1.8693783
-8.0789938 3.2800353 -1.868772
-8.2228708 2.8848157 -1.8676571
-8.2878218 2.6848814 -1.8671488
-8.4035444 2.2809033 -1.8662319
-8.454277 2.0770612 -1.865824
-8.5002241 1.8721308 -1.8654497
-8.5413475 1.6662244 -1.8651093
-8.6091108 1.2519336 -1.8645312
-8.6574316 0.83503234 -1.8640908
-8.6932716 0.20675842 -1.86369
-8.6926851 -0.21278015 -1.8635968
-8.6850386 -0.42242125 -1.8636024
-8.6725092 -0.63182861 -1.8636428
-8.6328125 -1.0494866 -1.8638281
-8.5736322 -1.4649121 -1.8641524
-8.4950972 -1.8772082 -1.8646154
-8.3973827 -2.2854903 -1.8652154
-8.3413868 -2.4878716 -1.8655666
-8.1451073 -3.0866208 -1.8668234
-8.0703802 -3.283067 -1.8673092
-7.9910545 -3.4777682 -1.867828
-7.6285644 -4.2369862 -1.8702297
-7.1960154 -4.9600043 -1.8731378
-6.9544625 -5.3059549 -1.8747751
-6.6967087 -5.6404953 -1.8765304
-6.1523533 -5.9941001 -1.8409387
-5.8691797 -6.0009103 -1.7990087
-5.5982909 -6.0072594 -1.7599014
-5.0777926 -6.3076243 -1.7354846
-4.9271092 -6.4321451 -1.7365272
-4.7734179 -6.5531516 -1.737592
-4.6168361 -6.6705613 -1.7386782
-4.4574509 -6.7843037 -1.7397854
-3.9629686 -7.1029086 -1.7432278
-3.7930663 -7.2013388 -1.7444131
-3.0902147 -7.5545354 -1.7493294
-2.9091992 -7.6324182 -1.7505987
-2.5414257 -7.7753038 -1.7531809
-2.1666992 -7.900692 -1.7558166
-1.9769726 -7.9567108 -1.757153
-1.5933691 -8.0551882 -1.759858
-1.399668 -8.0975657 -1.7612256
