# .PCD v0.7 - Point Cloud Data file format
VERSION 0.7
FIELDS x y z
SIZE 4 4 4
TYPE F F F
COUNT 1 1 1
WIDTH 1495
HEIGHT 1
VIEWPOINT 0 0 0 1 0 0 0
POINTS 1495
DATA ascii
-8.6307716 -20.691486 -1.7072988
-7.6526756 -21.167515 -1.7140793
-7.1541014 -21.389116 -1.7175403
-6.639287 -21.566235 -1.718397
-6.0733104 -21.565229 -1.7061392
-5.5150485 -21.564238 -1.6950341
-4.4185157 -21.562294 -1.6761591
-3.3439159 -21.56238 -1.6616671
-2.8128319 -21.561575 -1.6558914
-2.2850976 -21.560776 -1.6511133
-1.7601757 -21.55998 -1.6473184
0.3249121 -21.562065 -1.6422
0.84569335 -21.562426 -1.6433035
1.367461 -21.562788 -1.6453667
2.4156737 -21.556553 -1.6518699
1.0627831 -7.78192 -0.59811682
1.2612792 -7.8224578 -0.6033963
4.5516405 -21.553013 -1.6775231
5.0975876 -21.552114 -1.6865417
5.6505761 -21.553968 -1.696864
6.2101269 -21.553955 -1.7081672
8.5337496 -21.55014 -1.7650959
10.392949 -21.545607 -1.8216741
11.040742 -21.544031 -1.8435291
11.59582 -21.341972 -1.8496562
12.664091 -20.843388 -1.8572989
13.710068 -20.289762 -1.8647974
14.223721 -19.992483 -1.8684856
16.450928 -19.901279 -1.9662982
17.269257 -19.893538 -2.0061321
18.117636 -19.880785 -2.0483503
19.123476 -19.051012 -2.0556302
19.611113 -18.61603 -2.0591671
21.452938 -16.747612 -2.0725789
22.708534 -15.219249 -2.0817811
23.845615 -13.591359 -2.0901716
24.196835 -13.028266 -2.092777
24.533388 -12.455509 -2.0952816
24.855312 -11.873503 -2.0976851
23.692831 -9.2784319 -1.9376951
23.932207 -8.7122297 -1.9395136
24.156816 -8.1393995 -1.9412295
24.56077 -6.9756351 -1.9443463
25.578232 -5.9475913 -1.9998196
27.347284 -4.982039 -2.1168468
27.837471 -0.98606747 -2.1212306
27.858681 0.35816041 -2.1216927
27.842499 1.0303241 -2.1217353
27.686815 3.0406182 -2.1211066
27.599356 3.7070079 -2.1206453
27.494276 4.3707042 -2.1200595
25.204941 4.632926 -1.9515868
25.075956 5.2376623 -1.9508189
24.930996 5.8385887 -1.9499373
24.770233 6.4351964 -1.9489437
20.858007 6.5079737 -1.6639184
17.781006 6.5048118 -1.4418409
16.531836 6.5042968 -1.352883
15.427246 6.5038414 -1.2749649
14.4425 6.5034323 -1.2062011
13.409541 6.4318714 -1.1325657
12.027773 6.5006957 -1.0411675
11.362949 6.5004172 -0.99690962
10.751953 6.5001621 -0.95679164
8.1909666 6.4152989 -0.79231161
7.5292673 6.5069056 -0.757824
4.8531251 6.5057569 -0.6180945
4.612988 6.5056515 -0.60732937
4.380908 6.5055504 -0.5972749
4.1562595 6.5054517 -0.587883
3.7269042 6.5052624 -0.57093275
3.4745409 6.4190369 -0.55584359
2.9263964 6.4878988 -0.54200339
2.5630469 6.5024142 -0.53225422
1.693584 6.5020199 -0.51166695
1.1993359 6.5017929 -0.50348014
1.0377929 6.5017176 -0.5013904
0.55975586 6.5014954 -0.49693683
0.087695308 6.5012732 -0.49513325
-0.069189452 6.5011988 -0.49511009
-0.22616211 6.5011239 -0.49537688
-0.38338867 6.5010486 -0.4959313
-1.1799999 6.5006652 -0.50313199
-1.5071777 6.5005054 -0.50816137
-1.6734277 6.5004234 -0.51116365
-1.820039 6.4237509 -0.50844133
-1.9864355 6.4164853 -0.51151139
-2.3642089 6.507268 -0.52723694
-2.543535 6.5071774 -0.53204876
-2.7262695 6.5070858 -0.53726512
-2.912744 6.5069919 -0.5429042
-3.103291 6.506897 -0.54898626
-3.2982714 6.5067992 -0.55553252
-3.7030957 6.5065942 -0.57012153
-3.9138572 6.5064869 -0.57822156
-4.3544822 6.5062618 -0.59619755
-4.8245411 6.5060205 -0.6168105
-5.3294921 6.5057616 -0.64044577
-5.5970702 6.5056224 -0.65353936
-5.8759861 6.5054798 -0.66757917
-6.1673045 6.5053272 -0.68264049
-6.4723043 6.5051694 -0.69881338
-7.0181541 6.4039464 -0.72350705
-7.3674121 6.4037633 -0.74336606
-7.8377633 6.4873047 -0.77479827
-8.2342186 6.4870958 -0.7982778
-8.6556635 6.4868722 -0.82371825
-9.5861425 6.4863815 -0.88142544
-11.262275 6.4854932 -0.98969489
-11.917753 6.4851451 -1.0332389
-20.276503 6.9321384 -1.631864
-20.421328 6.4356275 -1.6305408
-20.557148 5.9370823 -1.6294681
-21.043125 4.4579749 -1.6380649
-22.792549 4.2566662 -1.7657309
-23.015244 2.5940032 -1.7637749
-23.064854 2.037329 -1.7632957
-23.102139 1.4798431 -1.7629032
-23.127119 0.92180294 -1.7625973
-23.128046 -0.75329041 -1.7622008
-23.103632 -1.3111804 -1.762243
-23.017979 -2.4247937 -1.7625874
-22.956718 -2.979974 -1.7628896
-22.883173 -3.5338387 -1.7632791
-22.797401 -4.0860934 -1.7637548
-22.699345 -4.6364822 -1.7643174
-22.466854 -5.7306886 -1.7657009
-20.126757 -7.2619977 -1.6294283
-19.958759 -7.7506213 -1.6304981
-19.779804 -8.2357502 -1.631646
-19.590029 -8.7171926 -1.6328709
-16.06004 -7.6158061 -1.3535632
-20.585596 -11.008371 -1.777727
-19.793457 -12.505222 -1.7829598
-19.506767 -12.993083 -1.784866
-19.209101 -13.475002 -1.7868512
-18.900019 -13.950666 -1.7889181
-18.580175 -14.419905 -1.7910626
-17.55579 -15.786677 -1.7979617
-17.193193 -16.227823 -1.800414
-15.227099 -18.314251 -1.8137804
-14.804296 -18.706141 -1.8166684
-13.930273 -19.462463 -1.8226501
-13.479443 -19.826525 -1.8257419
-12.866856 -19.944073 -1.8074435
-12.198399 -19.948719 -1.7806628
-11.549004 -19.953047 -1.7556551
-10.917099 -19.957075 -1.7323191
-9.2838869 -20.341543 -1.7027786
-8.8073435 -20.599464 -1.706076
-7.8341208 -21.083384 -1.7128204
-6.2801561 -21.565596 -1.7105013
-4.6179981 -21.562651 -1.6792965
-4.0762305 -21.561691 -1.6710709
-2.4784765 -21.561069 -1.652751
-1.4289843 -21.559483 -1.645419
-0.38648435 -21.561571 -1.6422431
0.13393554 -21.561934 -1.6420364
1.1758202 -21.562656 -1.644496
2.2224998 -21.556875 -1.6503196
1.1841797 -7.7823596 -0.59947062
3.8139942 -21.554234 -1.666916
4.3526268 -21.553341 -1.6744864
5.4470215 -21.553974 -1.6930021
6.5682125 -21.553942 -1.7159152
7.7229781 -21.553915 -1.7435765
8.9164743 -21.549204 -1.7759669
10.158994 -21.546177 -1.8140441
10.801152 -21.544613 -1.8353348
12.46955 -20.939089 -1.855906
12.997665 -20.674126 -1.8596884
13.519893 -20.395506 -1.8634329
14.035976 -20.103174 -1.8671368
14.63621 -19.921011 -1.882477
15.382187 -19.91106 -1.9160638
16.965069 -19.896441 -1.9911935
17.804569 -19.888361 -2.0327964
18.440186 -19.624088 -2.0506825
19.433525 -18.777199 -2.0578783
19.914541 -18.333912 -2.0613706
8.7897654 -7.7086825 -0.89031792
21.29166 -16.92738 -2.0714006
21.727264 -16.433832 -2.0745847
22.958643 -14.883791 -2.0836213
23.713203 -13.795568 -2.0891912
24.06955 -13.236108 -2.0918319
25.051249 -11.500529 -2.0991526
18.080946 -7.778049 -1.4989135
25.630028 -10.299845 -2.1035099
23.845995 -8.9208651 -1.9388574
24.291279 -7.7736492 -1.9422618
24.675838 -6.6027555 -1.9452438
24.844921 -6.0095563 -1.9465731
27.147295 -5.8768296 -2.1152296
27.296747 -5.2230844 -2.1164346
27.720078 -2.5722649 -2.1200342
27.781836 -1.9032168 -2.120625
27.825819 -1.2326013 -2.1210911
27.851933 -0.5608319 -2.1214316
27.850487 0.783562 -2.1217344
27.822989 1.4554052 -2.1216967
27.777597 2.1261322 -2.1215332
27.633535 3.4626758 -2.1208291
27.534969 4.127367 -2.1202896
25.944189 4.531589 -2.0056343
25.125223 5.0160899 -1.9511144
24.831112 6.2167225 -1.9493217
24.661161 6.8105297 -1.9483166
21.527617 6.5082507 -1.7126702
19.788418 6.5075326 -1.5863397
18.281786 6.5050182 -1.4777194
16.97209 6.5044785 -1.3841397
15.817734 6.5040011 -1.3024205
14.791348 6.5035763 -1.2304763
13.039287 6.5011158 -1.1095539
10.9704 6.5002537 -0.97106862
9.3531151 6.4995761 -0.86735851
8.7837591 6.4236484 -0.82869172
8.342207 6.4153638 -0.80141568
7.3007321 6.5068078 -0.74473816
6.9551854 6.5066614 -0.72529709
6.31458 6.5063877 -0.69046128
6.0165038 6.5062594 -0.67484176
5.4582129 6.5060177 -0.64671713
4.2379103 6.5054879 -0.59125555
3.8038671 6.5052953 -0.57387
3.1540723 6.4188952 -0.5446344
2.8142772 6.5025277 -0.53957212
2.4489355 6.5023632 -0.52912557
2.271328 6.5022836 -0.52450609
2.0966895 6.5022044 -0.52026635
1.4225976 6.5018954 -0.50684845
1.2590137 6.5018201 -0.504327
0.45984372 6.5014486 -0.49633822
0.30239257 6.5013757 -0.49563128
0.14532226 6.5013013 -0.49521393
-0.32563475 6.5010767 -0.49569288
-0.79997069 6.5008492 -0.49879068
-0.95974606 6.5007715 -0.50041586
-1.1206152 6.5006933 -0.50234574
-1.6121484 6.5004525 -0.51002264
-1.9243262 6.4165158 -0.51013488
-2.094326 6.4164319 -0.51399744
-2.267041 6.4163461 -0.51822615
-2.6587889 6.5071201 -0.53530294
-3.226162 6.5068345 -0.55307347
-3.4241209 6.5067358 -0.55992681
-3.8358006 6.5065269 -0.5751825
-4.0503907 6.5064173 -0.58364487
-4.2715821 6.5063062 -0.59271026
-4.4998145 6.5061874 -0.60241896
-4.7358594 6.5060678 -0.61281478
-5.4975977 6.5056763 -0.64862823
-6.058877 6.5053844 -0.67698747
-6.3586817 6.505228 -0.69274229
-6.6729393 6.5050645 -0.70966828
-7.6979589 6.4873767 -0.76662987
-8.085928 6.487174 -0.7894426
-8.4978514 6.4869556 -0.8141371
-9.4056835 6.4864769 -0.87008023
-9.9086132 6.4862108 -0.90186101
-10.450108 6.4859238 -0.93662131
-11.670595 6.4852772 -1.0167508
-13.997188 6.5010533 -1.1752832
-14.928789 6.500555 -1.2399718
-15.969727 6.4999976 -1.3130188
-18.451231 6.4912524 -1.4895315
-20.637295 5.6202564 -1.6288296
-20.754873 5.1176219 -1.6278841
-20.894228 4.6201978 -1.6295937
-22.84874 3.9070055 -1.7652535
-22.993944 2.7980554 -1.7639724
-23.048075 2.2417912 -1.7634616
-23.133867 -0.54837584 -1.7622076
-23.114023 -1.1064954 -1.7622175
-23.037382 -2.2206302 -1.7624981
-22.980625 -2.7763577 -1.7627686
-22.911581 -3.330699 -1.7631261
-22.830313 -3.8835227 -1.7635701
-22.736776 -4.4346738 -1.7641008
-20.480556 -6.0927343 -1.6272076
-19.846786 -8.0580912 -1.6312155
-19.464325 -9.0198755 -1.6336862
-19.895887 -12.324753 -1.7822802
-19.613329 -12.814668 -1.784157
-19.014706 -13.776796 -1.7881505
-18.700342 -14.248075 -1.7902559
-18.034531 -15.171709 -1.7947319
-17.68623 -15.62293 -1.797081
-17.32749 -16.066771 -1.7995051
-16.95834 -16.503046 -1.8020043
-15.789413 -17.764469 -1.8099465
-15.379872 -18.168262 -1.8127379
-14.093467 -19.326408 -1.8215319
-13.117275 -19.942284 -1.8177379
-12.441504 -19.94705 -1.7902839
-11.785224 -19.951494 -1.7646354
-8.983037 -20.506016 -1.7048599
-7.5207129 -21.227551 -1.7149949
-6.4879394 -21.565964 -1.7150226
-4.2744727 -21.56204 -1.6739756
-3.7362792 -21.562979 -1.666551
-2.6722558 -21.561361 -1.6545236
-2.1452832 -21.560564 -1.6500061
-1.620957 -21.559771 -1.6464714
-0.57749999 -21.56144 -1.6425558
-0.057070311 -21.561802 -1.6419988
0.98431641 -21.562521 -1.6437598
1.506416 -21.56288 -1.6460775
2.0303807 -21.563242 -1.649367
2.5557811 -21.556318 -1.6530749
1.107832 -7.74085 -0.59549505
4.1543164 -21.553671 -1.6715842
4.69625 -21.552773 -1.6798166
5.2443652 -21.55398 -1.6892864
5.7987108 -21.553965 -1.6997616
7.5083203 -21.553921 -1.7381353
10.563769 -21.545191 -1.8273324
11.19873 -21.510967 -1.8468192
12.804482 -20.773001 -1.8583044
15.104453 -19.913538 -1.9033566
15.870224 -19.906643 -1.9387417
18.75868 -19.361858 -2.0529878
19.253769 -18.936647 -2.0565748
19.739286 -18.49811 -2.0600977
20.676893 -17.582281 -2.0669167
21.128788 -17.105406 -2.0702116
22.814238 -15.078899 -2.0825586
23.203379 -14.543929 -2.0854247
23.578857 -13.998432 -2.0881972
23.940351 -13.442637 -2.0908737
24.620478 -12.301637 -2.0959311
25.528496 -10.52267 -2.1027427
23.757938 -9.1285238 -1.9381886
23.993418 -8.5605412 -1.9399799
24.214111 -7.9859891 -1.9416686
24.609833 -6.8192739 -1.9447284
24.784668 -6.2277832 -1.9460979
27.382402 -4.8070965 -2.117135
27.503487 -4.1469827 -2.1181417
27.692997 -2.8173976 -2.1197863
27.76125 -2.1490448 -2.1204228
27.811737 -1.4788342 -2.1209347
27.844414 -0.80750793 -2.121321
27.835175 1.2088971 -2.1217253
27.739697 2.5499921 -2.1213646
27.665321 3.2181151 -2.1209962
27.573164 3.8837805 -2.1205018
25.172255 4.7941089 -1.9513942
24.889805 5.9977331 -1.9496843
24.724033 6.5928431 -1.9485989
22.237871 6.5085411 -1.7645198
20.395987 6.5077829 -1.6303631
18.650625 6.4506979 -1.5028534
17.432949 6.5046692 -1.4169726
16.225145 6.5041699 -1.3311721
15.154658 6.5037255 -1.2558571
13.334063 6.5012379 -1.1296909
12.554999 6.5009141 -1.076665
11.845273 6.5006189 -1.0289611
11.195527 6.5003476 -0.98586112
10.597588 6.5000987 -0.94674945
9.0545893 6.4994516 -0.84878147
8.1682034 6.4824986 -0.79411495
7.4323044 6.5068641 -0.75225073
7.0798535 6.5067139 -0.73226303
6.4274802 6.5064354 -0.69647866
5.8345995 6.5061803 -0.66551113
5.5571384 6.5060606 -0.65158695
5.0350194 6.505836 -0.62647885
4.7884374 6.5057287 -0.61515886
4.5505075 6.5056248 -0.60458815
3.8816211 6.5053306 -0.57688475
3.0343261 6.4211707 -0.54083598
2.8829491 6.5025582 -0.5416736
2.6970994 6.5024753 -0.53608656
2.5149512 6.5023923 -0.5309208
2.3361523 6.5023131 -0.52615583
2.160459 6.5022335 -0.52177894
1.9875683 6.5021544 -0.51777238
1.6491113 6.5019994 -0.51082128
1.1562598 6.5017724 -0.50289506
0.9950195 6.501698 -0.50088519
0.67599607 6.5015502 -0.49777862
0.20291992 6.501328 -0.49533415
-0.11089844 6.5011778 -0.49515352
-0.42527342 6.501029 -0.49612749
-0.90096676 6.5007992 -0.49978366
-1.0614356 6.5007224 -0.50160211
-1.3863086 6.5005636 -0.50616568
-1.5511913 6.500483 -0.50892794
-1.6977148 6.423811 -0.50598472
-1.8625586 6.4165454 -0.50880587
-2.0316405 6.4164624 -0.51253849
-2.411582 6.5072422 -0.52847844
-2.7754979 6.5070615 -0.53872347
-3.1546776 6.5068698 -0.55067945
-3.350908 6.5067735 -0.55735511
-3.7585936 6.506566 -0.57222199
-4.1895995 6.5063477 -0.58931011
-4.415205 6.5062313 -0.59877914
13.551484 -15.259111 -2.0172548
14.678905 -14.296559 -2.0254221
15.039003 -13.956221 -2.0280385
16.068359 -12.879331 -2.0355415
16.709433 -12.116987 -2.0402358
17.015703 -11.723179 -2.0424852
16.703905 -9.2723675 -1.8884552
17.162842 -8.4709911 -1.8918753
17.376953 -8.0612173 -1.8934791
17.580614 -7.6457543 -1.8950108
17.773651 -7.224874 -1.8964688
18.392178 -5.9665527 -1.9112763
19.941826 -5.9414201 -2.0568106
20.307753 -4.9976325 -2.0672452
20.729208 -3.0221443 -2.0706747
20.802441 -2.5218482 -2.0713069
20.964991 -0.5055902 -2.0729215
20.967548 0.50652283 -2.0731752
20.949081 1.0123193 -2.0731628
20.815048 2.524251 -2.0725703
20.744238 3.0252166 -2.0721881
20.563799 4.0204868 -2.0711484
18.157286 6.3793993 -1.9023383
17.988329 6.811986 -1.9013091
14.951904 6.5033226 -1.6116928
12.405635 6.5005774 -1.3844078
11.708858 6.5002999 -1.3237751
11.070214 6.5000439 -1.2689396
10.482031 6.4998083 -1.2191464
9.9379787 6.4995899 -1.1737709
8.9616108 6.4991941 -1.0942546
8.4109955 6.415184 -1.0456223
8.117383 6.5069504 -1.0283465
7.7274313 6.5067906 -0.99855214
7.010664 6.5064964 -0.94543952
6.3648729 6.5062289 -0.89967889
5.7773829 6.5059862 -0.86005408
5.5023046 6.5058703 -0.84223729
5.2382617 6.5057592 -0.82561451
4.9842772 6.5056529 -0.8100971
4.7395411 6.505549 -0.79560804
3.8385839 6.5051632 -0.74661297
3.3812401 6.4188523 -0.71712494
3.1857617 6.4187679 -0.70831662
2.6599219 6.5023203 -0.69442749
2.3003516 6.5021615 -0.68175048
1.7829785 6.5019283 -0.66641724
1.6153418 6.5018516 -0.66222042
1.1235254 6.5016284 -0.65218657
0.96255857 6.501555 -0.6496594
0.80276364 6.5014791 -0.64752686
0.48583007 6.5013328 -0.64442348
0.32831055 6.5012584 -0.64344412
-0.14265625 6.5010362 -0.64275664
-1.0940039 6.5005774 -0.65159255
-1.5847363 6.5003366 -0.66135138
-1.7312597 6.4236631 -0.65761244
-1.8965136 6.4163976 -0.66136074
-2.0660937 6.4163132 -0.66629833
-2.6285839 6.5069971 -0.69368863
-2.8130372 6.5069027 -0.70071346
-3.1939158 6.5067086 -0.7164703
-4.4615917 6.5060534 -0.77978653
-4.696279 6.5059314 -0.79312682
-4.9392676 6.5058031 -0.80740994
-5.191318 6.5056701 -0.8227061
-5.7260251 6.5053868 -0.85664755
-6.0105858 6.5052342 -0.875476
-6.3081541 6.5050769 -0.89568502
-6.6199121 6.5049095 -0.91739345
-6.9290037 6.4875107 -0.93825102
-7.5575781 6.4206214 -0.98023176
-8.427949 6.4867845 -1.051258
-8.8621187 6.4865475 -1.0855697
-9.3258591 6.4862962 -1.1228694
-9.8229103 6.4860253 -1.1635292
-10.357617 6.4857335 -1.207971
-11.56165 6.4850745 -1.3103329
-12.17541 6.4481649 -1.3618592
-13.852217 6.5008297 -1.512531
-15.425322 6.7898092 -1.6659188
-15.713183 6.0293822 -1.6636181
-15.844433 5.6450281 -1.662604
-15.966904 5.2580528 -1.6616511
-16.080507 4.8686304 -1.66076
-16.190292 4.4783397 -1.6604409
-17.680527 4.4342237 -1.8017895
-17.859375 3.5731592 -1.800329
-17.93416 3.1400969 -1.7997012
-18.054228 2.2698755 -1.7986529
-18.099541 1.8331262 -1.798232
-18.160498 0.95743835 -1.7975985
-18.176151 0.51888609 -1.7973863
-18.163857 -0.79709959 -1.7971666
-18.140009 -1.2352154 -1.7972326
-18.062704 -2.1093462 -1.7975738
-18.009315 -2.5449789 -1.7978485
-17.946074 -2.9793606 -1.798193
-17.595644 -4.7005024 -1.8002614
-17.483768 -5.1256714 -1.8009509
-17.362186 -5.5483823 -1.8017089
-17.231249 -5.9684577 -1.8025336
-15.599668 -6.2615538 -1.6615571
-15.452812 -6.6399345 -1.6625036
-15.133368 -7.3869476 -1.6645807
-14.960869 -7.7552347 -1.6657102
-14.590615 -8.4803734 -1.6681499
-14.393027 -8.8369112 -1.6694592
-14.683661 -11.096841 -1.8192893
-14.158593 -11.815245 -1.8228215
-13.883486 -12.165821 -1.8246782
-13.30873 -12.848805 -1.8285687
-13.009248 -13.180844 -1.8306015
-7.3989649 -7.8675256 -1.0675566
-12.386797 -13.825053 -1.8348372
-11.733799 -14.441551 -1.8392944
-11.051396 -15.02889 -1.8439658
-10.340742 -15.585708 -1.848843
-9.9751854 -15.8522 -1.8513565
-9.6030464 -16.110559 -1.8539184
-9.224472 -16.360565 -1.8565276
-8.8396292 -16.60211 -1.8591827
-8.4487009 -16.83498 -1.8618829
-8.0518456 -17.059048 -1.8646268
-7.6493063 -17.274143 -1.8674129
-6.8277535 -17.676792 -1.8731076
-5.1245313 -18.367929 -1.8849471
-4.6873732 -18.516113 -1.8879925
-3.8009961 -18.781996 -1.8941756
-3.3522363 -18.899477 -1.8973101
-2.9000292 -19.006483 -1.9004713
-2.4446483 -19.1029 -1.9036572
-1.0618848 -19.327557 -1.9133475
0.81136715 -19.47298 -1.9265118
1.2832421 -19.481308 -1.9298346
2.229248 -19.463749 -1.9365039
1.2805469 -7.8205123 -0.78332639
3.6500487 -19.351315 -1.9465405
4.1230955 -19.290697 -1.9498874
4.5951953 -19.218458 -1.9532305
6.4698434 -18.813383 -1.9665328
7.8528419 -18.387695 -1.9763759
8.3078804 -18.222729 -1.9796203
9.207099 -17.858429 -1.9860409
9.6507616 -17.65921 -1.9892129
10.524521 -17.227081 -1.9954698
11.796738 -16.495848 -2.0046036
12.209414 -16.230406 -2.0075729
13.79501 -15.063481 -2.019016
15.262685 -13.735901 -2.0296657
15.609053 -13.380225 -2.0321889
15.946689 -13.015451 -2.0346527
16.594589 -12.259456 -2.0393937
17.204481 -11.469701 -2.0438745
17.494501 -11.062788 -2.0460126
17.774296 -10.648206 -2.0480804
16.615107 -9.4166718 -1.8877959
17.299561 -8.2122822 -1.8928987
17.507071 -7.7988915 -1.8944571
17.704062 -7.3799577 -1.8959423
18.229902 -6.0929041 -1.8999468
20.117304 -5.6606236 -2.0657492
20.258924 -5.1763306 -2.0668597
20.504463 -4.1968975 -2.0688176
20.69911 -3.2052264 -2.0704198
20.777119 -2.7057152 -2.0710857
20.84211 -2.2042074 -2.0716605
20.958847 -0.69122189 -2.072835
20.971483 -0.18532409 -2.0730417
20.971035 0.32077941 -2.0731564
20.957401 0.82672787 -2.0731783
20.930624 1.3321453 -2.073107
20.890751 1.8366504 -2.0729437
20.837772 2.3399024 -2.0726874
20.771748 2.8415606 -2.0723391
18.513916 5.3387609 -1.9046087
18.216738 6.2195606 -1.90272
18.051064 6.6535215 -1.9016345
15.321845 6.5034704 -1.6452966
14.348085 6.5030847 -1.557135
13.407139 6.4709935 -1.471537
10.6925 6.4998922 -1.2368783
10.1329 6.4996667 -1.1899472
9.6139355 6.4994593 -1.1470908
9.1307812 6.4992623 -1.1078376
7.4920115 6.5066943 -0.98086017
6.7992868 6.5064096 -0.93022597
6.4786816 6.5062757 -0.90758461
5.8812985 6.5060277 -0.86691236
5.6019335 6.5059118 -0.84863204
5.3339648 6.5058007 -0.83158326
5.0763865 6.5056906 -0.81567001
4.5890427 6.5054855 -0.78693444
4.3577638 6.5053868 -0.7739743
4.1338477 6.5052915 -0.76186997
3.7057714 6.505106 -0.74002212
3.4542284 6.4188852 -0.7205174
3.2569432 6.4187984 -0.71147597
3.0655565 6.4210448 -0.70331967
2.727412 6.5023499 -0.69698393
2.544668 6.5022693 -0.69019002
2.1891601 6.5021114 -0.67815918
1.8450586 6.5019565 -0.66806912
1.6766309 6.5018811 -0.66370934
1.3457714 6.5017309 -0.65629357
1.1829296 6.5016565 -0.6532141
1.0215039 6.5015807 -0.65053982
0.54376954 6.5013609 -0.64487821
0.38607422 6.5012851 -0.64375967
-0.085058592 6.5010629 -0.64266026
-0.24204101 6.5009885 -0.64304304
-0.39930663 6.5009131 -0.64380097
-0.55703121 6.5008373 -0.64493728
-0.71541011 6.5007606 -0.64645475
-1.1963671 6.500526 -0.65334302
-1.359287 6.5004478 -0.65644163
-1.683125 6.4726977 -0.66107756
-2.1747949 6.4162583 -0.66966307
-2.5617969 6.507031 -0.69124693
-3.3181736 6.5066452 -0.7219606
-3.9354198 6.5063267 -0.75162047
-4.8490624 6.5058508 -0.80205351
-5.0976954 6.5057187 -0.81696951
-5.3559179 6.5055823 -0.83294523
-7.4233985 6.420692 -0.97016644
-9.1519623 6.4863925 -1.1088085
-9.6363478 6.4861279 -1.1481903
-11.325557 6.4852037 -1.2900369
-13.539492 6.5010018 -1.4846109
-15.369267 6.9283252 -1.6664301
-15.797295 5.7864075 -1.662969
-16.039814 5.0118542 -1.66108
-16.173906 4.6284494 -1.6629112
-17.741358 4.1625156 -1.8012977
-17.976406 2.8652117 -1.7993398
-18.035137 2.4299126 -1.7988248
-18.084063 1.9935162 -1.7983782
-18.152275 1.1183239 -1.7976941
-18.171553 0.67988706 -1.797456
-18.180946 0.24118774 -1.7972878
-18.170156 -0.63618588 -1.7971597
-18.149902 -1.0744721 -1.7972003
-18.079834 -1.9492019 -1.7974905
-17.970428 -2.8200696 -1.7980584
-17.901005 -3.2535839 -1.7984468
-17.821815 -3.6855276 -1.7989041
-17.407988 -5.3935447 -1.8014222
-17.280449 -5.8146105 -1.8022228
-15.651377 -6.1219068 -1.6612252
-14.661064 -8.3484993 -1.6676844
-14.466503 -8.7065496 -1.6689718
-14.052832 -9.4098158 -1.6717227
-14.776278 -10.962605 -1.818668
-13.985449 -12.037826 -1.8239896
-13.705097 -12.38465 -1.8258841
-12.183369 -14.023215 -1.8362243
-11.855869 -14.330567 -1.8384603
-11.520947 -14.630647 -1.8407501
-9.7403908 -16.016684 -1.8529725
-9.36415 -16.269789 -1.8555645
-8.9815722 -16.514439 -1.8582029
-7.7977147 -17.196234 -1.8663855
-7.3916016 -17.405594 -1.869198
-6.9800973 -17.605696 -1.8720508
-6.5634274 -17.796442 -1.8749419
-5.7150779 -18.14926 -1.8808371
-4.8482618 -18.462898 -1.8868713
-3.9648242 -18.736275 -1.8930322
-3.517334 -18.857573 -1.8961567
-2.6121581 -19.068737 -1.902485
-0.76732421 -19.36241 -1.9154147
-0.30045897 -19.408468 -1.9186932
0.16825195 -19.443394 -1.9219875
1.5824609 -19.480677 -1.9319428
2.0542285 -19.470383 -1.9352691
2.5292382 -19.448612 -1.938621
3.4763281 -19.370626 -1.945312
4.4220214 -19.24633 -1.9520038
5.3636913 -19.075562 -1.9586782
5.832334 -18.972755 -1.9620041
6.2990527 -18.858313 -1.965319
6.7636328 -18.732237 -1.9686217
7.2257323 -18.594587 -1.9719094
8.1412306 -18.284615 -1.9784318
9.0432425 -17.928701 -1.98487
9.9292774 -17.527273 -1.9912062
12.467412 -16.056883 -2.0094311
12.869756 -15.774071 -2.0123315
13.265469 -15.480883 -2.015188
14.035576 -14.863856 -2.0207574
14.775478 -14.207006 -2.0261235
15.823798 -13.150402 -2.0337555
17.389198 -11.213047 -2.0452356
17.672812 -10.801241 -2.0473297
16.999071 -8.7680149 -1.8906521
17.220772 -8.3625841 -1.8923086
17.432138 -7.9512744 -1.8938937
17.632998 -7.5343256 -1.8954059
17.823154 -7.1120825 -1.8968438
18.002548 -6.6847434 -1.8982072
18.170927 -6.2526417 -1.8994942
20.062216 -5.8374023 -2.0653198
20.208359 -5.3545594 -2.066462
20.342098 -4.8678546 -2.0675175
20.571602 -3.884217 -2.0693634
20.74995 -2.8893154 -2.0708516
20.876562 -1.8858676 -2.0719771
20.950888 -0.87681824 -2.0727358
20.906895 1.6515936 -2.0730143
20.636055 3.656333 -2.0715728
19.838408 4.5118637 -2.0110338
18.690771 4.7279553 -1.9057127
18.113272 6.4948239 -1.902055
16.847813 6.5040731 -1.7851388
14.693154 6.5032215 -1.5882672
13.602275 6.4172654 -1.4866573
12.959385 6.5007982 -1.4331267
12.214229 6.5005002 -1.3676724
11.53371 6.5002294 -1.3086613
10.333271 6.4997482 -1.206671
9.3042574 6.499332 -1.1218559
8.0114155 6.5069065 -1.0201918
7.6275191 6.5067492 -0.99101698
7.2647262 6.5066013 -0.96400517
6.9210253 6.5064597 -0.93896091
6.2836227 6.5061951 -0.89407903
5.7030954 6.5059543 -0.85519463
5.4310546 6.5058398 -0.83770275
4.9183397 6.5056248 -0.80614775
4.6759181 6.5055223 -0.79191941
4.2152147 6.5053244 -0.7662167
3.9956443 6.5052319 -0.75462568
3.3287792 6.4188304 -0.71472245
3.1345704 6.418745 -0.70607865
2.7954004 6.5023804 -0.69961393
2.6113379 6.5022984 -0.69262218
2.4307909 6.5022192 -0.6861636
2.0791407 6.5020618 -0.67476362
1.9074609 6.5019846 -0.66978115
1.0805957 6.5016088 -0.6514746
0.76042968 6.5014596 -0.64702535
0.60180664 6.5013866 -0.64538419
-0.1844043 6.5010157 -0.64285821
-0.97592771 6.5006347 -0.64976394
-1.7755468 6.4236412 -0.65876228
-2.2846093 6.4162035 -0.67322248
-2.4954686 6.5070653 -0.68887436
-2.8627148 6.5068774 -0.70267487
-3.4443555 6.5065808 -0.72770637
-3.647959 6.5064754 -0.73732787
-4.2942185 6.5061412 -0.77055752
-4.5232224 6.5060215 -0.78324658
-5.0053806 6.5057678 -0.81137586
-5.5247169 6.5054932 -0.84363973
-6.088408 6.5051951 -0.88071126
-6.3895898 6.505033 -0.90130538
-6.70541 6.5048642 -0.92343777
-6.9289255 6.4044957 -0.93265676
-7.2724705 6.4036231 -0.95781332
-7.7359862 6.4871593 -0.99795049
-8.5407028 6.4867234 -1.0601072
-8.9824219 6.4864831 -1.0951813
-12.308622 6.4178929 -1.3721211
-14.086279 6.5007005 -1.5335008
-15.465185 6.6892319 -1.6655536
-15.611289 6.3097339 -1.6644014
-15.748964 5.9274621 -1.6633422
-15.997969 5.1547313 -1.6614081
-16.109209 4.7646875 -1.6605335
-16.53373 4.459331 -1.6927032
-17.798281 3.8900609 -1.8008332
-17.952402 3.0246618 -1.7995459
-18.014727 2.5898468 -1.7990055
-18.142704 1.2791167 -1.7977988
-18.17868 0.40224487 -1.7973412
-18.181826 -0.036524046 -1.797217
-18.175087 -0.47523376 -1.7971624
-18.049473 -2.2253008 -1.7976401
-17.993437 -2.6606216 -1.7979336
-17.927626 -3.0946569 -1.7982962
-17.76667 -3.9580157 -1.7992293
-17.671581 -4.386961 -1.7997994
-17.566797 -4.8138084 -1.8004384
-17.452402 -5.2383189 -1.8011456
-17.328369 -5.6603513 -1.801921
-15.561484 -6.3624954 -1.6618028
-15.088329 -7.4852338 -1.664875
-14.73041 -8.2160358 -1.6672267
-14.339101 -8.9310169 -1.6698173
-15.111191 -10.456387 -1.816426
-14.086249 -11.909064 -1.8233094
-13.523457 -12.600988 -1.8271136
-12.618837 -13.591728 -1.8332565
-11.976963 -14.218576 -1.837633
-10.958506 -15.104741 -1.8446023
-10.604804 -15.384955 -1.8470293
-9.5029974 -16.17787 -1.8546078
-9.1227436 -16.425631 -1.8572291
-8.736269 -16.6649 -1.8598963
-8.34373 -16.895432 -1.8626083
-7.5412793 -17.329813 -1.868161
-7.1317968 -17.533325 -1.8709987
-6.2970018 -17.912291 -1.8767923
-5.8721581 -18.087427 -1.8797449
-5.4426951 -18.252811 -1.8827319
-4.5704198 -18.553823 -1.8888077
-2.7792382 -19.033131 -1.9013162
-2.3230665 -19.126722 -1.9045084
-1.8639941 -19.209581 -1.9077235
-1.4022949 -19.281643 -1.9109597
-0.47204101 -19.39286 -1.9174881
-0.0039453125 -19.431889 -1.920777
0.46572265 -19.459713 -1.9240795
0.9367578 -19.476307 -1.9273946
1.8817871 -19.475471 -1.9340529
2.3554003 -19.457939 -1.937394
4.2487497 -19.272617 -1.9507769
5.6605954 -19.011822 -1.960785
7.516748 -18.501488 -1.9739816
8.4282713 -18.176918 -1.9804794
8.8788471 -17.997435 -1.9836956
9.3255367 -17.806561 -1.9868873
9.7679787 -17.604336 -1.9900515
10.205967 -17.390873 -1.9931872
11.907061 -16.4263 -2.0053971
13.121055 -15.589694 -2.0141449
13.512304 -15.289989 -2.0169713
14.273106 -14.66019 -2.0224783
15.003008 -13.991063 -2.0277767
8.73915 -7.7640409 -1.155503
15.699707 -13.284089 -2.03285
16.361143 -12.540944 -2.0376832
16.677948 -12.156364 -2.0400047
16.985176 -11.763362 -2.0422609
17.282587 -11.362264 -2.0444498
17.569912 -10.953253 -2.0465693
17.846933 -10.536635 -2.0486181
16.679638 -9.3122091 -1.8882748
16.915186 -8.9152822 -1.8900268
17.355791 -8.1028986 -1.8933203
17.560528 -7.6880217 -1.8948593
17.754648 -7.2676764 -1.896325
17.937969 -6.8421435 -1.8977157
18.11039 -6.4117508 -1.8990307
18.271688 -5.9767709 -1.9002682
20.294512 -5.0469103 -2.0671403
20.795654 -2.5725088 -2.0712471
20.941162 -1.062279 -2.072624
20.963495 -0.55672669 -2.0728991
20.972626 -0.050722655 -2.0730813
20.968672 0.45534849 -2.0731711
20.921289 1.4664062 -2.0730727
20.465986 4.4643383 -2.0705624
18.611591 5.0115819 -1.9052207
18.173809 6.3354588 -1.9024446
16.110264 6.5037804 -1.7173148
15.052295 6.5033641 -1.6207981
12.479688 6.5006065 -1.3908958
11.776543 6.5003271 -1.3296292
10.539385 6.4998312 -1.2239668
9.4821482 6.4994054 -1.1363182
9.0077925 6.4992137 -1.0979527
8.453701 6.4152012 -1.0489823
7.3955665 6.5066538 -0.97367996
6.712451 6.5063744 -0.92404246
6.3960156 6.5062428 -0.90183586
5.8058496 6.5059972 -0.86192656
5.5295897 6.5058813 -0.84398246
4.2975097 6.5053611 -0.77067333
3.8600194 6.5051732 -0.74769187
3.6506641 6.5050831 -0.73733926
3.4012597 6.4188623 -0.71804839
2.3182127 6.5021701 -0.68234253
2.1428027 6.5020909 -0.676709
1.8000391 6.501936 -0.6668666
1.6321875 6.5018601 -0.66262531
1.4663574 6.5017843 -0.65881878
1.1398535 6.501637 -0.65246344
0.97876948 6.5015621 -0.64989579
0.81887692 6.5014868 -0.64772522
0.65994138 6.5014148 -0.64594185
0.34419921 6.5012655 -0.64352483
0.030117188 6.5011182 -0.64261806
-0.44121093 6.5008945 -0.64406592
-1.077705 6.5005846 -0.65132904
-1.2395507 6.5005054 -0.65412778
-1.5679394 6.5003443 -0.66096067
-1.7144629 6.4236717 -0.65718138
-1.8795215 6.4164047 -0.66088784
-2.0488281 6.4163218 -0.66577864
-3.1742382 6.5067196 -0.71561605
-3.3709373 6.5066185 -0.72434294
-3.7796679 6.5064073 -0.74377602
-4.2120118 6.5061841 -0.76611447
-4.4383106 6.5060654 -0.77848876
-4.6721873 6.5059433 -0.7917375
-5.4263182 6.5055456 -0.83738172
-5.6979394 6.5054016 -0.8548156
-6.5877147 6.5049276 -0.91512877
-7.1439648 6.4036937 -0.94832093
-7.9802833 6.4870276 -1.016564
-8.3855762 6.4868078 -1.047943
-8.8169432 6.4865732 -1.0819703
-9.2775488 6.4863229 -1.1189548
-11.495917 6.4851098 -1.3046714
-12.172559 6.4847388 -1.3633064
-12.746718 6.4006357 -1.4098922
-15.954931 5.2972913 -1.6617446
-16.069405 4.9080982 -1.6608474
-17.518085 4.4389524 -1.7863339
-17.851299 3.6168554 -1.8003961
-17.927021 3.1839147 -1.7997618
-17.992968 2.7495775 -1.799196
-18.04911 2.3139617 -1.7986991
-18.15836 1.0017675 -1.797624
-18.181807 0.12449585 -1.7972546
-18.165722 -0.75280392 -1.7971636
-18.14287 -1.1909313 -1.7972227
-18.015156 -2.5009973 -1.7978177
-17.952929 -2.9354882 -1.7981548
-17.79912 -3.8000963 -1.7990373
-17.707598 -4.229773 -1.7995821
-17.495487 -5.0827875 -1.800878
-15.614023 -6.2231216 -1.6614649
-15.150322 -7.3495164 -1.6644697
-14.978671 -7.7181606 -1.6655933
-14.413408 -8.8010693 -1.669324
-14.208388 -9.1537657 -1.6706862
-14.958144 -10.691977 -1.8174496
-14.709277 -11.059946 -1.8191174
-14.185947 -11.779477 -1.8226373
-13.911699 -12.130634 -1.8244877
-13.629199 -12.475852 -1.8263977
-13.338554 -12.814887 -1.8283665
-13.039892 -13.147583 -1.8303933
-7.4216113 -7.8531089 -1.0681072
-11.767519 -14.411082 -1.839064
-11.430644 -14.709229 -1.8413681
-11.086592 -14.999941 -1.8437245
-10.735419 -15.28303 -1.8461328
-10.377315 -15.558308 -1.8485917
-9.6409569 -16.084814 -1.8536571
-9.2630367 -16.335676 -1.8562616
-8.4884958 -16.811827 -1.8616079
-8.0922365 -17.036806 -1.8643475
-6.0286427 -18.024265 -1.8786569
-5.168457 -18.352385 -1.8846411
-4.7317576 -18.501608 -1.887683
-2.9458983 -18.996141 -1.9001504
-1.5720507 -19.256477 -1.9097695
-1.1088281 -19.321606 -1.9130181
-0.64336914 -19.375746 -1.9162849
1.0512207 -7.6973138 -0.76791656
4.5475779 -19.226299 -1.9528931
5.4885449 -19.049368 -1.959564
6.8867478 -18.696783 -1.9694973
7.3481541 -18.556042 -1.9727811
7.8066306 -18.403727 -1.9760467
8.2620306 -18.239906 -1.9792933
8.7138767 -18.064651 -1.9825176
9.6060743 -17.679861 -1.9888934
10.91079 -17.018339 -1.99824
12.167958 -16.257683 -2.0072744
12.575029 -15.982683 -2.0102065
12.975664 -15.697135 -2.0130956
13.756318 -15.094988 -2.0187361
14.507558 -14.45262 -2.0241785
14.871445 -14.116765 -2.0268207
15.227178 -13.771338 -2.0294073
15.574424 -13.416588 -2.0319364
16.24246 -12.679955 -2.0368147
16.562744 -12.298485 -2.03916
16.873564 -11.908562 -2.0414407
17.174608 -11.5104 -2.0436544
17.465654 -11.104299 -2.0457995
18.016893 -10.269148 -2.0498779
16.829893 -9.0616922 -1.8893918
17.48661 -7.84095 -1.8943031
17.871933 -6.9988918 -1.8972138
18.048378 -6.5702934 -1.8985568
18.213808 -6.1369591 -1.8998233
19.188076 -5.9536691 -1.9858758
20.102314 -5.7093658 -2.0656323
20.375498 -4.7378259 -2.0677831
20.493271 -4.2467194 -2.068727
20.59831 -3.7525337 -2.0695822
20.690517 -3.2555974 -2.0703475
20.769785 -2.7563269 -2.0710223
20.956816 -0.74233943 -2.0728087
20.97081 -0.23650207 -2.0730252
20.97168 0.26961914 -2.073149
20.84371 2.289093 -2.0727174
20.779022 2.7909362 -2.0723784
20.701319 3.2908411 -2.0719473
20.610664 3.788451 -2.0714245
20.507187 4.2833753 -2.0708106
18.068066 6.6097717 -1.9017221
15.426475 6.5035105 -1.6548229
14.441807 6.5031223 -1.5655766
13.407167 6.4307284 -1.4698064
10.751543 6.499917 -1.2418706
9.6646967 6.4994788 -1.1512532
7.9071288 6.506865 -1.0122093
6.2033887 6.5061622 -0.88858557
5.6296582 6.5059228 -0.85042441
5.3605566 6.5058103 -0.83325255
4.8530078 6.5055966 -0.80226743
4.3808007 6.5053964 -0.77524513
4.1561718 6.5053 -0.76305616
3.9383593 6.5052075 -0.75167602
3.7268164 6.505116 -0.74105561
3.474453 6.4188938 -0.72147179
3.0848241 6.4210534 -0.70414168
2.9252734 6.485383 -0.70325005
2.7460938 6.5023584 -0.6977005
2.5629883 6.5022779 -0.69085401
2.3833301 6.5021982 -0.68453306
2.206836 6.5021191 -0.67871881
1.8622167 6.501965 -0.66853452
1.1993164 6.5016637 -0.65350753
1.0377636 6.5015893 -0.6507926
0.87744141 6.5015149 -0.64847589
0.71816403 6.5014415 -0.64655089
-0.069189452 6.5010705 -0.64264202
-0.22616211 6.5009961 -0.64298671
-0.38337889 6.5009212 -0.64370728
-1.0186328 6.5006137 -0.65040106
-1.3427539 6.5004554 -0.65610993
-1.5071484 6.5003748 -0.65958172
-1.8199999 6.4236193 -0.65994269
-1.9863867 6.4163537 -0.66392988
-2.1573534 6.4162669 -0.66911376
-2.5434766 6.5070395 -0.69058615
-2.7262108 6.506948 -0.69735676
-2.9126854 6.5068531 -0.70467645
-3.4979784 6.5065536 -0.73019916
-4.3543944 6.5061092 -0.7738474
-4.5854101 6.5059886 -0.78676975
-4.8244433 6.5058627 -0.80060363
-6.1671481 6.5051522 -0.8860448
-8.6553802 6.4866614 -1.069152
-9.1048536 6.4864173 -1.105014
-9.5858107 6.4861546 -1.1440511
-10.102324 6.4858737 -1.1866643
-11.261836 6.485239 -1.2845756
-13.455371 6.5010495 -1.4771212
-15.504443 6.5884252 -1.6651922
-15.910654 5.4395399 -1.6620895
-16.137304 4.6605906 -1.6603113
-16.934473 4.4510436 -1.7307736
-18.029657 2.4739618 -1.7988733
-18.079559 2.0377159 -1.7984204
-18.149775 1.1626117 -1.7977219
-18.170057 0.72422057 -1.7974771
-18.180479 0.28553587 -1.7973014
-18.180977 -0.15320617 -1.7971957
-18.123291 -1.4679943 -1.797296
-18.084335 -1.9050661 -1.797469
-17.908485 -3.20983 -1.7984042
-17.537344 -4.9269342 -1.8006195
-17.293779 -5.7721658 -1.8021387
-16.667236 -6.0137634 -1.7514651
-15.37124 -6.8399053 -1.6630319
-14.865712 -7.9495897 -1.6663355
-14.284618 -9.0248022 -1.6701794
-14.801631 -10.925516 -1.8184981
-14.284541 -11.649109 -1.821973
-14.013301 -12.002421 -1.8238016
-13.446152 -12.691179 -1.8276371
-12.535234 -13.67667 -1.8338258
-11.889336 -14.299794 -1.8382316
-11.555156 -14.600642 -1.840516
-11.213711 -14.894118 -1.8428533
-10.509531 -15.458183 -1.8476835
-9.7780762 -15.990632 -1.852713
-9.4024706 -16.244579 -1.8553004
-8.6324701 -16.727036 -1.8606132
-7.43292 -17.384844 -1.8689117
-7.0219531 -17.585894 -1.8717605
-6.1845798 -17.959784 -1.8775733
-5.7584276 -18.132376 -1.8805355
-5.3277245 -18.29512 -1.8835322
-4.8926072 -18.447958 -1.8865623
-4.4532032 -18.590792 -1.889625
-4.0099025 -18.723431 -1.8927174
-1.2791015 -19.29895 -1.9118236
-0.81448239 -19.357183 -1.9150835
-0.34776366 -19.404322 -1.9183608
0.12080078 -19.440376 -1.921654
1.5345117 -19.481085 -1.9316049
2.0075977 -19.471937 -1.9349401
1.1821289 -7.7689071 -0.77677017
3.4285545 -19.375689 -1.9449743
3.9016991 -19.320499 -1.9483206
4.8459177 -19.175333 -1.955007
5.3162208 -19.085348 -1.9583415
6.7167478 -18.745531 -1.9682882
7.1791306 -18.609032 -1.9715778
8.0952053 -18.301401 -1.9781036
8.5484571 -18.130304 -1.981337
11.180234 -16.866014 -2.0001738
11.601514 -16.616398 -2.0032001
12.016982 -16.356012 -2.0061877
13.225761 -15.51101 -2.0149012
13.615136 -15.208603 -2.0177147
14.371963 -14.573465 -2.023195
14.738848 -14.241123 -2.0258572
15.097568 -13.899244 -2.0284643
15.789726 -13.187336 -2.0335066
16.122587 -12.817844 -2.035938
16.446308 -12.439485 -2.038307
16.976084 -8.8086996 -1.8904809
17.198866 -8.4038563 -1.8921446
17.613144 -7.5767989 -1.8952558
20.046738 -5.8860307 -2.0651996
20.19418 -5.4035535 -2.0663507
20.451523 -4.42733 -2.0683911
20.561249 -3.9342811 -2.0692787
20.742197 -2.939836 -2.0707853
20.813271 -2.4392376 -2.0714025
20.916435 -1.4328954 -2.0723636
20.948359 -0.92795044 -2.072706
20.96541 0.58985472 -2.0731795
20.944775 1.095611 -2.0731518
20.911045 1.600556 -2.0730317
20.864199 2.1045074 -2.0728188
20.645449 3.6060753 -2.0716271
20.050722 4.5087328 -2.0314341
18.732801 4.68995 -1.9088235
18.576942 5.1302819 -1.9050043
18.439344 5.574564 -1.9041381
18.290361 6.0148377 -1.903191
18.130087 6.4509912 -1.9021634
15.816904 6.5036669 -1.6904564
14.790634 6.5032592 -1.597084
12.286455 6.5005298 -1.373982
10.96998 6.5000033 -1.2604021
9.8522167 6.4995542 -1.166683
8.7834663 6.4234338 -1.0756114
8.3419333 6.4151559 -1.0402
8.0515232 6.5069237 -1.0232738
7.3005075 6.5066161 -0.96664238
6.9549899 6.5064745 -0.94140935
6.314404 6.5062084 -0.89619541
5.458076 6.5058517 -0.83941853
5.1957226 6.5057421 -0.82298255
4.9433398 6.5056357 -0.80764097
4.7000489 6.5055323 -0.79331404
4.4650779 6.5054321 -0.7799316
3.8037694 6.5051489 -0.74486846
3.1539941 6.4187536 -0.70692694
2.9649706 6.421001 -0.69908935
2.4488866 6.5022264 -0.68679303
2.2712891 6.5021482 -0.68079621
2.0966504 6.50207 -0.67529339
1.755205 6.5019164 -0.66569561
1.5878906 6.5018406 -0.6615712
0.93616211 6.501543 -0.64928085
0.77654296 6.5014672 -0.64721268
0.61781251 6.5013952 -0.64553267
0.3023828 6.5012474 -0.64331758
0.1453125 6.501174 -0.64277619
-0.16851562 6.5010242 -0.64281738
-0.32561523 6.500947 -0.64339912
-0.48313475 6.500874 -0.64435852
-0.64117187 6.5007968 -0.6456961
-0.79996091 6.50072 -0.64741784
-1.282832 6.5004845 -0.65494102
-1.4466015 6.5004039 -0.65825748
-1.6121191 6.5003223 -0.66199714
-2.2669823 6.4162121 -0.67263961
-2.6587305 6.5069823 -0.6948092
-3.0327637 6.5067921 -0.70960295
-3.2260938 6.5066929 -0.71787536
-3.4240527 6.5065904 -0.72677106
-3.8357129 6.5063791 -0.74657118
-4.2714744 6.5061536 -0.76932281
-4.4997168 6.5060325 -0.78192198
-4.7357421 6.5059094 -0.79541624
-5.2337599 6.5056467 -0.8253262
-5.4974508 6.5055075 -0.84189862
-5.7720604 6.5053625 -0.85965896
-6.0587106 6.5052099 -0.87870854
-6.6727438 6.5048814 -0.92112517
-6.9289551 6.4359336 -0.9347685
-7.2367868 6.4036427 -0.95517087
-8.4975777 6.4867477 -1.0567183
-8.9364357 6.4865088 -1.0915022
-9.4053612 6.4862523 -1.1293294
-9.9082708 6.48598 -1.1705765
-10.449717 6.4856834 -1.2156932
-11.670127 6.4850144 -1.3196926
-12.235723 6.417933 -1.365737
-13.156796 6.5012131 -1.4506116
-13.996552 6.5007496 -1.5254533
-15.450068 6.7275157 -1.6656921
-15.596894 6.3482213 -1.6645118
-15.98622 5.1940331 -1.6615001
-17.696758 4.3635669 -1.8016589
-17.789454 3.9336607 -1.8009057
-17.872383 3.5018797 -1.8002207
-17.945517 3.0685863 -1.7996047
-18.008867 2.6338935 -1.799057
-18.062391 2.1979516 -1.7985786
-18.139833 1.3233972 -1.7978293
-18.177782 0.44663572 -1.7973579
-18.176239 -0.43085814 -1.7971646
-18.135136 -1.3073486 -1.79725
-18.05456 -2.1812274 -1.7976145
-17.934755 -3.0507634 -1.7982562
-17.860117 -3.4835138 -1.7986813
-17.775751 -3.91451 -1.7991754
-17.577841 -4.7707176 -1.8003706
-17.122168 -6.0070171 -1.7936069
-15.93084 -6.0246329 -1.6835546
-15.427773 -6.7020168 -1.6626657
-14.93163 -7.815587 -1.665902
-14.749316 -8.1794653 -1.667102
-14.359668 -8.8952742 -1.6696807
-14.152538 -9.2467937 -1.6710582
-14.381972 -11.517995 -1.8213168
-14.113837 -11.873405 -1.8231235
-13.837324 -12.223042 -1.8249902
-13.552685 -12.566613 -1.8269155
-13.259932 -12.903951 -1.8288997
-12.010088 -14.187563 -1.8374069
-10.993896 -15.075964 -1.8443599
-10.64084 -15.357026 -1.8467818
-10.280967 -15.630188 -1.849254
-9.1614552 -16.400936 -1.8569621
-8.3836908 -16.87254 -1.8623321
-7.9859276 -17.095114 -1.865083
-7.5824022 -17.308731 -1.8678763
-7.1734276 -17.513166 -1.8707101
-6.75916 -17.708321 -1.8735833
-6.3396873 -17.89406 -1.8764956
-5.915381 -18.070137 -1.8794442
-5.486279 -18.236544 -1.8824289
-4.6149607 -18.539558 -1.8884972
-3.7273047 -18.802094 -1.8946902
-2.3693554 -19.117754 -1.9041843
-1.4491308 -19.274843 -1.9106314
-0.9852246 -19.337078 -1.9138854
-0.51924801 -19.3883 -1.9171565
0.88908201 -19.475172 -1.9270587
1.361123 -19.481564 -1.9303832
1.8339648 -19.476646 -1.9337158
2.3072655 -19.460253 -1.9370544
3.727998 -19.342098 -1.9470916
4.201035 -19.279579 -1.9504391
5.1438184 -19.119699 -1.9571187
5.6131735 -19.02236 -1.9604484
6.0808105 -18.913345 -1.9637686
7.0097265 -18.660486 -1.9703721
7.4703903 -18.516644 -1.9736514
7.9280562 -18.361298 -1.9769121
9.7234955 -17.625275 -1.9897333
10.161933 -17.412958 -1.992872
11.447549 -16.70929 -2.0020936
11.865136 -16.452847 -2.0050955
12.276845 -16.185619 -2.0080583
13.8579 -15.011904 -2.0194712
14.605098 -14.364236 -2.0248864
15.665293 -13.320754 -2.032599
16.001484 -12.954463 -2.035053
16.328564 -12.57937 -2.0374448
17.252977 -11.403212 -2.0442314
17.541328 -10.994944 -2.0463581
16.655273 -9.3520107 -1.8880938
16.891806 -8.9556885 -1.8898529
17.11828 -8.553153 -1.891542
17.735477 -7.3104348 -1.8961799
18.093466 -6.4555125 -1.898901
18.256006 -6.0209403 -1.9001476
19.609745 -5.9468222 -2.0255265
20.281054 -5.0961328 -2.0670342
20.522442 -4.1155519 -2.0689633
20.712851 -3.1230896 -2.0705359
20.85161 -2.1213763 -2.0717468
20.901415 -1.6180133 -2.0722146
20.938183 -1.1133453 -2.0725913
20.961817 -0.6079089 -2.0728753
20.88291 1.9196764 -2.0729077
20.7596 2.9240685 -2.0722725
20.678486 3.4233594 -2.0718172
20.584375 3.9203393 -2.07127
20.477489 4.4144983 -2.070632
18.815439 4.5339842 -1.9130787
18.49118 5.4119248 -1.9044656
18.190224 6.2914062 -1.9025499
18.023056 6.724791 -1.9014896
15.153896 6.5034046 -1.6300256
14.010576 6.417428 -1.5232587
13.333467 6.500946 -1.4662776
12.554462 6.5006356 -1.3974552
11.195087 6.5000939 -1.279599
10.597197 6.4998546 -1.2288363
10.044697 6.4996314 -1.1826168
9.0542774 6.4992318 -1.1016845
8.4967279 6.4152198 -1.0523763
7.4320798 6.5066686 -0.97639304
7.0796485 6.5065246 -0.95044935
6.7453318 6.5063868 -0.92637891
6.1241307 6.5061288 -0.88319397
5.5570016 6.5058932 -0.8457405
5.0348926 6.5056739 -0.81315047
4.3203516 6.5053697 -0.77192092
3.4213672 6.4188709 -0.71898389
3.2248828 6.4187851 -0.71004653
3.0342577 6.42103 -0.70199162
1.9875195 6.5020213 -0.67205656
1.8171387 6.5019445 -0.66731977
1.6490722 6.5018673 -0.66303432
1.3188183 6.5017185 -0.65575773
1.1562304 6.5016441 -0.6527456
0.51772457 6.5013485 -0.64466655
0.36012694 6.5012732 -0.64361143
-0.58310544 6.5008249 -0.64516127
-0.90095699 6.5006714 -0.64870864
-1.0614258 6.5005918 -0.65106672
-1.2231152 6.5005136 -0.653826
-1.386289 6.5004344 -0.6569922
-1.5511719 6.5003538 -0.66057533
-2.2032518 6.4162436 -0.67057359
-2.5917187 6.5070152 -0.69233406
-2.7754395 6.5069222 -0.69924968
-3.3508399 6.506628 -0.72343242
-3.5519726 6.5065255 -0.73273861
-3.97083 6.5063095 -0.75343627
10.602695 -12.535326 -1.9971126
11.220127 -12.036045 -2.001579
11.519785 -11.774572 -2.0037513
11.813095 -11.505388 -2.0058804
12.099824 -11.228648 -2.0079651
8.7491894 -7.7348304 -1.420532
12.134052 -9.2539301 -1.856262
12.805576 -8.3742285 -1.8611981
13.409941 -7.4438686 -1.8656728
14.104111 -6.1338267 -1.8708684
14.676972 -5.9660883 -1.9271938
15.785859 -5.5454855 -2.0352583
15.923368 -5.1656528 -2.0363157
16.051191 -4.7822495 -2.0373054
16.375547 -3.6132274 -2.0398626
16.541826 -2.8208458 -2.0412188
16.667393 -2.0205493 -2.0422897
16.714785 -1.6181267 -2.0427172
16.79665 0.40576416 -2.0437651
16.781864 0.81094605 -2.0437551
16.67544 2.0222375 -2.0432873
16.619326 2.423665 -2.0429854
16.552969 2.8234589 -2.0426109
16.389736 3.6170642 -2.0416455
16.292978 4.0103259 -2.0410552
16.186211 4.4008822 -2.0403938
14.278261 5.8047009 -1.8748742
14.126601 6.1443052 -1.8738848
9.9376268 6.4993539 -1.4444031
8.4107122 6.4149766 -1.286718
8.1171188 6.5067444 -1.2654533
7.7271972 6.5065904 -1.228791
7.0104589 6.5063086 -1.1634326
6.6795702 6.5061765 -1.1342486
6.364697 6.5060496 -1.1071231
5.7772264 6.5058141 -1.0583636
4.7394137 6.5053892 -0.97905838
4.5031543 6.5052929 -0.96240669
3.3811619 6.4187098 -0.88248181
2.8449316 6.5022616 -0.86333448
2.6598632 6.5021825 -0.85455298
2.300293 6.5020251 -0.83895063
2.1251855 6.5019493 -0.83207905
1.9528124 6.5018711 -0.82579803
1.6153027 6.50172 -0.81491852
1.1234961 6.5014987 -0.80257064
0.80274415 6.5013514 -0.79683763
0.64389646 6.5012779 -0.79469204
0.32831055 6.5011315 -0.79181212
-0.14264648 6.5009079 -0.79096752
-0.2997168 6.5008326 -0.79160768
-0.45711914 6.5007567 -0.79271096
-0.77373046 6.5006027 -0.79632199
-0.93330073 6.500526 -0.7988385
-1.0939844 6.5004478 -0.80184048
-1.4194628 6.5002856 -0.8093338
-1.8964844 6.4162655 -0.81386107
-2.238291 6.4160924 -0.82658768
-2.4476464 6.5069518 -0.84565777
-2.628535 6.5068588 -0.85364312
-2.8129687 6.5067625 -0.86228681
-3.0012889 6.5066662 -0.8716194
-3.3910253 6.5064635 -0.89249295
-3.5932226 6.5063572 -0.90411252
-4.0144238 6.506134 -0.92994171
-4.6961622 6.5057726 -0.97600681
-5.453115 6.5053635 -1.0325651
-5.7258692 6.5052161 -1.0541705
-6.0104294 6.5050597 -1.0773398
-6.3079686 6.5048985 -1.1022071
-7.1788864 6.4034839 -1.1701634
-7.5573535 6.4204245 -1.2062482
-8.4276857 6.4865756 -1.2936459
-8.8618259 6.4863329 -1.3358674
-9.3255272 6.486073 -1.3817681
-10.357256 6.4854932 -1.4864894
-12.111962 6.7937231 -1.6892632
-12.263408 6.4947457 -1.6880324
-12.546592 5.8880734 -1.6858959
-12.677519 5.5803146 -1.6849018
-12.801318 5.2698426 -1.6839573
-13.027167 4.641305 -1.6822196
-13.545615 4.4607005 -1.7347561
-14.45539 3.9984851 -1.8244112
-14.542138 3.6471214 -1.8237182
-14.691367 2.9393303 -1.8225021
-14.753779 2.5832446 -1.8219795
-14.854111 1.8675379 -1.821106
-14.943066 0.78781003 -1.820228
-14.957978 -0.29507506 -1.8198708
-14.946484 -0.65591186 -1.8198678
-14.926758 -1.0164099 -1.819923
-14.898799 -1.3763665 -1.8200359
-14.636318 -3.1621935 -1.8214697
-14.171562 -4.9086657 -1.8243377
-14.054736 -5.2513351 -1.8250811
-13.7975 -5.9286656 -1.8267359
-13.108252 -6.0112195 -1.7541772
-12.296611 -6.3741698 -1.684803
-11.825175 -7.2603331 -1.6879183
-11.654365 -7.5486279 -1.6890547
-11.102079 -8.390152 -1.6927499
-10.904931 -8.6623936 -1.6940757
-10.275508 -9.4521351 -1.6983266
-10.917539 -10.540263 -1.8459536
-10.15502 -11.334141 -1.8511412
-9.8882809 -11.587246 -1.8529617
-9.615469 -11.834381 -1.8548263
-9.336689 -12.075366 -1.8567343
-8.761816 -12.538306 -1.8606769
-7.8581052 -13.183142 -1.866894
-6.5818553 -13.944676 -1.8757087
-5.9159665 -14.280998 -1.8803219
-4.8859863 -14.727331 -1.8874749
-4.180625 -14.984777 -1.8923849
-3.8228514 -15.101158 -1.8948785
-3.4619627 -15.209188 -1.8973958
-3.0980859 -15.308769 -1.8999364
-1.2413281 -15.676886 -1.9129329
0.27691406 -15.811235 -1.9235986
0.6592285 -15.822039 -1.9262898
1.42583 -15.816041 -1.9316921
1.8095703 -15.799139 -1.9344
1.070039 -7.6950607 -0.94504619
1.2784082 -7.8074193 -0.96235508
4.104414 -15.501763 -1.9506378
5.981113 -14.996902 -1.9639778
6.3496971 -14.868061 -1.9666046
6.7155271 -14.730038 -1.9692144
7.0783105 -14.582882 -1.9718045
7.4377928 -14.426601 -1.9743737
7.7937789 -14.261306 -1.9769202
8.8382807 -13.711921 -1.9844073
10.167421 -12.857949 -1.9939708
10.486816 -12.623449 -1.9962758
10.800615 -12.380763 -1.998543
11.108613 -12.130054 -2.0007715
11.706182 -11.60506 -2.0051041
11.995361 -11.331105 -2.0072052
12.553447 -10.760919 -2.01127
12.507636 -8.7816763 -1.8590041
13.143154 -7.8737736 -1.8636929
13.339746 -7.5602441 -1.865151
13.528477 -7.2415957 -1.866555
13.70916 -6.9180498 -1.8679032
13.881709 -6.5897899 -1.8691955
14.3283 -5.9727693 -1.8882841
15.313261 -5.9538355 -1.9985669
15.874013 -5.3055034 -2.0359352
16.00539 -4.923378 -2.0369496
16.127012 -4.5378337 -2.0378964
16.238817 -4.1491575 -2.0387747
16.514355 -2.9669232 -2.0409911
16.585966 -2.5683188 -2.0415883
16.647392 -2.1679213 -2.0421145
16.698555 -1.7659942 -2.0425684
16.739443 -1.3627924 -2.0429504
16.77001 -0.95861328 -2.0432599
16.800009 -0.1484613 -2.0436597
16.799442 0.25696838 -2.04375
16.788506 0.66227233 -2.0437675
16.767168 1.0671594 -2.0437114
16.505703 3.0755596 -2.0423365
16.226543 4.2578659 -2.0406451
15.622881 4.5050926 -1.9778298
