# .PCD v0.7 - Point Cloud Data file format
VERSION 0.7
FIELDS x y z
SIZE 4 4 4
TYPE F F F
COUNT 1 1 1
WIDTH 1462
HEIGHT 1
VIEWPOINT 0 0 0 1 0 0 0
POINTS 1462
DATA ascii
-2.1686718 6.502851 0.09649124
-2.5233984 6.5026798 0.098182596
-2.7056737 6.5025921 0.0991394
-2.8916407 6.5025029 0.10017257
-3.2760351 6.5023184 0.10248809
-3.4752147 6.5022235 0.10377922
-3.6795995 6.5021257 0.10516388
-3.8896191 6.5020242 0.10665023
-4.3286619 6.5018144 0.10994782
-4.796865 6.5015912 0.11372948
-5.8435645 6.5010929 0.12304466
-6.6680856 6.4169083 0.13026404
-7.4505858 6.5075116 0.13924652
-8.2190914 6.5071464 0.14756225
-9.0873432 6.5067348 0.15732528
-9.5666113 6.5065069 0.16285408
-10.081122 6.5062613 0.16889045
-11.235518 6.5057144 0.18275063
-15.165254 6.4866996 0.23217659
-18.872784 6.5019631 0.28097725
-21.997784 6.4092779 0.32250893
-27.080595 6.4906645 0.39198768
17.047373 6.5098076 -0.15410988
13.922216 6.5064178 -0.12978317
11.641298 6.5053277 -0.11262459
10.424844 6.5047464 -0.1037735
9.8850002 6.504488 -0.099933542
9.2599506 6.418664 -0.095146559
8.0645599 6.5018816 -0.087485045
7.6774998 6.5016971 -0.084963985
7.3119335 6.5015202 -0.082632288
6.9657125 6.5013542 -0.080469206
6.3240037 6.5010476 -0.076594464
5.4664259 6.5006366 -0.071730882
5.2037792 6.5005093 -0.070322871
4.9510937 6.5003886 -0.069008403
4.7075291 6.5002713 -0.067779996
4.1954298 6.424334 -0.064799957
3.9725585 6.4161272 -0.063731305
3.5858202 6.4694729 -0.062469251
3.4043944 6.5077434 -0.062026061
3.0137792 6.5075555 -0.060565107
2.281162 6.5072012 -0.058233947
2.1062305 6.5071182 -0.057761304
1.9340136 6.5070353 -0.057329331
1.7642578 6.5069537 -0.056937482
1.4311523 6.5067925 -0.056265336
1.267334 6.5067129 -0.055983502
1.1050683 6.5066338 -0.055736542
0.94411129 6.506557 -0.055524979
0.78429687 6.5064788 -0.055346373
0.62540036 6.506402 -0.055200804
0.46725586 6.5063262 -0.055088956
0.30966797 6.5062494 -0.055009536
-0.004628906 6.5060968 -0.054945603
-0.16167969 6.506021 -0.054961395
-0.31891602 6.5059443 -0.055010833
-0.47652343 6.505867 -0.055090409
-0.63469726 6.5057926 -0.05520355
-0.7935937 6.5057144 -0.055348966
-1.0996484 6.4194474 -0.055003509
-2.1150391 6.5027423 -0.057748947
-2.2899609 6.5026569 -0.058222122
-3.2155859 6.5022063 -0.061261062
-3.4132519 6.502111 -0.062018279
-3.6159668 6.5020108 -0.062831268
-3.824209 6.5019097 -0.063704371
-4.0384278 6.5018048 -0.06463936
-4.2591701 6.5016985 -0.065640636
-4.4869919 6.501585 -0.066713408
-5.2195411 6.5012274 -0.070409544
-5.4826365 6.5010977 -0.071820751
-5.7566504 6.5009646 -0.073333889
-6.5694432 6.4167767 -0.077555083
-6.8945508 6.4166179 -0.079539485
-7.3395214 6.5073733 -0.082839429
-8.5067282 6.5068021 -0.090447769
-8.9458303 6.5065861 -0.093419947
-9.4150581 6.5063553 -0.096651226
-10.459765 6.5058427 -0.10402939
-11.045 6.5055561 -0.10825706
-11.510683 6.4108305 -0.11127289
-12.340302 6.4877677 -0.11774429
-13.097588 6.4873953 -0.12343826
-13.932343 6.4869866 -0.1297908
-18.426182 6.5017939 -0.16501679
-29.200146 6.4850726 -0.25261337
-20.549385 -7.7510562 -0.18548065
-20.163086 -21.576542 -0.24939948
-16.569502 -21.571041 -0.22971618
-15.755449 -21.569408 -0.22558181
-13.475508 -21.567091 -0.21477287
-12.069502 -21.567308 -0.20872603
-11.393906 -21.565289 -0.20598289
-8.2485151 -21.560696 -0.19495705
-7.075654 -21.558916 -0.19162773
-6.5034275 -21.558052 -0.19016922
-4.2914844 -21.563347 -0.18567993
-3.7529979 -21.563715 -0.18484695
-3.2189941 -21.564079 -0.18413322
-2.6887987 -21.564444 -0.18352866
-2.1607909 -21.55481 -0.18294777
-1.6364355 -21.553928 -0.18255264
-1.1140527 -21.553049 -0.18226463
0.96832031 -21.552355 -0.18219787
1.4901855 -21.552324 -0.18245193
2.0137987 -21.552292 -0.18281081
3.0687792 -21.552231 -0.18385352
3.6009862 -21.549891 -0.18451606
4.1376367 -21.548567 -0.18530799
5.7799706 -21.544514 -0.18838699
6.9114938 -21.548321 -0.19111115
7.4892578 -21.547226 -0.19265006
8.0767574 -21.54611 -0.19432418
11.197197 -21.543476 -0.2050489
12.551445 -21.540653 -0.21054801
13.985703 -21.540674 -0.21690002
15.511436 -21.538782 -0.22418563
16.31455 -21.538219 -0.22819069
17.113867 -21.495312 -0.23204139
19.87752 -21.560595 -0.24766456
24.495537 6.5182014 -0.21406952
20.459354 6.5162725 -0.18133712
17.474823 6.5100117 -0.15749054
15.188007 6.5089188 -0.13955124
14.072763 6.4372721 -0.13069434
13.361181 6.5061502 -0.12550537
11.868086 6.5054364 -0.11429924
11.216514 6.505125 -0.10950477
10.617089 6.504838 -0.10515442
10.063154 6.5045719 -0.10119385
9.4235058 6.4187417 -0.096291199
8.6204882 6.5021491 -0.091190033
7.8059473 6.5017571 -0.085795589
7.4333591 6.5015802 -0.083401255
6.1249609 6.5009513 -0.075432204
5.0355272 6.5004277 -0.069442213
4.7889743 6.5003104 -0.068186797
4.3210349 6.5000873 -0.065917507
4.0454392 6.4161639 -0.064058535
3.4724023 6.5077763 -0.062293623
3.078584 6.507587 -0.060796812
2.8884668 6.5074954 -0.060128476
2.7023828 6.5074053 -0.059507217
2.5200098 6.5073185 -0.058932647
2.3410058 6.5072317 -0.058402784
2.1650977 6.5071464 -0.057915878
1.9919921 6.5070634 -0.057471082
1.8214355 6.5069804 -0.057065353
1.6531738 6.5068989 -0.056697462
1.4869629 6.5068192 -0.056368332
1.1598145 6.5066605 -0.055816498
0.99843746 6.5065813 -0.05559288
0.67907226 6.5064287 -0.055246506
0.52070314 6.5063505 -0.055123288
0.36293945 6.5062761 -0.055032805
0.048515625 6.5061221 -0.054946899
-0.10852539 6.5060468 -0.054953154
-0.26568359 6.5059695 -0.054990005
-0.42313474 6.5058942 -0.055059355
-1.5299413 6.4215665 -0.055750884
-1.7161719 6.5029373 -0.056798629
-1.8851367 6.5028558 -0.057178956
-2.0564744 6.5027714 -0.057598267
-2.4073143 6.5026007 -0.05855751
-2.7709081 6.5024223 -0.05969261
-2.9582715 6.5023322 -0.060329437
-3.3458202 6.5021439 -0.061755523
-3.9652343 6.5018401 -0.064315334
-4.6419239 6.5015092 -0.067465283
-5.3924413 6.501143 -0.071332164
-5.6626463 6.5010099 -0.072809525
-5.9444337 6.5008721 -0.074393846
-6.4630566 6.4168291 -0.076915741
-7.9605465 6.5070696 -0.086831741
-8.3643751 6.5068707 -0.089497223
-8.7940626 6.5066595 -0.092386551
-9.7438965 6.5061941 -0.09894783
-10.271894 6.5059357 -0.10268715
-10.841709 6.5056558 -0.1067823
-11.459229 6.505352 -0.1112828
-11.943466 6.4041729 -0.11445289
-12.833271 6.487525 -0.12144195
-13.64042 6.4871283 -0.12756133
-14.533789 6.48669 -0.13441215
-15.52917 6.4862003 -0.14212914
-16.646484 6.485651 -0.15087806
-17.958086 6.5020242 -0.16129516
-21.08042 6.5004888 -0.18630089
-23.011366 6.4921231 -0.20192535
-25.331415 6.490983 -0.22084533
-27.770546 6.4059916 -0.24069282
-18.596561 -21.572662 -0.24053733
-17.705507 -21.570459 -0.23565613
-16.851816 -21.571608 -0.2311769
-16.027607 -21.569956 -0.22695129
-10.956689 -21.564516 -0.20427719
-10.309131 -21.563368 -0.20185119
-7.8560157 -21.560101 -0.19379264
-6.696074 -21.558342 -0.19064552
-3.9346483 -21.563591 -0.18511772
-2.3387597 -21.555109 -0.18310836
-0.24871093 -21.551594 -0.18202156
1.3134179 -21.552334 -0.18235359
1.8363769 -21.552303 -0.18267424
2.3614941 -21.552273 -0.18310569
4.4953513 -21.547682 -0.18589462
5.5919137 -21.544977 -0.18798317
6.7180467 -21.548689 -0.19062164
8.4712496 -21.545362 -0.19551331
9.0770111 -21.544214 -0.19743279
9.6967964 -21.546604 -0.19954567
10.328496 -21.545288 -0.2017813
13.017295 -21.541874 -0.21256508
13.737119 -21.540981 -0.21576439
15.246113 -21.53911 -0.22284126
16.039999 -21.538982 -0.2268016
16.834951 -21.503029 -0.23063377
17.664248 -21.473785 -0.23482902
19.5033 -21.504433 -0.24516135
24.986094 6.4307046 -0.2178891
23.008017 6.5174909 -0.20195572
21.05332 6.5165558 -0.18612602
16.65584 6.5096197 -0.15102363
14.349833 6.4228339 -0.13276839
9.7188959 6.5044084 -0.098764114
7.9369531 6.5018206 -0.086649247
7.197988 6.5014668 -0.081914596
6.8576169 6.5013027 -0.079802394
5.9318161 6.5008597 -0.074322052
5.6502929 6.5007243 -0.072739482
4.8713965 6.500351 -0.068602063
3.9036326 6.4160953 -0.063426435
3.6944335 6.4159942 -0.06252563
3.5409961 6.5078106 -0.062569275
3.3399804 6.5077128 -0.061774138
3.1438866 6.5076189 -0.061036147
2.9523339 6.5075259 -0.060348816
2.4012206 6.5072613 -0.058577117
2.0502832 6.5070901 -0.057617493
1.8788965 6.5070086 -0.057198029
1.709873 6.5069265 -0.056818388
1.0529003 6.506608 -0.055663832
0.89234376 6.5065312 -0.055463333
0.73284179 6.5064545 -0.055296402
0.57421875 6.5063772 -0.055161055
0.41624999 6.5063019 -0.055058822
0.25880858 6.5062246 -0.054989927
0.10165039 6.5061479 -0.054952163
-0.055380858 6.5060735 -0.054947358
-0.2124707 6.5059967 -0.05497345
-0.36981446 6.5059195 -0.055033341
-0.52757812 6.5058441 -0.055122681
-0.68595701 6.5057659 -0.055247113
-0.84514648 6.5056901 -0.055403899
-1.1512696 6.4194217 -0.055078812
-1.8277148 6.5028825 -0.057045363
-2.1712694 6.5027151 -0.05789749
-2.5260742 6.502543 -0.058914106
-2.7083983 6.5024529 -0.059487686
-3.0844922 6.5022712 -0.060778424
-3.2789452 6.5021768 -0.06149948
-3.682656 6.5019779 -0.063107222
-4.1090331 6.5017691 -0.064955063
-4.3320017 6.5016618 -0.065979309
-4.5622458 6.5015483 -0.067076951
-4.8004198 6.5014324 -0.068250962
-5.0472264 6.5013113 -0.06950859
-5.5699706 6.5010552 -0.07229881
-6.1377931 6.5007782 -0.075504683
-7.4558396 6.5073161 -0.083576426
-7.8292575 6.507133 -0.085975952
-8.2249804 6.5069389 -0.088569559
-9.0940428 6.5065117 -0.094434276
-9.5737791 6.5062771 -0.097757183
-10.088828 6.5060234 -0.10138389
-10.643887 6.5057526 -0.10535286
-11.244521 6.5054569 -0.10971206
-11.712958 6.404285 -0.11273384
-14.220966 6.4868436 -0.13200516
-17.23954 6.4015703 -0.15529296
-20.485743 6.5007815 -0.18150787
-22.02618 6.4088178 -0.19374138
-24.499218 6.4913921 -0.21404357
-20.535078 -7.9291906 -0.1859037
-20.829903 -21.572783 -0.25326318
-15.498466 -21.568892 -0.22430374
-12.536347 -21.567238 -0.21067695
-10.526524 -21.563755 -0.20265137
-8.0561714 -21.560402 -0.19437996
-6.8897166 -21.558636 -0.19113815
-5.2063966 -21.562719 -0.18733604
-4.6588182 -21.563093 -0.18630722
-3.0472167 -21.564199 -0.18392372
-2.5181153 -21.56456 -0.18335693
-1.9910253 -21.554523 -0.18280929
-1.4673926 -21.553642 -0.18244712
-0.94550776 -21.552765 -0.182191
0.095439449 -21.551016 -0.18200591
0.61581051 -21.552378 -0.18209007
1.1368457 -21.552345 -0.18226768
1.6592187 -21.552315 -0.1825553
2.1835351 -21.552284 -0.18294685
2.7104199 -21.552254 -0.18345016
3.2405078 -21.552221 -0.18405624
4.3120995 -21.548138 -0.18558952
4.8554101 -21.546795 -0.1865309
5.9604297 -21.544069 -0.18878105
6.5236325 -21.542681 -0.19009253
7.6780562 -21.546867 -0.19317886
9.4845409 -21.543442 -0.19878989
11.411318 -21.54303 -0.20588645
12.085117 -21.541626 -0.20860679
12.778486 -21.54217 -0.21153037
15.768721 -21.539734 -0.22544631
16.579981 -21.537487 -0.22954528
18.221649 -21.444122 -0.23765381
19.136425 -21.449375 -0.24276474
29.195604 6.5165057 -0.25263175
26.198524 6.5150723 -0.22799248
23.747206 6.5178423 -0.20796989
21.679413 6.5168548 -0.19118309
18.388563 6.5104485 -0.16474235
17.066053 6.5098162 -0.15425736
15.901191 6.5092597 -0.14510468
14.670293 6.4229875 -0.13524719
13.935478 6.5064249 -0.12988387
13.100264 6.5060258 -0.12352859
12.342548 6.5056643 -0.11782829
10.43332 6.5047503 -0.1038343
9.8928709 6.5044913 -0.099989466
9.267168 6.4186687 -0.095200196
8.4819336 6.5020819 -0.090257794
7.3173046 6.5015225 -0.082666092
6.3286328 6.501049 -0.076621629
5.7442088 6.5007696 -0.073263317
5.4704881 6.5006375 -0.071751937
5.2076755 6.5005121 -0.070341565
4.9548535 6.5003901 -0.069026873
4.7111621 6.5002728 -0.067798384
3.7645507 6.4160285 -0.062823407
3.4074218 6.5077457 -0.062037732
3.0166698 6.5075579 -0.060575638
2.8279004 6.5074663 -0.059922103
2.6430469 6.5073757 -0.059316941
2.461787 6.5072904 -0.058756635
2.1088476 6.5071182 -0.057767943
1.5992383 6.5068731 -0.056587141
1.4336425 6.5067935 -0.056268997
1.2698047 6.5067143 -0.055987164
0.31204101 6.5062504 -0.055010069
0.15479492 6.5061746 -0.054961622
-0.79118162 6.5057158 -0.055347595
-1.257373 6.4193707 -0.05524208
-1.4190234 6.4192939 -0.055521544
-1.7705566 6.5029106 -0.056918029
-2.112412 6.5027447 -0.057741772
-2.2872949 6.5026593 -0.058214188
-3.0196874 6.5023026 -0.060546033
-3.4102147 6.5021124 -0.062006835
-3.6128514 6.5020123 -0.062817842
-4.0351462 6.5018072 -0.064624481
-4.9627051 6.5013518 -0.069074094
-5.2156544 6.5012298 -0.070389554
-5.4785743 6.5010991 -0.071798556
-5.7524219 6.5009661 -0.073309936
-6.2665234 6.4283147 -0.075813979
-7.7005272 6.5071979 -0.085143581
-8.5003119 6.5068045 -0.09040428
-9.4077148 6.5063591 -0.096599959
-10.45126 6.5058465 -0.10396583
-11.510683 6.4163384 -0.11129448
-12.329365 6.4877739 -0.11766029
-13.085567 6.4874029 -0.12334793
-13.919063 6.4869928 -0.1296888
-14.843515 6.4865375 -0.13680451
-15.875898 6.4860296 -0.144832
-18.404785 6.5018048 -0.16484627
-19.92082 6.5010586 -0.1769696
-20.558613 -7.7459631 -0.18553849
-20.177851 -21.57658 -0.24948402
-19.220917 -21.574209 -0.24402145
-18.304522 -21.571941 -0.23892577
-17.42746 -21.572765 -0.23421142
-16.582031 -21.57107 -0.22977898
-14.221669 -21.566977 -0.21817452
-12.773095 -21.567202 -0.21168785
-11.403975 -21.565308 -0.20602386
-3.4275196 -7.8000073 -0.071952894
-8.2575483 -21.560711 -0.19498214
-6.5120311 -21.558064 -0.19018897
-5.3930955 -21.56259 -0.18771179
-4.2996778 -21.563339 -0.18569098
-3.7610936 -21.563711 -0.18486121
-3.2270312 -21.564074 -0.18413986
-2.1687403 -21.554823 -0.18295349
-1.6443554 -21.553942 -0.18255676
-0.60088867 -21.552185 -0.18208374
0.96041012 -21.552355 -0.18219855
2.5317969 -21.552263 -0.18326476
4.6709766 -21.547251 -0.18619972
5.2180958 -21.5459 -0.18722312
5.7715721 -21.544537 -0.18836311
8.0678024 -21.546127 -0.19430007
9.8994818 -21.546181 -0.20025375
11.187236 -21.543495 -0.20501174
12.540947 -21.540676 -0.21049407
13.247665 -21.54159 -0.21357505
15.499501 -21.538795 -0.22411667
16.302187 -21.538256 -0.2281224
17.101328 -21.495659 -0.23197989
27.144979 6.5155253 -0.23576087
24.531717 6.518218 -0.21436767
16.279657 6.5094399 -0.14807083
15.20332 6.5089264 -0.13966751
14.072763 6.431076 -0.13067055
13.373574 6.5061564 -0.12559891
12.590996 6.5057831 -0.11969131
11.878359 6.5054412 -0.114375
10.625781 6.5048418 -0.10521614
10.071201 6.5045767 -0.10125198
9.4308882 6.4187455 -0.096346281
8.9603319 6.4202557 -0.093092576
7.8117576 6.5017595 -0.085833512
7.4388375 6.5015826 -0.083435439
7.0859962 6.5014129 -0.081215359
6.7512794 6.5012531 -0.079154357
6.43292 6.5010991 -0.07723961
6.1294432 6.5009537 -0.075457916
5.5618358 6.5006804 -0.072250895
5.0393262 6.5004301 -0.069461823
4.7926364 6.5003128 -0.068204574
3.8353515 6.4160638 -0.063128509
3.6280565 6.4159622 -0.062248457
3.2760839 6.5076823 -0.06152992
3.0815039 6.507587 -0.060807645
2.7051756 6.5074077 -0.059515838
2.5227442 6.5073185 -0.05894104
2.3437011 6.5072331 -0.058410414
1.9945996 6.5070648 -0.057477109
1.6556933 6.5068998 -0.0567041
1.4894531 6.5068207 -0.056372602
1.3250586 6.506741 -0.056078643
1.0008789 6.5065837 -0.055596083
0.8406738 6.5065069 -0.055405576
0.68146485 6.5064297 -0.055249173
0.52308595 6.5063529 -0.05512451
0.36531249 6.5062761 -0.055033341
0.20796874 6.5062003 -0.054974213
-0.26331055 6.5059719 -0.054989394
-0.42075193 6.5058951 -0.055058975
-0.73731446 6.5057416 -0.055294037
-0.8968066 6.5056634 -0.055460814
-1.2030274 6.4193974 -0.055156555
-1.3641406 6.4193182 -0.055421751
-1.5274609 6.4215689 -0.055744704
-1.7136328 6.5029373 -0.05679306
-1.8825586 6.5028567 -0.057172697
-2.0538671 6.5027728 -0.057591397
-2.2277832 6.5026875 -0.058050688
-2.584619 6.5025139 -0.059094314
-2.7681055 6.5024247 -0.059682693
-2.9554002 6.5023346 -0.060319517
-3.1468456 6.5022407 -0.061006162
-4.4055958 6.5016251 -0.066325456
-4.6383204 6.501513 -0.067447737
-5.128994 6.5012722 -0.069934689
-5.3884473 6.5011444 -0.071311414
-6.2343946 6.5007291 -0.076067045
-6.4583492 6.4168315 -0.07688728
-7.5742579 6.5072589 -0.084331438
-8.7873631 6.5066628 -0.092341304
-9.7362013 6.5061979 -0.098893203
-10.832754 6.5056596 -0.10671646
-11.449512 6.5053568 -0.11121216
-12.82166 6.4875312 -0.12135513
-13.627617 6.4871354 -0.12746337
-14.51956 6.4866962 -0.13430114
-15.513262 6.486208 -0.14200523
-17.937656 6.5020351 -0.16113541
-21.053164 6.5005021 -0.18608077
-27.707088 6.4020157 -0.2401519
-18.610361 -21.572697 -0.24061394
-17.71876 -21.570488 -0.23575844
-16.039814 -21.569977 -0.22701339
-15.244346 -21.56838 -0.22305748
-11.631406 -21.567377 -0.20695159
-10.966581 -21.564533 -0.20431548
-10.318799 -21.563385 -0.20188385
-9.0666113 -21.561171 -0.19753532
-7.8649216 -21.560114 -0.1938182
-7.2800684 -21.559225 -0.19217491
-6.7047167 -21.558353 -0.19066909
-5.5790429 -21.55665 -0.18804809
-2.8758202 -21.564316 -0.18372741
-1.2985351 -21.553358 -0.18235373
-0.2565918 -21.551605 -0.18202224
0.26356444 -21.550732 -0.18201599
0.78411132 -21.552364 -0.18213654
1.3055273 -21.552336 -0.18234855
1.8284472 -21.552303 -0.18267006
3.4126463 -21.552212 -0.18428214
3.9473729 -21.549036 -0.18501426
6.1416502 -21.543623 -0.18919678
7.2839842 -21.547615 -0.19209319
7.8679295 -21.546505 -0.19371742
8.4621878 -21.54538 -0.19548759
10.965039 -21.543959 -0.20415854
4.1745896 -7.7345443 -0.074203566
12.306797 -21.541164 -0.2095298
13.006592 -21.541889 -0.2125164
13.726093 -21.540997 -0.21571304
16.027792 -21.539015 -0.22674111
16.822538 -21.503374 -0.23057342
17.651659 -21.474455 -0.23476234
18.510489 -21.442715 -0.23923248
13.595556 -7.7982764 -0.13236633
28.158251 6.5160098 -0.24409096
25.024052 6.4307232 -0.21820174
23.040165 6.5175052 -0.20221481
21.080635 6.5165701 -0.18634315
19.316181 6.4858112 -0.17208244
15.553642 6.5090923 -0.14239509
14.363955 6.4228411 -0.13288231
13.656289 6.5062919 -0.12774993
12.112353 6.5055547 -0.11611358
11.440547 6.5052338 -0.11114418
10.254111 6.5046649 -0.10255211
9.726572 6.5044122 -0.098817594
9.1143064 6.4185944 -0.094142146
8.3461819 6.502017 -0.08934997
7.9428611 6.5018244 -0.086688004
7.2032714 6.5014691 -0.081947401
6.5388966 6.5011516 -0.077871546
6.2305565 6.5010028 -0.07604561
5.936152 6.5008612 -0.074347071
5.6544724 6.5007267 -0.072762601
5.3843846 6.5005975 -0.071286164
4.8751073 6.5003519 -0.068619534
4.6342087 6.500236 -0.067418896
4.4014845 6.5001249 -0.066296689
4.1275973 6.4243011 -0.06448631
3.6975584 6.4159966 -0.062538676
3.5440722 6.5078115 -0.0625811
3.1468163 6.5076199 -0.061047286
2.4039257 6.5072622 -0.058586042
2.226953 6.5071769 -0.058083266
2.0529003 6.507093 -0.057623517
1.8814746 6.5070095 -0.057204511
1.7124219 6.5069265 -0.056823805
1.3804981 6.5067682 -0.05617439
0.73525387 6.5064554 -0.055298232
0.41863281 6.5063028 -0.055060729
0.26118162 6.5062261 -0.054990232
-0.053007811 6.5060749 -0.05494751
-0.21009766 6.5059977 -0.054973982
-0.5251953 6.5058451 -0.055121765
-0.68356442 6.5057683 -0.055245437
-1.0028906 6.5056133 -0.055590667
-1.4716406 6.4192667 -0.055618208
-1.6362207 6.4215155 -0.055964507
-1.9956152 6.5028009 -0.057444915
-2.3444433 6.5026321 -0.058376387
-2.5233397 6.5025444 -0.058905255
-3.8895409 6.5018778 -0.063985057
-4.3285642 6.5016632 -0.065964505
-5.2994823 6.5011883 -0.070834883
-5.8434176 6.5009222 -0.073821716
-6.6678905 6.416729 -0.078152388
-7.8234763 6.5071368 -0.085938565
-8.2188282 6.5069413 -0.088529967
-9.0870409 6.5065165 -0.094386213
-10.080762 6.5060282 -0.1013256
-11.235087 6.5054617 -0.10964286
-13.345966 6.4872732 -0.1253189
-14.207226 6.4868498 -0.13189888
-15.164512 6.4863787 -0.13929176
-17.220284 6.4015789 -0.15515105
-20.459892 6.5007939 -0.18130188
-24.463173 6.4914103 -0.21374984
17.046446 6.50945 -0.56520784
14.655019 6.4226675 -0.49562091
13.921572 6.5061197 -0.47599337
13.087686 6.505734 -0.45271865
12.331122 6.5053864 -0.43185499
9.2596283 6.4184442 -0.34898704
8.8275976 6.4398284 -0.33846807
8.4752541 6.5018692 -0.33087721
8.0643063 6.5016804 -0.32086676
7.6772752 6.5015006 -0.31162086
6.9655075 6.5011687 -0.29513252
6.6367579 6.5010161 -0.28776971
6.3238378 6.5008721 -0.28092369
6.0252929 6.5007315 -0.27455193
5.466289 6.5004716 -0.26308221
3.7613182 6.4158816 -0.23036712
3.2066894 6.5075078 -0.22471558
3.013711 6.5074162 -0.22213599
2.1061914 6.5069842 -0.21184997
1.9339746 6.5069022 -0.21026634
1.7642285 6.5068216 -0.2088269
1.431123 6.5066619 -0.20636222
0.94410151 6.5064273 -0.20364784
0.78427732 6.5063529 -0.20299415
0.62539059 6.5062761 -0.20246178
0.1524121 6.5060468 -0.20158073
-0.31891602 6.5058184 -0.20176063
-0.63467771 6.5056643 -0.20247085
-0.79357421 6.5055876 -0.2030056
-1.2597852 6.4192424 -0.20262939
-1.5854394 6.4214106 -0.204877
-1.9428027 6.5026932 -0.21021973
-2.2899218 6.5025234 -0.21354096
-2.6490233 6.5023456 -0.21748389
-2.8338182 6.502254 -0.21970519
-3.2155175 6.5020657 -0.22468506
-3.4131737 6.501967 -0.22746322
-3.6158886 6.5018668 -0.23044601
-4.4868946 6.501431 -0.24468559
-4.9663281 6.5011907 -0.25341102
-5.2194042 6.5010648 -0.25824171
-6.0424509 6.5006509 -0.27491158
-6.2679491 6.425087 -0.27803099
-6.5692673 6.4165983 -0.28444692
-6.8943653 6.4164348 -0.29172912
-7.3393064 6.5071831 -0.30382514
-8.0942287 6.5068011 -0.32168892
-8.9455471 6.5063701 -0.34263077
-9.4147263 6.5061331 -0.35448363
-11.512774 6.4119892 -0.40818807
-12.339785 6.4874954 -0.43183386
-13.931699 6.4866877 -0.47602126
-15.89163 6.4856877 -0.53166562
-18.425108 6.5014138 -0.60521328
-23.748877 6.491281 -0.76261556
-26.216259 6.4900227 -0.83657336
-20.511484 -7.7367435 -0.67904145
-12.028643 -7.8447881 -0.44482657
-19.206524 -21.573866 -0.89471328
-18.290703 -21.571604 -0.87604755
-14.211103 -21.568071 -0.80006272
-13.476181 -21.568169 -0.78777027
-12.763085 -21.568262 -0.77629644
-10.736074 -21.564619 -0.74617475
-8.2488279 -21.561506 -0.71508121
-7.6573143 -21.5606 -0.70871419
-7.0759082 -21.559713 -0.70286727
-6.5036716 -21.55884 -0.69751781
-5.939785 -21.55798 -0.69265395
-5.3846192 -21.562151 -0.68840528
-4.2913866 -21.562904 -0.68101728
-3.7529297 -21.563276 -0.67796856
-3.2189257 -21.563643 -0.67534047
-2.1608496 -21.555401 -0.67103171
-1.6364844 -21.554516 -0.66957796
-1.1140722 -21.553637 -0.66852325
-0.59302735 -21.552761 -0.66785496
0.96833009 -21.552877 -0.66828018
1.4902246 -21.552849 -0.66920042
3.0688477 -21.552761 -0.67434371
3.6010547 -21.550224 -0.67677909
5.2264843 -21.546217 -0.68675596
5.7800779 -21.544855 -0.69095868
6.3408103 -21.543474 -0.69562465
7.4891796 -21.547018 -0.70659405
8.0766792 -21.545906 -0.71274412
16.314209 -21.537771 -0.83692259
17.113886 -21.495331 -0.85107774
17.947588 -21.458618 -0.86652905
18.832235 -21.442829 -0.8839941
19.878437 -21.561584 -0.90837657
27.098946 6.5149612 -0.86331868
22.308828 6.5167022 -0.71990311
17.473837 6.5096478 -0.57759678
16.261494 6.5090899 -0.54255795
15.187256 6.5085964 -0.51180905
14.070312 6.4361539 -0.47926244
11.867598 6.5051737 -0.41920507
10.61669 6.5045953 -0.38566947
8.953125 6.4200382 -0.34125558
8.2005568 6.5017438 -0.32416344
7.8057227 6.5015607 -0.31466803
7.0806055 6.5012236 -0.29775086
6.4280467 6.5009198 -0.28318444
5.8350391 6.5006428 -0.27057877
5.5575781 6.5005131 -0.26491219
5.2913475 6.5003886 -0.2596266
4.7888575 6.5001545 -0.25008544
4.5509372 6.5000405 -0.24578278
4.3209276 6.4999332 -0.2417639
4.0453515 6.4160161 -0.23494171
3.4723144 6.5076337 -0.2284748
3.0785155 6.5074468 -0.2229872
2.8883984 6.5073566 -0.220531
2.7023242 6.5072684 -0.21825363
2.5199609 6.5071807 -0.21614692
2.1650586 6.5070124 -0.21242057
1.9919628 6.5069304 -0.21078704
1.6531347 6.5067692 -0.20795067
1.4869336 6.5066886 -0.20674141
1.3225585 6.5066104 -0.20566444
1.1597949 6.5065327 -0.20471764
0.99842769 6.5064545 -0.2038977
0.83824217 6.5063772 -0.20320174
0.67906249 6.5063019 -0.20262831
0.52069336 6.5062237 -0.20217529
0.2055957 6.5060735 -0.20162688
-0.10852539 6.5059195 -0.20154953
-0.26567382 6.5058451 -0.20168716
-0.423125 6.5057669 -0.20194244
-1.0457519 6.4193463 -0.20146126
-1.2054297 6.4192691 -0.20231384
-1.5299121 6.4214382 -0.20447242
-1.7161425 6.5028057 -0.20832145
-1.8850976 6.5027237 -0.20971648
-2.5873144 6.502377 -0.21677062
-2.9582129 6.502193 -0.22127059
-3.3457422 6.5020013 -0.22650085
-3.7530174 6.5017986 -0.23253867
-3.9651463 6.5016937 -0.23588875
-4.1836133 6.5015826 -0.23947929
-4.4089646 6.5014701 -0.24332504
-4.6418066 6.5013528 -0.24744102
-4.8828125 6.5012336 -0.25184983
-5.1327047 6.5011086 -0.25657082
-5.3923044 6.500977 -0.26162431
-5.9442868 6.500701 -0.27285248
-6.4628806 6.4166522 -0.28210038
-6.7824998 6.4164896 -0.28920722
-7.5796094 6.507061 -0.30943084
-7.9602928 6.5068684 -0.31846708
-8.364131 6.5066657 -0.32824448
-8.7937794 6.5064483 -0.33884278
-9.2523727 6.5062151 -0.35035995
-9.7435446 6.5059662 -0.36290658
-10.841299 6.5054092 -0.39163169
-11.458779 6.5050955 -0.4081465
-11.942968 6.4039078 -0.41976792
-14.533086 6.4863796 -0.49297014
-15.528378 6.4858732 -0.52126724
-17.95706 6.5016522 -0.5915643
-21.079042 6.5000601 -0.68327039
-27.768154 6.4054389 -0.88273644
-20.49123 -21.571857 -0.92160535
-19.525372 -21.574654 -0.90132612
-18.596298 -21.572361 -0.88221812
-16.851963 -21.571791 -0.84791917
-14.464384 -21.56699 -0.80437875
-13.722343 -21.568136 -0.79183644
-13.00205 -21.56823 -0.78008986
-12.302442 -21.568323 -0.76912838
-10.956944 -21.56501 -0.74925697
-10.309365 -21.56386 -0.7403596
-3.4826367 -7.7604513 -0.26347786
-3.3003027 -7.8564157 -0.26395568
-7.8563085 -21.560905 -0.71081024
-6.1296973 -21.558271 -0.69424301
-5.5708299 -21.557419 -0.68968612
-5.0203123 -21.562403 -0.68576628
-4.4747267 -21.56278 -0.68214309
-3.9345899 -21.563152 -0.67895406
-3.3991504 -21.56352 -0.67618561
-2.3388281 -21.5557 -0.67161244
-1.8136621 -21.554813 -0.67002553
-1.2906739 -21.553936 -0.66883725
-0.24873047 -21.552179 -0.66763073
0.79203123 -21.552887 -0.66805631
1.8364258 -21.55283 -0.67002517
2.8894823 -21.552769 -0.67357731
4.49542 -21.548019 -0.68182874
6.1502147 -21.543945 -0.6939922
10.974648 -21.543442 -0.7489115
14.479316 -21.539898 -0.80393982
15.245996 -21.538942 -0.81742758
19.504169 -21.505407 -0.89927381
13.576572 -7.7807813 -0.48470587
28.108944 6.5154228 -0.89376938
24.98414 6.430202 -0.79911286
19.312948 6.4925761 -0.63112122
17.92042 6.5098529 -0.59057993
15.536855 6.5087576 -0.52178031
14.349131 6.4225259 -0.48695558
13.642783 6.5059915 -0.46818101
12.835254 6.5056195 -0.44572884
12.101211 6.50528 -0.42556763
11.430332 6.504971 -0.40737745
10.814111 6.5046868 -0.39089742
9.718564 6.50418 -0.36223197
9.1069431 6.4183731 -0.34510583
7.9367089 6.5016217 -0.31779823
7.5568652 6.5014443 -0.3087818
6.8574119 6.5011196 -0.29269278
6.5339551 6.5009685 -0.28550202
6.2258301 6.5008259 -0.27881491
5.650156 6.5005569 -0.26678565
5.3802342 6.5004301 -0.26137435
4.8712792 6.5001922 -0.25160882
4.3979101 6.49997 -0.24309318
3.6943555 6.4158502 -0.2293264
3.3399022 6.5075703 -0.22657126
2.9522557 6.5073881 -0.2213414
2.7648633 6.507298 -0.2190036
2.5812793 6.5072098 -0.21684058
2.4011817 6.5071259 -0.21484351
2.2242577 6.5070415 -0.21300681
1.709834 6.5067949 -0.20839173
1.5429688 6.5067158 -0.2071353
1.3779882 6.5066361 -0.20601378
1.2146972 6.5065594 -0.20502372
0.73282224 6.5063286 -0.20280921
0.57420897 6.5062504 -0.20231529
0.10164062 6.506022 -0.20154953
-0.055371091 6.5059466 -0.20153046
-1.0053027 6.5054827 -0.20390014
-1.474082 6.419136 -0.20400909
-1.8276855 6.5027509 -0.20922859
-2.34708 6.5024958 -0.21413459
-2.5260155 6.5024066 -0.21607773
-2.8943651 6.5022244 -0.22046058
-3.2788768 6.5020342 -0.22556183
-3.4781151 6.5019341 -0.228404
-3.8926756 6.5017276 -0.23472816
-4.3319044 6.5015092 -0.24199295
-4.5621386 6.5013943 -0.24601692
-4.800293 6.5012751 -0.25032347
-5.0471091 6.5011516 -0.2549372
-5.3033299 6.5010233 -0.2598764
-6.1376266 6.5006037 -0.27692711
-6.6725683 6.4165459 -0.28674361
-7.4556251 6.5071244 -0.30652839
-7.8290234 6.5069351 -0.3153308
-8.6453123 6.5065212 -0.33515936
-9.0937405 6.5062957 -0.34635305
-10.088457 6.5057917 -0.37183493
-10.643476 6.5055094 -0.38639176
-12.576797 6.4873772 -0.43834326
-13.357754 6.486979 -0.4599705
-15.179062 6.4860516 -0.5113014
-16.25248 6.4855032 -0.54202902
-17.238564 6.4012113 -0.56960589
-18.892879 6.5011749 -0.61889219
-20.484444 6.5003643 -0.66569406
-22.024639 6.408371 -0.7105329
-24.497383 6.4908991 -0.78500128
-20.546856 -7.9337301 -0.68224013
-11.986054 -7.9509716 -0.44553229
-18.906269 -21.573124 -0.88853806
-18.002745 -21.570892 -0.87028348
-16.303223 -21.570688 -0.83753383
-15.498593 -21.569069 -0.82270104
-14.721484 -21.567505 -0.80887556
-11.179639 -21.565405 -0.75242031
-10.526757 -21.564245 -0.7432977
-3.3621385 -7.8240585 -0.26378128
-8.6548824 -21.560921 -0.71965939
-8.0564747 -21.561211 -0.71296799
-7.4683299 -21.560314 -0.70676833
-6.3205271 -21.558561 -0.69589102
-5.2062988 -21.562275 -0.68709427
-4.6587205 -21.562651 -0.68332052
-4.116787 -21.563025 -0.67998534
-3.5798438 -21.563396 -0.67707336
-1.9910938 -21.555115 -0.67051756
-0.94553709 -21.553352 -0.66826427
0.095439449 -21.551601 -0.66757381
0.61583006 -21.5529 -0.66788131
2.183584 -21.552809 -0.6710211
2.7104785 -21.55278 -0.67286444
3.240576 -21.552752 -0.67511106
4.8554883 -21.547132 -0.68416554
5.4046874 -21.545778 -0.68806511
6.5237403 -21.543024 -0.69722563
7.0971971 -21.547764 -0.70272237
7.6779981 -21.546659 -0.7085225
10.754229 -21.543903 -0.74585539
12.084834 -21.541119 -0.76507556
12.778399 -21.542011 -0.77583665
13.491045 -21.541124 -0.78730541
14.983682 -21.539267 -0.81274194
15.768398 -21.539289 -0.82686126
16.579628 -21.537033 -0.84189671
18.221582 -21.444038 -0.87165517
23.74544 6.5173626 -0.762725
21.677948 6.5164127 -0.70116466
19.647148 6.426857 -0.64031476
18.38748 6.5100665 -0.60420132
17.065117 6.5094595 -0.56574827
13.934824 6.5061259 -0.47636449
13.099677 6.5057402 -0.45305288
12.342041 6.5053921 -0.43215439
11.65082 6.5050726 -0.41332915
11.016953 6.5047808 -0.39629623
10.43294 6.5045109 -0.38082549
9.8924999 6.5042605 -0.3667227
9.2668457 6.4184475 -0.34916756
8.8275976 6.4348979 -0.33837828
8.4816694 6.501873 -0.33103317
8.0703421 6.5016828 -0.32101211
7.6829686 6.501502 -0.31175613
7.3170896 6.5013347 -0.30318803
6.9706054 6.5011711 -0.29524842
6.0297165 6.5007343 -0.27464578
5.7440624 6.5005999 -0.26870352
5.2075391 6.5003495 -0.25799322
4.7110448 6.5001163 -0.24866195
4.1986814 6.4241877 -0.23772064
3.9757226 6.4159842 -0.23379867
3.7644725 6.4158831 -0.2304161
3.5846484 6.4617901 -0.22889267
3.4073534 6.5076017 -0.2275341
3.2096484 6.5075092 -0.22475617
3.0166113 6.5074177 -0.22217301
2.8278418 6.5073271 -0.21977562
2.642998 6.5072393 -0.21755409
2.4617381 6.5071549 -0.21550179
2.2837791 6.5070696 -0.21361068
2.1088085 6.5069866 -0.21187538
1.5991992 6.5067425 -0.20754501
1.4336133 6.5066628 -0.20637862
1.2697754 6.5065861 -0.20534423
1.1074902 6.5065079 -0.20443855
0.78667969 6.5063529 -0.20300323
0.62779295 6.5062761 -0.20246902
0.46963868 6.5061994 -0.20205474
0.31203124 6.5061235 -0.20175949
0.15479492 6.5060492 -0.20158362
-0.31653321 6.5058193 -0.20175682
-0.47413084 6.5057425 -0.20205048
-0.63228512 6.5056658 -0.20246299
-0.79116207 6.505589 -0.20299628
-0.95098633 6.5055108 -0.20365036
-1.2573438 6.4192438 -0.20261391
-1.4189941 6.4191632 -0.20363395
-1.5829492 6.4214115 -0.20485908
-1.9402148 6.5026946 -0.21019684
-2.8309863 6.5022564 -0.21966971
-3.0196288 6.5021625 -0.22206512
-3.4101367 6.5019693 -0.2274192
-3.6127734 6.5018682 -0.2303994
-3.8209081 6.5017633 -0.23359519
-4.035049 6.501657 -0.23702194
-4.2556834 6.5015469 -0.24069351
-4.4833884 6.5014334 -0.24462532
-5.478447 6.5009356 -0.26333502
-5.7522755 6.5007963 -0.26887709
-6.5644822 6.4166007 -0.2843402
-8.9386816 6.5063739 -0.34245941
-10.450879 6.5056071 -0.38131651
-11.035371 6.5053105 -0.39679581
-13.08499 6.4871173 -0.45238775
-13.918427 6.4866934 -0.4756484
-14.842802 6.4862237 -0.50174093
-18.40369 6.5014238 -0.60458565
-21.677149 6.4997549 -0.70099229
-29.147245 6.4845157 -0.92492157
-20.520674 -7.7316613 -0.67925507
-20.177547 -21.576262 -0.9150396
-19.220644 -21.5739 -0.89500308
-17.427616 -21.57295 -0.85903794
-16.582148 -21.571253 -0.84278423
-15.767656 -21.569611 -0.82760704
-14.222373 -21.568068 -0.80025315
-12.773721 -21.568262 -0.77646333
-11.404228 -21.565807 -0.75566083
-10.745898 -21.564636 -0.74631208
-10.103262 -21.563494 -0.73761618
-3.4239061 -7.7917414 -0.26362532
-8.2578611 -21.56152 -0.71518224
-7.0846386 -21.559727 -0.70295149
-6.5122657 -21.558855 -0.69759405
-5.3929882 -21.562145 -0.68846864
-4.8433204 -21.562525 -0.68454731
-4.2995701 -21.562901 -0.68106675
-3.2269824 -21.563637 -0.67537922
-2.1688085 -21.555412 -0.67105615
-1.1219825 -21.55365 -0.66853756
-0.60091794 -21.552773 -0.66786289
0.43960938 -21.551022 -0.66768932
1.4823047 -21.552849 -0.6691848
2.5318456 -21.55279 -0.67219681
3.0608008 -21.552761 -0.67430234
4.1295605 -21.54892 -0.6796307
4.6710448 -21.547588 -0.68294722
6.9027734 -21.548134 -0.70087308
9.275342 -21.543627 -0.72654313
10.535546 -21.544363 -0.74286556
12.540654 -21.540163 -0.77206844
13.247559 -21.541428 -0.78333181
14.724345 -21.539593 -0.80818838
15.499385 -21.538628 -0.82195389
19.861542 -21.559048 -0.90797913
27.142723 6.5149798 -0.86463696
24.529854 6.5177226 -0.7861855
18.876816 6.5102921 -0.61851257
16.278799 6.5090985 -0.54305518
15.202568 6.508604 -0.51224518
13.372969 6.5058661 -0.46065184
11.877871 6.5051785 -0.41948539
10.62539 6.5045986 -0.3858988
9.4305658 6.4185247 -0.35335982
8.9600286 6.4200397 -0.34143087
8.6267672 6.5019403 -0.33461326
8.2067089 6.5017462 -0.32431388
6.7510738 6.50107 -0.29031181
6.432744 6.5009222 -0.28328651
6.1292772 6.5007806 -0.27675268
5.2953024 6.5003901 -0.25970429
4.5544724 6.5000434 -0.24584587
4.3243556 6.4999347 -0.24182303
4.0486326 6.4160175 -0.2349968
3.2760057 6.5075397 -0.22567368
3.0814257 6.5074492 -0.22302581
2.8912499 6.507359 -0.22056617
2.7051172 6.5072699 -0.21828574
2.5226953 6.5071816 -0.21617821
2.3436522 6.5070977 -0.21423309
1.9945605 6.5069318 -0.2108091
1.8239746 6.5068498 -0.2093199
1.655664 6.5067692 -0.20797126
1.4894238 6.50669 -0.2067575
1.3250293 6.5066118 -0.20568016
1.1622363 6.5065336 -0.20473021
1.0008496 6.5064554 -0.20390907
0.84065425 6.5063787 -0.20321059
0.68145508 6.5063019 -0.20263611
0.52307618 6.5062261 -0.20218223
0.36530271 6.5061493 -0.20184639
0.20797852 6.5060735 -0.2016294
-0.42074218 6.5057697 -0.20193741
-0.57868165 6.5056915 -0.2023111
-0.73729491 6.5056143 -0.20280311
-1.3641113 6.4191914 -0.20327468
-1.5274316 6.4214382 -0.20445555
-1.7135937 6.5028081 -0.20830169
-2.4045606 6.5024676 -0.21474563
-2.5845604 6.502377 -0.21674064
-2.9553418 6.5021939 -0.22123474
-3.3427441 6.5020022 -0.22645752
-3.7498338 6.5017996 -0.23248871
-4.8790917 6.5012345 -0.25178093
-5.3883104 6.5009794 -0.26154646
-5.6583395 6.500844 -0.26695862
-5.9399414 6.5007024 -0.272762
-6.4581738 6.4166532 -0.28199577
-6.7775583 6.416492 -0.28909722
-7.2144527 6.5072455 -0.30094299
-7.9543748 6.5068717 -0.31832388
-8.3578415 6.5066681 -0.32809037
-8.7870703 6.5064521 -0.3386763
-9.2452145 6.5062175 -0.35017851
-9.7358589 6.505971 -0.36270881
-10.263251 6.5057025 -0.37639549
-10.832334 6.5054131 -0.39139563
-11.449062 6.5051007 -0.40788358
-11.932519 6.403913 -0.41947609
-13.627002 6.4868412 -0.46748447
-16.627655 6.4853129 -0.55283648
-17.936649 6.5016632 -0.59096771
-19.382294 6.5009255 -0.63324213
-19.539795 -21.57469 -0.9016251
-17.718525 -21.570192 -0.86466491
-15.244473 -21.56856 -0.81812268
-13.733378 -21.568134 -0.79201776
-13.012774 -21.568228 -0.78025901
-12.312861 -21.568319 -0.76928687
-11.631963 -21.568413 -0.75905651
-10.319033 -21.563877 -0.74048901
-8.4600191 -21.560574 -0.71743208
-7.8652244 -21.560921 -0.71090817
-7.2803416 -21.560026 -0.70487636
-6.7049608 -21.559151 -0.69935262
-6.1382227 -21.558283 -0.69431472
-5.0286131 -21.562395 -0.68582457
-3.9427147 -21.563147 -0.67899853
-3.4072168 -21.563513 -0.67622358
-2.8757715 -21.563879 -0.67386138
-2.346787 -21.555716 -0.67164135
-0.2565918 -21.552195 -0.66763294
5.0323243 -21.5467 -0.68537688
5.5835938 -21.54534 -0.68942213
6.141748 -21.543964 -0.69391072
7.283916 -21.547409 -0.70454299
9.0676756 -21.54402 -0.72401989
10.318623 -21.544813 -0.73994976
12.306494 -21.540653 -0.76844323
14.4679 -21.539911 -0.80373883
15.234189 -21.538958 -0.81718951
16.027479 -21.53857 -0.83161217
16.822569 -21.503395 -0.84568632
17.651581 -21.474369 -0.86104941
19.487617 -21.502922 -0.89890921
23.038515 6.5170388 -0.74162918
17.940859 6.5098624 -0.59117711
15.552871 6.5087652 -0.5222398
11.440087 6.5049763 -0.4076412
10.823047 6.5046916 -0.39113465
9.7262402 6.5041838 -0.36242789
8.7750196 6.5020084 -0.33829361
8.3459177 6.5018096 -0.32770568
7.9426169 6.5016241 -0.31793991
7.2030663 6.5012808 -0.30055624
6.8624215 6.5011225 -0.29280609
6.5387206 6.5009708 -0.28560677
6.2303805 6.5008283 -0.2789115
5.9359961 6.500689 -0.27267882
5.3842382 6.5004325 -0.26145348
4.87499 6.5001945 -0.25167838
4.4013767 6.4999714 -0.24315292
4.1275001 6.4241533 -0.23652077
3.9067578 6.4159503 -0.23267959
3.3429003 6.5075712 -0.22661278
3.1467578 6.5074787 -0.22389999
2.955127 6.5073895 -0.22137755
2.7676756 6.5072989 -0.21903816
2.2269139 6.5070429 -0.21303299
2.0528514 6.5069585 -0.21134621
1.8814257 6.5068779 -0.20980766
1.7123828 6.5067973 -0.20841163
1.5454785 6.5067167 -0.20715369
1.3804785 6.5066376 -0.20603073
1.217168 6.5065603 -0.20503768
1.0553223 6.5064826 -0.20417258
0.7352246 6.5063286 -0.20281638
0.57659179 6.5062518 -0.2023214
0.26117188 6.5061002 -0.20168938
-0.053007811 6.5059466 -0.20152892
-0.36743164 6.505795 -0.20183876
-0.52518553 6.5057182 -0.20217177
-1.002871 6.5054836 -0.20388885
-1.1488281 6.4192972 -0.20199768
-1.3094238 6.4192181 -0.20293006
-1.4716015 6.4191375 -0.20399185
-1.8251171 6.5027533 -0.20920692
-2.1685839 6.5025835 -0.21232414
-2.5232909 6.502409 -0.2160466
-2.8915234 6.5022259 -0.22042458
-3.6794336 6.5018353 -0.23140761
-4.7966309 6.5012774 -0.25025687
-5.0432911 6.5011539 -0.25486389
-5.2993555 6.5010247 -0.2597985
-5.5657029 6.5008917 -0.2650843
-5.8432713 6.5007524 -0.27075079
-6.1331248 6.500607 -0.2768316
-6.6677051 6.4165483 -0.28663421
-7.8232226 6.5069375 -0.31519186
-8.2185736 6.5067387 -0.32469741
-10.08039 6.505795 -0.37162742
-11.702382 6.4040313 -0.41320586
-12.565566 6.487381 -0.43803558
-13.345371 6.4869843 -0.45962557
-14.206562 6.486547 -0.4837535
-15.16375 6.4860601 -0.51086581
-17.219326 6.4012222 -0.56904596
17.045517 6.5090947 -0.97683454
14.654306 6.4223537 -0.85658717
13.087119 6.5054498 -0.78243232
12.330606 6.5051141 -0.74637425
11.640361 6.5048075 -0.71389014
11.007363 6.5045257 -0.68449962
10.424082 6.5042682 -0.65779859
9.8842964 6.5040264 -0.63345838
9.2593069 6.4182243 -0.60315853
7.3115039 6.5011392 -0.52379203
6.9653025 6.5009832 -0.51008534
6.6365719 6.500834 -0.49735826
6.3236718 6.5006938 -0.48552799
6.0251365 6.5005584 -0.47451651
5.7396774 6.5004292 -0.46425754
5.4661522 6.5003042 -0.4546929
5.2035055 6.500185 -0.44576728
4.4721484 6.4998503 -0.42239013
4.1952343 6.4240336 -0.41076124
3.7612402 6.4157367 -0.39815199
3.5834765 6.4652519 -0.3957428
3.0136523 6.5072761 -0.3839238
2.8249512 6.5071878 -0.37978584
2.640166 6.5071011 -0.37595108
2.4589746 6.5070181 -0.37240866
1.7641991 6.50669 -0.36092329
1.4311035 6.5065327 -0.35666403
1.2672851 6.5064545 -0.3548789
1.1050195 6.5063772 -0.35331663
0.94408202 6.5063004 -0.35197303
0.78426754 6.5062237 -0.35084221
0.62538087 6.5061469 -0.34992164
0.46724609 6.506072 -0.34921005
-0.004628906 6.5058441 -0.34830001
-0.31890625 6.5056901 -0.34870994
-0.47650391 6.5056143 -0.34922048
-0.79355466 6.5054593 -0.35086119
-0.95339841 6.5053802 -0.3519969
-1.0996094 6.4191937 -0.34866729
-1.4214355 6.419035 -0.35197806
-1.5854003 6.4212823 -0.35409743
-1.7730371 6.5026469 -0.36083868
-1.9427539 6.5025616 -0.36333022
-2.1149511 6.5024772 -0.36607185
-2.2898729 6.5023894 -0.36907065
-2.4677734 6.5023003 -0.37233856
-2.83375 6.5021157 -0.37972382
-3.0224512 6.5020218 -0.38386732
-3.2154393 6.5019245 -0.38833115
-3.4130859 6.5018229 -0.39313164
-4.2589645 6.5013943 -0.41609749
-5.4823532 6.5007672 -0.45527083
-5.7563477 6.5006256 -0.46485606
-6.042285 6.5004787 -0.47513679
-6.2693748 6.4265485 -0.48065126
-6.5690722 6.416419 -0.49161544
-7.7057614 6.5068011 -0.53994489
-8.5061913 6.5063834 -0.57333839
-11.04415 6.5050564 -0.68620968
-12.339257 6.4872246 -0.74633682
-14.856845 6.485899 -0.86787969
-15.89081 6.4853535 -0.91886616
-16.879238 6.4180608 -0.96677458
-19.943018 6.5002313 -1.1229674
-21.704481 6.4992986 -1.2129687
-26.21414 6.4894962 -1.4457901
-28.680489 6.3696246 -1.5728757
-28.80661 5.6718512 -1.5718274
-28.647861 -6.2824945 -1.5701669
-28.503447 -6.9758039 -1.571021
-28.169863 -8.3537436 -1.5730456
-27.980907 -9.0378304 -1.5742147
-20.473633 -7.7224774 -1.1714768
-20.1625 -21.575912 -1.5809653
-18.290449 -21.571302 -1.5141238
-17.414755 -21.573111 -1.4843103
-15.755713 -21.569765 -1.4300429
-14.969932 -21.56818 -1.4055784
-14.211826 -21.569164 -1.3828763
-12.763721 -21.569321 -1.3417904
-12.070674 -21.569401 -1.3232847
-10.093886 -21.563965 -1.2746856
-8.8511324 -21.561745 -1.2478235
-8.2491503 -21.562319 -1.2359768
-7.0761619 -21.560513 -1.2148614
-5.93999 -21.558769 -1.1971928
-4.8349609 -21.562086 -1.1830308
-3.7528515 -21.562836 -1.1717612
-2.6886914 -21.563572 -1.1633865
-1.6365331 -21.555105 -1.1573149
-0.59302735 -21.553347 -1.1543368
0.44749999 -21.551596 -1.1540539
0.96835935 -21.553402 -1.1550679
1.4902442 -21.553373 -1.1566579
2.539912 -21.553318 -1.1618817
3.0689158 -21.553291 -1.1655407
4.1377439 -21.549238 -1.1747547
4.6793361 -21.547905 -1.1804968
6.3409081 -21.543818 -1.2023119
6.9113669 -21.547913 -1.2114958
7.489121 -21.546814 -1.2212436
8.6747456 -21.544558 -1.243415
9.2845602 -21.543398 -1.2559304
10.545029 -21.543844 -1.2841439
11.19669 -21.542475 -1.2997929
4.2496486 -7.7154217 -0.47159883
12.550839 -21.539625 -1.3346571
13.258271 -21.541252 -1.3541837
14.735771 -21.539412 -1.3971902
15.511191 -21.538445 -1.4210179
16.313856 -21.537323 -1.4464827
17.94751 -21.458532 -1.4976742
18.832373 -21.442978 -1.5278751
19.879345 -21.562572 -1.5701073
22.307285 6.5162492 -1.244171
20.456728 6.5154324 -1.1493977
18.853271 6.5098929 -1.0678217
17.47286 6.5092826 -0.99824584
16.260645 6.5087481 -0.93769282
15.186494 6.5082731 -0.88455242
12.578671 6.5052238 -0.75814819
11.867109 6.504909 -0.72451371
10.616289 6.5043535 -0.66655427
9.4228611 6.4182987 -0.61038119
8.6199312 6.5017266 -0.57803744
7.43292 6.5011945 -0.52866989
6.7459569 6.5008841 -0.50156045
6.1246285 6.5006037 -0.47815585
5.8348827 6.5004716 -0.467648
5.5574412 6.5003471 -0.45785421
5.2912207 6.5002251 -0.44871894
4.3208299 6.4997821 -0.41784927
4.0452638 6.4158683 -0.40605912
3.8319921 6.4157696 -0.40008116
3.6248045 6.4156742 -0.39450499
3.4722362 6.5074883 -0.39488015
3.2729492 6.5073967 -0.3899675
2.8883398 6.5072174 -0.38115019
2.7022753 6.5071306 -0.37721449
2.3409081 6.5069623 -0.37021726
2.1650097 6.5068793 -0.36713326
1.991914 6.5067973 -0.36430883
1.6531054 6.5066376 -0.35940978
1.3225293 6.5064797 -0.3554576
1.1597656 6.506403 -0.35382026
0.9984082 6.5063272 -0.3524034
0.67905271 6.5061722 -0.3502101
0.52068359 6.5060978 -0.3494271
0.36291993 6.506021 -0.34885123
0.2055957 6.5059452 -0.34848014
0.048505858 6.5058694 -0.34831145
-0.26566407 6.5057168 -0.34858459
-0.423125 6.5056391 -0.34902588
-0.58106446 6.5055633 -0.34967154
-0.73969728 6.5054851 -0.35052529
-0.89919919 6.5054069 -0.35158896
-1.0457226 6.4192204 -0.34819412
-1.2054101 6.4191413 -0.34966606
-1.7161132 6.502676 -0.36005065
-2.4072168 6.5023308 -0.37120247
-2.5872655 6.5022392 -0.37465316
-2.9581444 6.5020537 -0.38243026
-3.3456738 6.5018582 -0.39146888
-3.5466211 6.5017571 -0.39650139
-3.7529297 6.5016508 -0.40190277
-3.9650586 6.5015445 -0.4076944
-4.1835055 6.5014324 -0.41389921
-4.4088669 6.5013165 -0.42054543
-4.6416993 6.5011978 -0.42766082
-4.8826952 6.5010748 -0.43527985
-5.1325779 6.500948 -0.44343674
-5.6623535 6.5006742 -0.46153834
-5.9441209 6.5005302 -0.47157821
-6.2386131 6.5003777 -0.48235202
-6.7823048 6.4163079 -0.49984092
-7.2195215 6.5070524 -0.52033532
-7.5793848 6.5068669 -0.53479642
-9.2520704 6.5059953 -0.60553187
-11.942471 6.4036455 -0.72547054
-12.832168 6.4869657 -0.76978707
-14.532402 6.4860697 -0.85199571
-17.956045 6.5012798 -1.0223807
-28.634209 6.6051874 -1.5732473
-28.881826 5.2090764 -1.5711911
-28.693407 -6.0473046 -1.5699013
-28.399668 -7.4329777 -1.5716441
-28.230507 -8.1214743 -1.5726733
-27.847713 -9.4884815 -1.5750463
-20.495117 -21.575953 -1.5931799
-19.525087 -21.574345 -1.5578071
-14.464492 -21.56716 -1.3902786
-13.723027 -21.569218 -1.3686534
-13.002705 -21.569296 -1.3483499
-12.303037 -21.569372 -1.3294036
-11.622382 -21.56945 -1.3117502
-10.309609 -21.564348 -1.2796413
-3.4777343 -7.7495093 -0.45474699
-8.4511423 -21.561031 -1.2398171
-6.6965723 -21.559929 -1.2086476
-5.5710449 -21.558203 -1.1920768
-5.020205 -21.561958 -1.1852363
-4.4746485 -21.562336 -1.1789756
-3.9345117 -21.56271 -1.1734605
-3.3990819 -21.56308 -1.1686752
-1.2907031 -21.554523 -1.1560277
1.3134863 -21.553383 -1.1560403
2.3616016 -21.553326 -1.1608032
3.9556444 -21.549685 -1.1729784
4.4954786 -21.548357 -1.1784704
7.8766599 -21.546076 -1.2281722
10.328027 -21.544302 -1.279102
12.316611 -21.540119 -1.3283997
13.017099 -21.541555 -1.347477
14.479198 -21.53973 -1.3894932
15.245878 -21.538774 -1.4127394
16.83498 -21.503077 -1.462055
18.524405 -21.44301 -1.517046
19.505068 -21.506384 -1.5543714
28.106514 6.5148602 -1.5446281
24.982187 6.4296966 -1.3810568
19.309727 6.4914956 -1.0906333
16.654053 6.5089211 -0.95728225
13.642158 6.5056963 -0.80915475
12.100713 6.5050116 -0.73550719
10.813701 6.5044403 -0.67559093
8.3393745 6.5016007 -0.5661146
7.9364743 6.5014215 -0.5492565
7.5566406 6.5012503 -0.53367585
7.1975684 6.5010881 -0.51924837
5.9314942 6.5005169 -0.47112092
5.6500096 6.5003886 -0.46109208
5.3801074 6.5002651 -0.45174041
5.1207809 6.5001469 -0.44301102
4.8711619 6.5000334 -0.4348644
4.3978124 6.4998159 -0.42014611
4.1240821 6.4240017 -0.40869176
3.9034569 6.4158025 -0.40205756
3.6942577 6.4157062 -0.3963494
3.5408299 6.5075202 -0.39662382
3.3398242 6.5074258 -0.39158973
3.14375 6.5073371 -0.38690528
2.7648144 6.5071597 -0.37851241
2.2242186 6.506907 -0.36814764
2.0501952 6.506824 -0.3652356
1.8788183 6.5067449 -0.36257988
1.7098047 6.5066657 -0.36017051
1.377959 6.5065069 -0.35606208
0.89230466 6.5062761 -0.35158339
0.5741992 6.5061221 -0.34967002
-0.055380858 6.5058193 -0.34831175
-0.21246094 6.505744 -0.3484816
-0.36980468 6.5056658 -0.34885299
-0.52755857 6.505589 -0.34943023
-0.68592775 6.5055108 -0.35021338
-0.84511715 6.5054326 -0.35120535
-1.0052832 6.5053558 -0.35240889
-1.3118359 6.4190874 -0.35075867
-1.6386523 6.4212551 -0.35479096
-1.8276367 6.5026202 -0.36161688
-2.8942969 6.5020866 -0.38102973
-3.0843554 6.5019889 -0.38527456
-3.2788086 6.5018911 -0.38984588
-3.4780371 6.501791 -0.39475828
-3.8925977 6.5015812 -0.4056887
-4.1088476 6.5014701 -0.41175109
-4.3318067 6.5013566 -0.41824615
-4.8001757 6.5011187 -0.43264273
-6.3651657 6.4237089 -0.48414275
-7.1020994 6.5071149 -0.51568598
-7.4554 6.5069318 -0.52977991
-7.8287888 6.5067363 -0.54499257
-8.224472 6.5065298 -0.5614391
-8.6450195 6.5063114 -0.57925862
-9.5731153 6.505827 -0.61966437
-10.088096 6.5055571 -0.64264756
-10.643076 6.5052667 -0.66780442
-11.243652 6.5049505 -0.69543046
-13.357158 6.48669 -0.79496682
-14.219628 6.4862347 -0.83673179
-15.17831 6.4857306 -0.88367581
-16.251631 6.4851642 -0.93677747
-17.237617 6.4008551 -0.98442447
-18.891768 6.5007868 -1.0696096
-22.023096 6.4079251 -1.2279512
-28.7229 6.1443057 -1.5725253
-28.844189 5.4458561 -1.5715106
-28.950361 4.7454424 -1.5706018
-28.453514 -7.1993217 -1.5713201
-28.289354 -7.8888583 -1.5723137
-27.916611 -9.2581778 -1.5746156
-20.560595 -7.9390421 -1.1799608
-19.848759 -21.575138 -1.5695152
-18.002489 -21.570593 -1.5041602
-17.138075 -21.572554 -1.4750268
-15.498711 -21.569244 -1.4219469
-14.721611 -21.56768 -1.3980169
-12.537587 -21.569347 -1.3356674
-10.527012 -21.564739 -1.2847238
-8.6550589 -21.561396 -1.2438632
-8.056777 -21.562023 -1.2323164
-7.4686031 -21.561115 -1.221608
-6.3207712 -21.559353 -1.2028015
-5.7593555 -21.558491 -1.1946511
-4.6586227 -21.562208 -1.1810099
-3.5797753 -21.562956 -1.1702111
-2.5180175 -21.563688 -1.1623015
-1.9911327 -21.555702 -1.1589388
-1.4674706 -21.554819 -1.1566517
-0.94555664 -21.55394 -1.1550407
