# .PCD v0.7 - Point Cloud Data file format
VERSION 0.7
FIELDS x y z
SIZE 4 4 4
TYPE F F F
COUNT 1 1 1
WIDTH 1497
HEIGHT 1
VIEWPOINT 0 0 0 1 0 0 0
POINTS 1497
DATA ascii
-4.8913865 -0.1021228 -1.8907008
-4.8875194 -0.22009338 -1.8907007
-4.8808203 -0.33794066 -1.8907207
-4.8591113 -0.57299924 -1.8908199
-4.8440723 -0.69008297 -1.8908993
-4.8262596 -0.80678344 -1.8909982
-4.8056931 -0.92303771 -1.8911169
-4.7563281 -1.153941 -1.8914127
-4.7275486 -1.2684631 -1.8915899
-4.6960449 -1.3822888 -1.8917865
-4.6618848 -1.4953418 -1.8920022
-4.5855079 -1.7189044 -1.8924911
-4.4512501 -2.0469568 -1.8933654
-4.1765819 -2.57022 -1.8951887
-4.1142869 -2.670814 -1.8956065
-3.7676268 -3.1504047 -1.8979496
-3.6915331 -3.2412655 -1.8984674
-3.613291 -3.3303113 -1.8990006
-3.5329394 -3.4174945 -1.8995492
-3.2795215 -3.6673846 -1.9012855
-3.1911328 -3.7466304 -1.901893
-3.0086815 -3.8987656 -1.9031494
-2.9147363 -3.9715633 -1.9037979
-2.8190722 -4.0421238 -1.9044589
-2.7216992 -4.1104093 -1.9051323
-2.2113671 -4.4162645 -1.9086746
-1.5549121 -4.7003293 -1.9132568
-1.4416602 -4.7384338 -1.9140496
-1.3274902 -4.7738295 -1.9148498
-1.2124609 -4.8064899 -1.9156567
-0.86280274 -4.8878465 -1.9181137
-0.74497068 -4.9093609 -1.9189428
-0.50774413 -4.943882 -1.9206146
-0.38849607 -4.9568634 -1.9214557
-0.26890624 -4.9669757 -1.9223002
0.21129882 -4.9785604 -1.9256976
0.33148438 -4.9742146 -1.9265497
0.45159179 -4.9669695 -1.9274017
0.5715332 -4.9568176 -1.9282533
0.69125974 -4.943769 -1.929104
0.81065428 -4.927824 -1.9299531
0.92971677 -4.9089875 -1.9308004
1.2839649 -4.835217 -1.9333258
1.5169727 -4.7717657 -1.9349905
1.632373 -4.7358012 -1.9358157
1.9730371 -4.6111665 -1.9382567
2.0845604 -4.5641136 -1.9390575
2.1949706 -4.5143428 -1.9398507
2.4120996 -4.4067626 -1.9414129
2.5187011 -4.3490114 -1.942181
2.6239061 -4.28866 -1.94294
2.7276464 -4.2257419 -1.9436892
3.0295019 -4.0219469 -1.9458736
3.222285 -3.8739243 -1.9472733
3.4077442 -3.7165685 -1.9486228
3.4975879 -3.6344993 -1.9492782
3.7548828 -3.3753133 -1.95116
3.992744 -3.0977101 -1.9529086
4.2097168 -2.8031752 -1.9545133
4.2772264 -2.7014956 -1.9550149
4.4046969 -2.4932501 -1.9559659
4.6284275 -2.059011 -1.9576507
4.6653318 1.9819146 -1.9588504
4.4493942 2.4204552 -1.9574233
4.3888183 2.5265672 -1.957019
4.2599607 2.7341082 -1.9561551
4.1211619 2.934989 -1.9552188
4.0481248 3.0327868 -1.9547244
3.8950489 3.2227964 -1.9536847
3.8151073 3.3149004 -1.9531403
3.4737988 3.6626935 -1.9508041
3.3833399 3.7442338 -1.9501828
3.290957 3.8235197 -1.9495471
3.1966894 3.9004998 -1.9488974
3.100625 3.9751275 -1.9482346
3.0027831 4.0473599 -1.9475585
2.9032519 4.1171675 -1.9468701
2.5950294 4.311595 -1.9447329
2.489326 4.3712931 -1.9439983
2.273828 4.4828129 -1.9424984
2.1455665 4.4955878 -1.925037
2.0153711 4.4988885 -1.905072
1.8877147 4.5019317 -1.8865243
1.7623438 4.5047369 -1.8693335
1.6391113 4.5073028 -1.8534455
1.3983105 4.5117621 -1.8253872
1.2804004 4.5136762 -1.8131326
1.0494629 4.5196161 -1.7930735
0.93643552 4.5256939 -1.7859994
0.82412106 4.5312881 -1.7798413
0.6040625 4.5617852 -1.7782904
0.49361327 4.5730243 -1.777511
0.27224609 4.5874701 -1.7759467
0.16141601 4.5906792 -1.7751629
-0.17075194 4.5842414 -1.7728094
-0.39130858 4.5666327 -1.7712436
-0.7201367 4.5259647 -1.7710843
-1.2884179 4.5061369 -1.8111825
-1.4060448 4.5035396 -1.8232452
-1.6462207 4.4976716 -1.8508974
-1.7691113 4.4943914 -1.8665717
-1.8940624 4.4908586 -1.8835381
-2.021328 4.4870734 -1.9018556
-2.2455566 4.4042377 -1.9104809
-2.3502049 4.3470659 -1.9097269
-2.6553612 4.1609187 -1.9075228
-2.7539258 4.0941205 -1.9068093
-2.8508301 4.0250101 -1.9061072
-3.0394726 3.8800273 -1.9047378
-3.22083 3.72632 -1.9034182
-3.3945606 3.5642536 -1.9021504
-3.5602636 3.3942046 -1.9009376
-3.7175877 3.2165697 -1.8997825
-3.7929981 3.125042 -1.8992273
-3.8661816 3.0317657 -1.8986876
-4.0057225 2.8402123 -1.897655
-4.1359372 2.642345 -1.8966872
-4.2565527 2.4386175 -1.8957858
-4.3131833 2.3346961 -1.8953607
-4.3673048 2.2294872 -1.894953
-4.4188962 2.1230445 -1.894563
-4.5144334 1.9066974 -1.8938364
-4.5583105 1.7969183 -1.8935
-4.5995703 1.6861486 -1.8931823
-4.638164 1.5744488 -1.8928831
-4.6741014 1.4618859 -1.8926024
-4.7073536 1.3485162 -1.8923407
-4.7379103 1.2344006 -1.8920978
-4.7657518 1.1196105 -1.8918741
-4.8132129 0.888255 -1.8914844
-4.8328223 0.77181578 -1.8913183
-4.849668 0.65494812 -1.8911719
-4.8637109 0.53772885 -1.8910452
-4.8891892 0.18457215 -1.8907828
-4.8920994 0.066571653 -1.890735
-4.8840427 -0.28738096 -1.8907098
-4.8757615 -0.40512815 -1.8907409
-4.864707 -0.52264524 -1.890792
-4.8342481 -0.75674438 -1.8909533
-4.8148532 -0.87319946 -1.8910637
-4.7927246 -0.9891687 -1.8911934
-4.7678418 -1.1045855 -1.8913428
-4.7402148 -1.2193921 -1.8915117
-4.7099023 -1.3335217 -1.8916998
-4.6028123 -1.6712328 -1.8923798
-4.5617676 -1.7820318 -1.8926446
-4.5181251 -1.8918447 -1.892928
-4.4230857 -2.1082647 -1.8935506
-4.3717089 -2.2147491 -1.8938898
-4.0776463 -2.7275717 -1.8958526
-4.0116014 -2.8258078 -1.8962976
-3.9432225 -2.922471 -1.8967593
-3.8725488 -3.0175107 -1.8972375
-3.799619 -3.1108663 -1.8977324
-3.7244725 -3.2024884 -1.8982431
-3.4861035 -3.4664066 -1.8998694
-3.4025097 -3.5505636 -1.9004419
-3.2292967 -3.712872 -1.9016305
-3.0484374 -3.8668432 -1.9028753
-2.8603613 -4.0121145 -1.9041733
-2.763711 -4.0813804 -1.9048415
-2.6653807 -4.1483479 -1.9055222
-2.4639745 -4.2752137 -1.9069189
-2.360996 -4.3350315 -1.9076339
-2.1508203 -4.4472795 -1.9090961
-2.0437109 -4.4996319 -1.9098424
-1.9353222 -4.5494232 -1.9105982
-1.8257519 -4.5966258 -1.9113631
-1.2619238 -4.79281 -1.9153097
-1.0301758 -4.8522186 -1.9169369
-0.91320312 -4.8777509 -1.9177591
-0.43971679 -4.9516435 -1.9210943
-0.32027343 -4.9629889 -1.9219375
-0.2005371 -4.9714575 -1.9227831
0.039492186 -4.9797363 -1.9244808
0.15970702 -4.9795365 -1.925332
0.4000586 -4.9704347 -1.927036
0.63989258 -4.9497228 -1.9287388
0.99748045 -4.8969426 -1.9312831
1.1158105 -4.8735814 -1.9321262
1.2335839 -4.847352 -1.9329662
1.3507519 -4.8182683 -1.9338027
1.4672265 -4.7863374 -1.9346347
1.5829492 -4.7515831 -1.9354624
1.6978124 -4.7140164 -1.9362843
1.8118261 -4.673656 -1.9371008
1.9248534 -4.6305242 -1.937911
2.3659277 -4.4307446 -1.9410806
2.9872167 -4.052464 -1.9455673
3.2759764 -3.8299489 -1.9476635
3.3685741 -3.7511024 -1.9483373
3.5479686 -3.5866671 -1.949646
3.6346483 -3.5011754 -1.9502795
3.8819432 -3.2321606 -1.9520929
3.9599316 -3.1385002 -1.9526669
4.0356736 -3.0429268 -1.9532254
4.1090236 -2.945508 -1.9537672
4.1799903 -2.8462939 -1.9542929
4.2485547 -2.7453454 -1.9548018
4.3146091 -2.6427145 -1.9552932
4.3782029 -2.53847 -1.9557678
4.6064649 -2.1066523 -1.9574842
4.5856543 2.1566741 -1.9583269
4.5314746 2.2662554 -1.9579687
4.4746289 2.3744574 -1.9575915
4.4151368 2.4812071 -1.957195
4.1517482 2.8924658 -1.9554256
4.0797458 2.9910338 -1.9549387
3.9286621 3.1826599 -1.9539136
3.8496971 3.2756085 -1.9533758
3.768496 3.3665752 -1.9528221
3.6851072 3.4554937 -1.9522521
3.5995898 3.5423272 -1.9516668
3.4224119 3.7095075 -1.9504513
3.2373729 3.8677435 -1.9491779
3.1420801 3.9433868 -1.9485208
3.0449803 4.0166535 -1.9478503
2.8456738 4.1559014 -1.9464716
2.7436132 4.221807 -1.9457641
2.5349023 4.3459868 -1.9443152
2.4283886 4.4041972 -1.9435744
2.3205175 4.4597735 -1.9428236
2.0709472 4.4975019 -1.9134649
1.8158886 4.5035625 -1.87655
1.6917578 4.5062284 -1.8601077
1.5696582 4.5086675 -1.8449419
1.4493945 4.5108805 -1.831004
1.3308301 4.5128803 -1.8182507
1.2137792 4.5146747 -1.8066461
1.0982324 4.5167646 -1.7963564
0.87225586 4.5288105 -1.7823193
0.43050781 4.5782413 -1.7770653
0.098173827 4.5913053 -1.7747151
-0.012617188 4.5903044 -1.7739307
-0.56367189 4.5453801 -1.7700182
-0.8955664 4.5162153 -1.7792764
-1.0083301 4.5115714 -1.7865134
-1.4738867 4.5019574 -1.8306493
-1.5940918 4.4990115 -1.8445547
-1.8401757 4.4924054 -1.8760946
-2.3054979 4.3719087 -1.9100491
-2.6125391 4.1888752 -1.9078326
-2.7118065 4.1230779 -1.9071143
-2.9054003 3.984544 -1.9057117
-2.9995799 3.9118888 -1.9050277
-3.0920019 3.8370366 -1.904356
-3.2712305 3.6809027 -1.9030508
-3.4426951 3.5165191 -1.9017985
-3.52542 3.4313519 -1.9011931
-3.684541 3.2553124 -1.9000256
-3.8350389 3.0720105 -1.8989172
-3.9069335 2.9777691 -1.8983865
-3.9765527 2.8818653 -1.897871
-4.0438671 2.7843659 -1.8973719
-4.1713572 2.5847809 -1.8964229
-4.3443751 2.2747967 -1.8951259
-4.3970799 2.1688733 -1.8947281
-4.5398045 1.8441614 -1.8936421
-4.6590137 1.510296 -1.8927206
-4.7541308 1.1689594 -1.8919678
-4.8247557 0.82184815 -1.8913873
-4.8427634 0.70515317 -1.8912326
-4.8580174 0.58808106 -1.8910974
-4.8801756 0.35303649 -1.8908858
-4.8870993 0.23519531 -1.8908094
-4.8911915 0.11722839 -1.8907531
-4.8867188 -0.23679015 -1.8907025
-4.8235254 -0.82327271 -1.8910137
-4.7524023 -1.170194 -1.8914367
-4.6913867 -1.3983399 -1.8918159
-4.656826 -1.5112854 -1.8920344
-4.6195898 -1.6233875 -1.892272
-4.5371776 -1.8448375 -1.892804
-4.4920506 -1.9540585 -1.8930981
-4.4443455 -2.0621951 -1.8934108
-4.3940721 -2.1691904 -1.893742
-4.1679196 -2.5845461 -1.8952469
-4.0402246 -2.783833 -1.8961047
-3.9728515 -2.8811779 -1.8965591
-3.9031639 -2.9769244 -1.8970302
-3.6805956 -3.2539818 -1.8985418
-3.602041 -3.3427646 -1.8990774
-3.438623 -3.5146866 -1.9001945
-3.3538866 -3.5977178 -1.9007753
-3.2671192 -3.6787295 -1.9013706
-3.1784472 -3.7576811 -1.9019803
-2.9012988 -3.9816883 -1.9038906
-2.8053906 -4.0519333 -1.9045532
-2.5077343 -4.2487922 -1.9066153
-2.1963964 -4.4240298 -1.9087789
-1.9820117 -4.5283656 -1.9102726
-1.7626855 -4.6223969 -1.9118037
-1.6513379 -4.6654754 -1.912582
-1.31125 -4.7786207 -1.9149636
-0.96347654 -4.8671341 -1.9174055
-0.84616208 -4.8910656 -1.9182305
-0.60977536 -4.93046 -1.9198953
-0.49086913 -4.9458966 -1.9207336
-0.37158203 -4.9584708 -1.9215753
-0.012050781 -4.9789371 -1.924116
0.46858397 -4.9657073 -1.9275222
0.70817381 -4.9416852 -1.9292243
0.82755858 -4.925333 -1.9300731
0.94655269 -4.9060874 -1.9309204
1.3005469 -4.8311 -1.9334441
1.4173242 -4.8003893 -1.9342782
1.762998 -4.691318 -1.936751
1.8764648 -4.649375 -1.937564
1.9888965 -4.604672 -1.9383706
2.5336816 -4.3406248 -1.9422891
2.6386719 -4.2799082 -1.9430467
2.7422168 -4.21663 -1.9437945
2.844209 -4.1508255 -1.9445319
2.9446094 -4.082531 -1.9452587
3.0433691 -4.0117831 -1.9459743
3.1404004 -3.9386232 -1.9466784
3.329082 -3.7852297 -1.9480499
3.4205859 -3.7050886 -1.9487165
3.5101464 -3.6227074 -1.9493698
3.5976758 -3.5381365 -1.9500092
3.7665625 -3.3626077 -1.9512457
3.8477635 -3.2717695 -1.9518417
3.926748 -3.1789398 -1.9524225
4.0034275 -3.0841815 -1.9529873
4.2194138 -2.7888832 -1.9545852
4.3512301 -2.5834093 -1.9555664
4.4728613 -2.3716261 -1.9564767
4.5297556 -2.2635281 -1.9569045
4.6080956 2.1092272 -1.9584749
4.5550685 2.2193823 -1.958125
4.4993458 2.3281915 -1.9577557
4.4409962 2.4355736 -1.9573675
4.3800292 2.5414672 -1.9569604
4.3165135 2.6458166 -1.9565349
4.2504687 2.7485535 -1.9560912
4.1109471 2.9489458 -1.9551498
3.9618847 3.1421716 -1.9541392
3.8838866 3.2359538 -1.9536086
3.7211523 3.4175787 -1.9524988
3.6365526 3.5053105 -1.9519202
3.183203 3.9112091 -1.9488043
3.086875 3.9854999 -1.9481395
2.9887793 4.0573916 -1.9474618
2.7876172 4.1938286 -1.9460691
2.6846483 4.2582903 -1.9453551
2.3669727 4.4362421 -1.9431471
2.1269922 4.4960685 -1.9221216
1.5008007 4.5099554 -1.8368391
1.3815234 4.5120454 -1.8235824
1.263828 4.5139275 -1.8114898
1.1475781 4.515605 -1.8005242
0.92064452 4.5264912 -1.7850641
0.58844727 4.5635419 -1.7781802
0.4779785 4.5744014 -1.7774005
0.14573242 4.5909123 -1.7750518
0.034921873 4.5910625 -1.7742672
-0.40690428 4.5649848 -1.7711328
-0.5166797 4.5518317 -1.7703527
-0.62606442 4.5360489 -1.7695745
-0.95958984 4.5124063 -1.7828143
-1.0734961 4.5104032 -1.7917356
-1.1885742 4.5081964 -1.8017286
-1.3049706 4.505784 -1.812821
-1.5422851 4.5003033 -1.8384389
-1.7866699 4.4939055 -1.8688928
-1.9119335 4.4903388 -1.8860482
-2.0395312 4.4865141 -1.9045604
-2.2604687 4.3962994 -1.9103734
-2.3649218 4.3387713 -1.9096206
-2.4679101 4.2787886 -1.9088775
-2.6694043 4.1516032 -1.9074212
-2.864414 4.0150433 -1.9060088
-3.0525486 3.8694293 -1.9046429
-3.1439257 3.7933404 -1.9039782
-3.233418 3.7151201 -1.9033264
-3.4065721 3.5524786 -1.9020627
-3.4901464 3.4681463 -1.9014513
-3.5716698 3.3818829 -1.9008541
-3.651123 3.2937169 -1.9002709
-3.7283983 3.2037175 -1.8997029
-3.8763671 3.0184221 -1.8986124
-3.9469531 2.9232292 -1.8980905
-4.015254 2.8264086 -1.8975842
-4.0812106 2.728018 -1.8970944
-4.3210058 2.319881 -1.8953018
-4.3747754 2.2144916 -1.8948966
-4.4259958 2.1078789 -1.8945092
-4.4746971 2.0000958 -1.8941394
-4.5208106 1.8912152 -1.8937875
-4.5643163 1.7812915 -1.893454
-4.6051855 1.6703857 -1.8931389
-4.6434083 1.5585607 -1.8928424
-4.6789942 1.4458801 -1.8925642
-4.7941699 0.98782712 -1.8916422
-4.8353806 0.7552954 -1.8912965
-4.8763766 0.40355408 -1.8909245
-4.8844724 0.28578919 -1.8908398
-4.8897657 0.16786803 -1.890775
-4.888916 -0.1861731 -1.8906987
-4.8629003 -0.53925782 -1.8908008
-4.8486719 -0.65643859 -1.8908746
-4.6358981 -1.5753778 -1.8921676
-4.415957 -2.1234107 -1.8935977
-4.3642187 -2.2297256 -1.8939391
-4.3099999 -2.3348022 -1.8942988
-4.1940722 -2.541019 -1.8950716
-3.8623533 -3.0308297 -1.8973068
-3.7891209 -3.1239433 -1.8978037
-3.5562596 -3.3926058 -1.8993901
-3.3046191 -3.644202 -1.9011133
-3.0353711 -3.8774159 -1.9029655
-2.9419529 -3.9508514 -1.9036099
-2.8467577 -4.0220585 -1.9042672
-2.7498631 -4.0910077 -1.9049374
-2.5511816 -4.2219276 -1.9063138
-2.4494922 -4.2838278 -1.9070193
-2.3463182 -4.3433027 -1.9077362
-2.0284374 -4.5068336 -1.9099487
-1.9198828 -4.5562644 -1.9107059
-1.8101367 -4.6030993 -1.9114721
-1.6992577 -4.6473107 -1.9122469
-1.5873047 -4.6888709 -1.9130299
-1.4743261 -4.7277527 -1.9138211
-1.3604101 -4.7639275 -1.9146191
-1.2456152 -4.7973766 -1.9154241
-1.1300098 -4.8280754 -1.9162356
-0.778916 -4.9034638 -1.9187039
-0.54196286 -4.93962 -1.9203732
-0.30334961 -4.9643602 -1.9220568
-0.18355468 -4.9724259 -1.9229034
0.056533203 -4.9798841 -1.9246014
0.17672852 -4.9792762 -1.9254527
0.29692382 -4.9757633 -1.9263046
0.65685546 -4.9478192 -1.9288595
0.77635741 -4.9327054 -1.9297091
0.89551759 -4.9147024 -1.9305573
1.0142676 -4.8938107 -1.9314026
1.1325293 -4.8700418 -1.9322455
1.2502148 -4.8434081 -1.933085
1.4836621 -4.7815876 -1.9347521
1.5992676 -4.7464337 -1.9355788
1.7140234 -4.7084703 -1.9364004
1.9407519 -4.6241956 -1.9380251
2.272871 -4.4772487 -1.9404107
2.3811717 -4.4228892 -1.9411902
2.4881639 -4.3658934 -1.9419612
2.5937793 -4.3062868 -1.9427227
2.9017382 -4.112143 -1.9449482
3.0012012 -4.0424433 -1.9456687
3.1950097 -3.8957956 -1.947075
3.2892089 -3.8189282 -1.9477599
3.4719532 -3.6583364 -1.949091
3.5603611 -3.5746961 -1.9497365
3.6467481 -3.4888992 -1.950368
3.893115 -3.2190239 -1.9521749
4.1192188 -2.9315648 -1.9538428
4.3237696 -2.6280541 -1.9553616
4.4476171 -2.4175866 -1.9562871
4.5610352 -2.2012084 -1.9571406
4.6300292 2.0615528 -1.958619
4.5781641 2.1722679 -1.9582776
4.5235934 2.2816577 -1.9579165
4.2791209 2.7046525 -1.9562838
4.2116404 2.8064411 -1.9558297
4.1417089 2.9065325 -1.9553577
3.9946678 3.1013341 -1.9543618
3.8383398 3.2886119 -1.9532986
3.7567968 3.3792901 -1.9527422
3.6731346 3.4679167 -1.9521704
3.3177342 3.8009465 -1.9497313
3.1284473 3.9538994 -1.9484266
3.0310936 4.0268326 -1.9477543
2.6251855 4.2939458 -1.9449422
2.4131737 4.4122257 -1.9434686
2.1835351 4.4945865 -1.9310522
1.9241894 4.5010843 -1.8917177
1.5525292 4.5089936 -1.8428947
1.1973144 4.5149102 -1.8050944
0.74589843 4.5433769 -1.7792903
0.30410156 4.5860515 -1.7761722
0.082480468 4.5913239 -1.7746042
-0.028300781 4.5899467 -1.7738194
-0.24943359 4.5791888 -1.7722512
-0.35965818 4.5698209 -1.7714685
-0.5791406 4.5431437 -1.7699084
-0.91140622 4.5152421 -1.7801088
-1.2548437 4.5068436 -1.8079226
-1.4908105 4.5015545 -1.8325454
-1.6112499 4.4985733 -1.8466222
-1.7335546 4.4953594 -1.8619326
-2.2152147 4.4202213 -1.9106996
-2.4238868 4.3048382 -1.9091952
-2.6266992 4.1797013 -1.9077301
-2.7257323 4.1135712 -1.9070135
-2.9188378 3.9743888 -1.905614
-3.1049316 3.8262603 -1.9042621
-3.1952147 3.7489483 -1.9036047
-3.283623 3.6695354 -1.9029603
-3.6954784 3.2425733 -1.899945
-3.7715137 3.1515515 -1.8993857
-3.9169238 2.9642925 -1.8983127
-4.0531931 2.770432 -1.8973029
-4.2398143 2.4682567 -1.8959112
-4.2971482 2.3647215 -1.8954812
-4.3520017 2.2598772 -1.8950685
-4.404336 2.1537805 -1.8946732
-4.5013475 1.9380859 -1.8939362
-4.5459571 1.8285998 -1.893595
-4.5879784 1.7181091 -1.8932718
-4.6273341 1.6066723 -1.8929672
-4.6980762 1.3811963 -1.8924139
-4.7293944 1.2672931 -1.8921658
-4.783906 1.0374591 -1.8917264
-4.8070703 0.92165768 -1.8915356
-4.8274708 0.8053503 -1.8913641
-4.8450975 0.68860412 -1.8912121
-4.8813281 0.33636534 -1.8908737
-4.8915429 0.10052185 -1.8907467
-4.8858981 -0.25348204 -1.8907045
-4.878418 -0.3712799 -1.8907301
-4.8681641 -0.48887023 -1.8907754
-4.8551364 -0.60618651 -1.8908404
-4.7752733 -1.071444 -1.8912978
-4.748457 -1.1864343 -1.8914608
-4.5738478 -1.7502643 -1.8925663
-4.5309472 -1.8603668 -1.8928446
-4.4373732 -2.0774169 -1.8934567
-4.3867478 -2.1842458 -1.8937904
-4.3335838 -2.2898612 -1.8941423
-4.2779102 -2.3942065 -1.8945122
-4.0308399 -2.797709 -1.8961679
-3.963125 -2.8948298 -1.8966247
-3.8931346 -2.9903395 -1.8970982
-3.8208203 -3.0841928 -1.8975883
-3.6695995 -3.2666652 -1.8986166
-3.5907421 -3.3551888 -1.8991544
-3.3417089 -3.6093068 -1.9008588
-3.1657519 -3.7686868 -1.9020675
-3.0749218 -3.8452232 -1.9026928
-2.8878222 -3.9917703 -1.9039835
-2.7916796 -4.0616913 -1.9046481
-2.6938183 -4.1293244 -1.9053253
-2.5943651 -4.1946263 -1.9060143
-2.3907714 -4.318079 -1.9074272
-2.2867968 -4.3761549 -1.90815
-1.9666308 -4.5353642 -1.9103799
-1.8573925 -4.5833149 -1.9111422
-1.7469823 -4.6286545 -1.9119134
-1.6354785 -4.6713557 -1.9126928
-1.522959 -4.7113929 -1.9134803
-1.1797363 -4.8152385 -1.9158865
-1.0636718 -4.8443584 -1.9167014
-0.94691402 -4.8706937 -1.917522
-0.71148437 -4.9149404 -1.9191786
-0.59296876 -4.9328184 -1.9200137
-0.35466796 -4.9600201 -1.9216946
-0.11512695 -4.9757323 -1.9233869
0.36551756 -4.9724603 -1.9267911
0.48557615 -4.9643888 -1.9276429
0.60545897 -4.9534183 -1.9284942
0.84441406 -4.9227815 -1.9301933
1.1997753 -4.8551903 -1.9327252
1.779121 -4.6855516 -1.9368665
1.8924414 -4.6432123 -1.9376788
2.1159472 -4.5502939 -1.9392828
2.5486231 -4.3321867 -1.9423968
2.7567382 -4.2074685 -1.9438995
3.0572166 -4.0015726 -1.9460748
3.1540039 -3.9280751 -1.9467773
3.4333887 -3.6935544 -1.9488097
3.6099217 -3.5259829 -1.9500986
3.695117 -3.438972 -1.950722
3.9377637 -3.1656373 -1.9525036
4.014111 -3.0706124 -1.9530662
4.0881739 -2.9737134 -1.953613
4.1598339 -2.8750122 -1.9541433
4.3601856 -2.5686135 -1.9556332
4.4219141 -2.4632626 -1.9560946
4.4810643 -2.3564095 -1.9565383
4.6514649 2.0136473 -1.9587597
4.2409081 2.7629619 -1.9560269
4.1720309 2.8637829 -1.9555626
4.0270214 3.0601408 -1.9545813
3.9509861 3.155565 -1.9540652
3.8726561 3.2490752 -1.9535322
3.7093163 3.43013 -1.9524179
3.5374119 3.602879 -1.9512408
3.3573828 3.766917 -1.9500042
3.2644627 3.8455522 -1.9493645
3.169668 3.9218669 -1.948711
3.0731053 3.9958234 -1.9480445
2.9747753 4.0673747 -1.9473649
2.7731347 4.2031059 -1.9459687
2.5652537 4.3287592 -1.9445261
2.240576 4.4930549 -1.9402581
2.1084375 4.4965472 -1.9192364
1.8519921 4.5027533 -1.8815206
1.7272558 4.5054865 -1.8647048
1.3647559 4.5123258 -1.8218008
1.13125 4.5158257 -1.7990621
0.90442383 4.5272722 -1.7841409
0.79303712 4.5362554 -1.7796224
0.68306637 4.5520816 -1.7788473
0.57282227 4.5652409 -1.7780697
0.35165039 4.5835261 -1.7765081
0.24086913 4.5886478 -1.7757249
-0.31238282 4.5741653 -1.7718043
-0.42244139 4.5632844 -1.7710224
-0.53218746 4.5497575 -1.7702422
-0.75199217 4.5243473 -1.7724181
-1.2049707 4.5078669 -1.8032309
-1.3215722 4.505424 -1.8144821
-1.4396288 4.5027642 -1.8268701
-1.5593359 4.4998822 -1.8404318
-1.804248 4.4934158 -1.8712412
-2.0577929 4.4859514 -1.9072925
-2.1696484 4.4436831 -1.9110274
-2.3796191 4.3304267 -1.9095148
-2.8779688 4.0050273 -1.9059106
-2.9726562 3.9330168 -1.9052234
-3.0656054 3.8587897 -1.904548
-3.2459276 3.7038786 -1.9032351
-3.3332129 3.6232829 -1.9025985
-3.418535 3.5406537 -1.901975
-3.5018456 3.4560466 -1.9013656
-3.7391503 3.190835 -1.899624
-3.8139355 3.0988007 -1.8990729
-3.8864746 3.0050468 -1.8985375
-4.0903611 2.7139666 -1.8970263
-4.1536131 2.6138482 -1.8965552
-4.2728419 2.4093299 -1.8956637
-4.3287597 2.3050389 -1.8952435
-4.3821778 2.1994641 -1.8948406
-4.4813962 1.9847461 -1.8940884
-4.6107812 1.6546087 -1.8930956
-4.648613 1.5426617 -1.8928018
-4.7460642 1.2019689 -1.8920326
-4.8190427 0.85533565 -1.8914354
-4.8539352 0.62178773 -1.8911341
-4.8671775 0.50447994 -1.891013
-4.8776951 0.38689697 -1.8909112
-4.8903027 0.15116516 -1.8907672
-4.8917284 -0.084884644 -1.8907024
-4.8882422 -0.20286682 -1.8906996
-4.8819823 -0.32073423 -1.8907166
-4.8464255 -0.67299867 -1.8908865
-4.808867 -0.90609127 -1.8910983
-4.7859569 -1.0219073 -1.8912338
-4.731914 -1.251781 -1.8915629
-4.6670408 -1.4788793 -1.8919696
-4.6305661 -1.5912286 -1.8922018
-4.5914645 -1.7026995 -1.8924526
-4.4583201 -2.0312018 -1.893319
-4.4087892 -2.1385322 -1.8936449
-4.3021193 -2.3495836 -1.8943511
-4.245039 -2.4531741 -1.8947314
-4.1235352 -2.6562135 -1.8955444
-3.9924705 -2.8533432 -1.8964267
-3.9234471 -2.949549 -1.8968929
-3.8521287 -3.0441124 -1.8973761
-3.5448046 -3.4048755 -1.8994683
-3.3784571 -3.5740371 -1.9006066
-2.9285741 -3.9610693 -1.9037024
-2.8331347 -4.0319571 -1.9043615
-2.6372559 -4.1668844 -1.9057171
-2.5369043 -4.2308412 -1.906413
-2.4349706 -4.2923932 -1.90712
-2.3315918 -4.3515267 -1.9078383
-2.2268066 -4.4081931 -1.9085672
-2.1206152 -4.4623632 -1.9093064
-1.7945215 -4.6095185 -1.9115813
-1.2293066 -4.8018904 -1.9155385
-1.1135937 -4.8321967 -1.9163507
-0.87995118 -4.88447 -1.9179928
-0.76220703 -4.9063945 -1.9188216
-0.52511716 -4.9417481 -1.9204919
-0.40592772 -4.9551463 -1.9213328
-0.28639647 -4.9656754 -1.9221766
-0.16662109 -4.973331 -1.923023
-0.046611328 -4.978097 -1.9238715
0.073544919 -4.9799762 -1.924722
0.19374023 -4.9789562 -1.9255733
0.43404296 -4.9682083 -1.9272772
0.55400389 -4.9584827 -1.9281287
0.67376953 -4.945857 -1.9289798
0.79325193 -4.9303336 -1.9298292
0.91232419 -4.9119201 -1.9306768
1.1492089 -4.8664503 -1.9323645
1.2668066 -4.8394108 -1.9332033
1.3837988 -4.8095198 -1.9340386
1.5000292 -4.7767901 -1.9348693
1.8439257 -4.6617241 -1.9373308
1.9566504 -4.6178131 -1.9381393
2.2882812 -4.4697137 -1.9405218
2.3964062 -4.4149804 -1.9413
2.5032032 -4.3576126 -1.9420695
3.2084277 -3.8850625 -1.9471725
3.3023729 -3.807868 -1.9478556
3.394453 -3.7283764 -1.9485259
3.4845898 -3.646637 -1.9491833
3.5727246 -3.5626891 -1.9498267
3.6588085 -3.4765892 -1.9504561
3.7427928 -3.3883829 -1.9510714
3.8246386 -3.2981153 -1.9516718
4.0566406 -3.015547 -1.9533801
4.2675195 -2.7164481 -1.9549429
4.3329005 -2.6133599 -1.9554297
4.3957224 -2.5086772 -1.9558986
4.5686717 -2.185684 -1.9571981
4.2473927 2.1060846 -1.9559201
4.0216112 2.5036168 -1.9544139
3.9591992 2.5993445 -1.9539942
3.6868358 2.9659374 -1.9521508
3.4599316 3.2222283 -1.9506038
3.3802538 3.3038359 -1.9500586
3.2150977 3.4610198 -1.9489257
3.1297264 3.5365069 -1.9483389
2.8630955 3.7500348 -1.9465005
2.7708788 3.816762 -1.945863
2.2874901 4.1153617 -1.9425098
2.186748 4.1678433 -1.9418087
2.0848143 4.2178397 -1.9410986
1.9817187 4.2653265 -1.9403796
1.877539 4.3102727 -1.9396523
1.2245312 4.493422 -1.9214331
0.99517578 4.4966779 -1.9000623
0.88220704 4.4979987 -1.8910742
0.5486328 4.5007682 -1.870605
0.0029980468 4.5015764 -1.8571951
-0.10561523 4.5011797 -1.8575424
-0.21432617 4.5005937 -1.8588934
-0.54217774 4.4977055 -1.8690323
-0.87502927 4.493072 -1.8885128
-1.2162499 4.4865131 -1.9177879
-1.4301074 4.4190998 -1.9162582
-1.5356348 4.3815851 -1.9155023
-1.7438574 4.299057 -1.9140087
-1.8463671 4.2541022 -1.9132725
-1.9476757 4.2067204 -1.9125443
-2.3404882 3.9935539 -1.9097134
-2.4352734 3.9345183 -1.9090285
-2.528584 3.873255 -1.9083536
-2.6203809 3.809798 -1.9076889
-2.7991796 3.6764715 -1.906392
-2.9712987 3.5348589 -1.9051405
-3.0547364 3.4610431 -1.9045324
-3.1363573 3.3852813 -1.903937
-3.2161326 3.3076262 -1.9033542
-3.2940135 3.2281065 -1.9027842
-3.3699315 3.1467853 -1.9022278
-3.5856738 2.8924267 -1.9006413
-3.6534374 2.8043475 -1.900141
-3.7190721 2.7147026 -1.8996555
-3.843828 2.530921 -1.8987296
-3.9028614 2.4368932 -1.8982896
-3.9596093 2.3415058 -1.8978657
-4.0140915 2.2448175 -1.8974575
-4.0662303 2.1468871 -1.8970656
-4.208447 1.8461615 -1.8959887
-4.2911716 1.6404724 -1.8953552
-4.2603221 -1.715335 -1.8947942
-4.2183204 -1.8178735 -1.895068
-4.1738868 -1.9194037 -1.895359
-4.1270313 -2.0198648 -1.8956674
-4.0778122 -2.1192038 -1.8959926
-4.0262208 -2.2173595 -1.8963354
-3.9723241 -2.3142812 -1.8966944
-3.9161034 -2.4099152 -1.8970703
-3.7969139 -2.5970943 -1.8978708
-3.5323241 -2.9536455 -1.8996614
-3.4609375 -3.0387797 -1.9001471
-3.3875096 -3.1222088 -1.9006475
-3.3120897 -3.2038872 -1.9011626
-3.234746 -3.2837713 -1.9016916
-3.1554785 -3.3618069 -1.9022348
-3.0743554 -3.437959 -1.9027914
-2.9067383 -3.5844193 -1.9039444
-2.732168 -3.7228055 -1.9051481
-2.3638964 -3.974052 -1.9076974
-2.1709862 -4.0863109 -1.9090371
-2.0725195 -4.1389809 -1.9097222
-1.9727734 -4.1892986 -1.9104168
-1.7697363 -4.2827544 -1.9118327
-1.4570508 -4.404551 -1.9140182
-0.91825193 -4.5568662 -1.9177978
-0.47568357 -4.6316586 -1.9209139
-0.36393553 -4.6436901 -1.9217024
-0.1396582 -4.6596799 -1.9232867
0.19792968 -4.6633658 -1.9256762
0.3105078 -4.6591668 -1.9264741
0.64742184 -4.6302586 -1.9288663
0.75924802 -4.6151943 -1.9296619
0.87072265 -4.597425 -1.9304551
0.98176754 -4.5769577 -1.931246
1.0923437 -4.5537987 -1.9320344
1.2023828 -4.5279627 -1.9328195
1.4205078 -4.468298 -1.9343777
1.5285058 -4.4345026 -1.9351504
1.6356933 -4.3980832 -1.9359177
2.2582226 -4.1256385 -1.9403888
2.5534472 -3.9558685 -1.9425186
2.7432227 -3.8308089 -1.9438913
3.0161426 -3.6260922 -1.9458712
3.4359863 -3.2418771 -1.948933
3.5142088 -3.1589794 -1.9495062
3.6645801 -2.9874825 -1.9506106
3.8064549 -2.8087564 -1.9516567
4.0025783 -2.5280237 -1.9531106
4.0633302 -2.4312923 -1.9535632
4.1777048 -2.233453 -1.9544189
4.2693067 2.0621412 -1.9560651
4.2175879 2.1641557 -1.9557226
4.1067286 2.3641748 -1.9549841
4.0476856 2.4620581 -1.9545889
3.9862597 2.5584471 -1.9541763
3.8564939 2.7465093 -1.9533011
3.7177441 2.9279156 -1.9523607
3.6450975 3.0159857 -1.951867
3.5703516 3.1022356 -1.9513577
3.4935448 3.1866057 -1.9508334
3.3339062 3.3495245 -1.949741
3.1666014 3.5043669 -1.9485923
2.9920311 3.6507709 -1.9473904
2.9021678 3.7206988 -1.9467703
2.7175488 3.8538237 -1.9454941
2.4292481 4.0361018 -1.9434952
2.2301464 4.1456194 -1.9421109
2.128711 4.1966863 -1.9414043
2.0261133 4.2452507 -1.9406893
1.9223827 4.2912922 -1.9399655
1.8176172 4.3347831 -1.939234
1.7118359 4.3757014 -1.9384943
1.3893163 4.4828095 -1.9362357
1.2744238 4.4926114 -1.9266272
1.1585742 4.4944367 -1.914863
1.0439843 4.4960504 -1.9042628
0.93057615 4.4974589 -1.8947963
0.8181836 4.4986601 -1.8864365
0.70667964 4.4996686 -1.8791614
0.59594727 4.5004802 -1.8729488
0.26715821 4.5017705 -1.8605407
0.15829101 4.5018229 -1.8584439
-0.2764746 4.5001764 -1.8601176
-0.38555664 4.4992948 -1.863057
-0.60501951 4.4969621 -1.8720071
-0.82696289 4.4938445 -1.8851376
-1.0524316 4.4899149 -1.9025913
-1.1667774 4.4876347 -1.9129995
-1.2775683 4.468317 -1.9173495
-1.3844824 4.4344268 -1.9165847
-1.5955077 4.3590446 -1.915073
-1.6995312 4.3176055 -1.914327
-1.904375 4.2273526 -1.9128555
-2.0049901 4.1786003 -1.9121319
-2.1044238 4.1274662 -1.9114159
-2.2993555 4.0182037 -1.9100103
-2.581162 3.8373003 -1.9079729
-2.7613573 3.7057965 -1.9066666
-3.0191405 3.4929645 -1.904792
-3.1015429 3.4180365 -1.9041913
-3.2608202 3.2624609 -1.9030273
-3.6911719 2.7533691 -1.8998621
-3.7555761 2.662852 -1.8993849
-3.8777928 2.4774182 -1.8984767
-3.9355273 2.3826122 -1.8980458
-3.9909961 2.2864752 -1.8976306
-4.0441504 2.1890662 -1.8972317
-4.1434083 1.9906707 -1.8964828
-4.2366505 -1.7739837 -1.8949484
-4.1932521 -1.8759527 -1.8952318
-4.1474609 -1.976878 -1.8955328
-4.0486522 -2.175374 -1.8961864
-3.9957421 -2.2728364 -1.8965384
-3.9405077 -2.3690305 -1.896907
-3.8232422 -2.5573983 -1.8976936
-3.7612598 -2.6494663 -1.8981111
-3.6307714 -2.8291194 -1.8989931
-3.4918163 -3.0024457 -1.8999368
-3.4192674 -3.0866098 -1.9004309
-3.344707 -3.169045 -1.9009397
-3.1897557 -3.3285429 -1.9019998
-3.1094141 -3.4055104 -1.9025508
-2.9432812 -3.5536592 -1.9036927
-2.8575878 -3.6247509 -1.9042828
-2.6811621 -3.7607665 -1.9055007
-2.590498 -3.8256087 -1.9061275
-2.4045703 -3.9487779 -1.9074153
-2.1149609 -4.1166644 -1.9094268
-2.0157616 -4.1679935 -1.9101171
-1.7109765 -4.3076434 -1.9122429
-1.6071582 -4.3493142 -1.912968
-1.5023438 -4.3884983 -1.9137013
-1.2899414 -4.4593196 -1.9151889
-1.1824511 -4.4909101 -1.9159425
-0.96521485 -4.5463319 -1.9174677
-0.85560542 -4.5701294 -1.9182383
-0.74541014 -4.5912957 -1.9190136
-0.63468748 -4.609817 -1.9197934
-0.52349609 -4.6256714 -1.9205769
-0.41193357 -4.6388569 -1.9213638
-0.30002928 -4.6493559 -1.9221536
0.037011717 -4.6646543 -1.9245363
0.14960937 -4.6643381 -1.9253339
0.37470701 -4.6555495 -1.9269296
0.82291013 -4.6053824 -1.9301149
1.0449609 -4.5640693 -1.9316964
1.1552148 -4.5393782 -1.9324831
1.3739452 -4.4819965 -1.9340447
1.482246 -4.4493303 -1.9348193
1.8022753 -4.3356199 -1.9371117
1.9070801 -4.2925496 -1.9378637
2.0108495 -4.2469258 -1.9386091
2.2150097 -4.1481352 -1.9400777
2.6082225 -3.9211321 -1.9429144
2.7962792 -3.7934225 -1.9442756
3.2378223 -3.4350133 -1.9474852
3.3207519 -3.3569484 -1.9480903
3.4017968 -3.2768648 -1.9486828
3.4808691 -3.1947985 -1.9492619
3.7059374 -2.937197 -1.9509152
3.7767577 -2.8476999 -1.9514375
3.9116893 -2.6635909 -1.9524356
4.0375485 -2.4729955 -1.9533709
4.0969529 -2.375412 -1.9538144
4.1539745 -2.2763841 -1.954241
4.2607031 -2.0742254 -1.9550436
4.2400684 2.1205304 -1.9558717
4.1313376 2.3217168 -1.9551485
4.0733204 2.4202228 -1.9547607
4.0129199 2.5172613 -1.9543555
3.950166 2.6127739 -1.9539334
3.8851171 2.7066967 -1.9534945
3.8178124 2.7989795 -1.9530395
3.6026855 3.0654407 -1.951578
3.5267577 3.1506267 -1.9510603
3.3688183 3.3152301 -1.9499804
3.1174998 3.5470221 -1.9482547
3.0300684 3.62008 -1.9476526
2.9409375 3.6909599 -1.9470379
2.1724122 4.1750736 -1.9417089
2.0702929 4.2247186 -1.9409972
1.8626758 4.3164334 -1.9395486
1.7573534 4.3584552 -1.9388126
1.5439258 4.4347305 -1.9373192
1.0930274 4.4953837 -1.9086726
0.97914058 4.4968767 -1.898723
0.86630857 4.4981694 -1.8898911
0.75444335 4.4992595 -1.8821526
0.6433984 4.5001554 -1.8754861
0.53305662 4.5008564 -1.8698736
0.205 4.5018244 -1.8592197
-0.33868164 4.4996953 -1.8616711
-0.44798827 4.4987092 -1.8651916
-0.55775392 4.4975262 -1.8697385
-0.89090818 4.4928083 -1.8896707
-1.0037011 4.490828 -1.8984722
-1.1175488 4.4886384 -1.908392
-1.2314551 4.4820771 -1.9176794
-1.4450879 4.4139423 -1.9161508
-1.7584667 4.2928433 -1.9139037
-2.061914 4.1497064 -1.9117221
-2.3540039 3.9853363 -1.9096158
-2.4485741 3.9259796 -1.9089324
-2.5416698 3.8644049 -1.9082589
-2.7232323 3.7347319 -1.9069433
-2.8116014 3.6667192 -1.9063019
-2.8982713 3.5966339 -1.905672
-3.066416 3.450434 -1.9044473
-3.2272656 3.2964764 -1.9032726
-3.3048632 3.216701 -1.9027047
-3.3805273 3.1351275 -1.90215
-3.4541795 3.0517926 -1.9016092
-3.5954003 2.880055 -1.9005696
-3.6628711 2.7917528 -1.9000714
-3.7282031 2.701884 -1.8995876
-3.7913768 2.610517 -1.8991194
-3.8523145 2.5176928 -1.8986664
-3.9110351 2.4234722 -1.8982288
-3.9674902 2.3278949 -1.8978068
-4.0216212 2.2310295 -1.897401
-4.0734277 2.1329205 -1.8970114
-4.1228905 2.0336339 -1.8966382
-4.1699705 1.9332153 -1.8962814
-4.29667 1.6257727 -1.895313
-4.2944431 -1.6265502 -1.8945735
-4.0187106 -2.2311585 -1.8963852
-3.9645019 -2.3279026 -1.8967466
-3.9079785 -2.4233453 -1.8971248
-3.7881248 -2.610127 -1.8979299
-3.7249022 -2.7013605 -1.8983564
-3.450664 -3.0506942 -1.9002171
-3.3769531 -3.1338761 -1.9007195
-3.1441112 -3.3727095 -1.9023128
-2.8945994 -3.5944829 -1.9040278
-2.8079197 -3.6644173 -1.9046253
-2.7195604 -3.7322803 -1.9052353
-2.3504393 -3.9822979 -1.9077908
-2.254463 -4.0392489 -1.908457
-2.0584667 -4.1462464 -1.90982
-1.8574511 -4.2438231 -1.9112207
-1.7551855 -4.2889996 -1.9119341
-1.6518457 -4.3317285 -1.9126559
-1.3358105 -4.4449773 -1.9148674
-1.1207422 -4.5077815 -1.9163756
-1.0120703 -4.5353141 -1.9171386
-0.90274411 -4.5602355 -1.9179068
-0.79277343 -4.5825353 -1.9186804
-0.45986328 -4.6335258 -1.9210256
-0.12374999 -4.6604037 -1.9233992
-0.011289062 -4.6639585 -1.9241946
0.21385741 -4.6629367 -1.925789
0.4388867 -4.6510482 -1.9273851
0.55120116 -4.6410279 -1.9281826
0.7750293 -4.612843 -1.9297739
1.2179004 -4.5240879 -1.9329302
1.3272167 -4.4952068 -1.9337111
1.6508105 -4.3927131 -1.936026
1.7569727 -4.3533192 -1.9367868
1.9664258 -4.266819 -1.93829
2.0695605 -4.2197556 -1.9390311
2.3719726 -4.0635991 -1.9412086
2.4702148 -4.0066595 -1.9419175
2.848789 -3.7552927 -1.9446564
3.1159961 -3.54298 -1.9465976
3.2016113 -3.4678926 -1.947221
3.2853711 -3.3907094 -1.947832
3.3672361 -3.3114855 -1.9484302
3.4471874 -3.2302563 -1.9490151
3.5251465 -3.1470764 -1.9495864
3.8161817 -2.795841 -1.9517286
4.2386231 -2.1180508 -1.9548771
4.2621288 2.0766582 -1.9560177
4.2100587 2.1784961 -1.9556726
3.9773827 2.5719726 -1.9541166
3.8469627 2.7595739 -1.9532367
3.7783787 2.8508966 -1.9527721
3.7076073 2.9404907 -1.9522918
3.6346581 3.0283067 -1.9517959
3.5596189 3.1142907 -1.9512844
3.4033885 3.2805603 -1.9502169
3.3223143 3.3607597 -1.9496615
3.2393162 3.4389203 -1.949092
3.1544628 3.5150115 -1.9485089
3.0678124 3.5889885 -1.9479126
2.9794238 3.6608038 -1.9473034
2.8893065 3.7304218 -1.9466815
2.7975683 3.7978032 -1.9460477
2.6093848 3.9256866 -1.9447448
2.4153223 4.0441728 -1.9433984
2.3162401 4.0998101 -1.9427096
2.2158692 4.1530008 -1.9420114
2.1142383 4.2037139 -1.9413036
1.9075879 4.2976069 -1.9398624
1.590039 4.41924 -1.9376422
1.3739355 4.4872746 -1.9361279
1.1422753 4.4946795 -1.9132926
0.47033203 4.5011711 -1.8671353
0.25170898 4.5017886 -1.8601822
0.14290039 4.5018144 -1.8582289
0.034248047 4.501657 -1.8572805
-0.40101561 4.4991546 -1.8635559
-0.51056641 4.4980559 -1.8676605
-0.73133785 4.4952788 -1.8789816
-0.84282225 4.4935932 -1.8862295
-0.95517576 4.4917045 -1.8945596
-1.1830566 4.4872942 -1.9145663
-1.3995606 4.4294219 -1.9164767
-1.5054003 4.3926334 -1.9157189
-1.6103027 4.3533292 -1.9149669
-1.7141601 4.3115411 -1.9142218
-2.2163672 4.0662322 -1.9106091
-2.3129687 4.0101175 -1.9099121
-2.6847949 3.7632854 -1.9072222
-2.7738574 3.6961651 -1.9065759
-2.8612597 3.6269684 -1.905941
-2.9469824 3.555722 -1.9053175
-3.0309081 3.4824786 -1.9047062
-3.1130567 3.4072723 -1.9041072
-3.3483007 3.1703613 -1.9023865
-3.4228125 3.0877728 -1.9018396
-3.495332 3.0034571 -1.9013067
-3.5657909 2.9174633 -1.9007879
-3.7004395 2.7406409 -1.8997934
-3.826416 2.5577092 -1.8988589
-3.8861034 2.464082 -1.8984146
-3.9435351 2.3690813 -1.8979859
-4.1500487 1.9764575 -1.8964324
-4.2390528 1.7733423 -1.8957553
-4.2798829 1.6702862 -1.8954421
-4.2719626 -1.6856598 -1.8947189
-4.1407809 -1.9910772 -1.8955767
-4.092207 -2.090745 -1.8958975
-4.0412889 -2.1892452 -1.8962351
-3.8746679 -2.4772243 -1.8973479
-3.7522948 -2.6623843 -1.8981715
-3.6878319 -2.7527595 -1.8986068
-3.6212206 -2.8416018 -1.8990579
-3.5524805 -2.9288516 -1.8995245
-3.3339942 -3.1805704 -1.9010131
-3.1784766 -3.3395488 -1.9020771
-2.9312792 -3.5638487 -1.9037753
-2.7576952 -3.7034118 -1.9049721
-2.6684179 -3.7700799 -1.9055886
-2.5775194 -3.8346205 -1.9062173
-2.2958202 -4.0150843 -1.9081699
-2.1990819 -4.0707335 -1.9088418
-2.1009862 -4.1240754 -1.9095238
-1.7992187 -4.2699122 -1.9116268
-1.058789 -4.5238171 -1.9168104
-0.9497363 -4.549861 -1.9175766
-0.61896485 -4.6122208 -1.9199041
-0.50774413 -4.6277018 -1.920688
-0.39612305 -4.6405034 -1.9214752
0.052958984 -4.6647739 -1.9246494
0.390625 -4.6545148 -1.9270425
0.50300783 -4.6456609 -1.9278404
0.61519527 -4.6340876 -1.9286374
0.72708982 -4.6198053 -1.929433
0.83868164 -4.6028123 -1.930227
1.0605762 -4.5607376 -1.9318079
1.1707813 -4.5356684 -1.9325939
1.2803808 -4.5079288 -1.9333764
1.3893163 -4.4775324 -1.9341547
1.4975097 -4.4444919 -1.9349285
1.6049414 -4.4088221 -1.9356976
1.8171581 -4.3296809 -1.9372183
1.9218261 -4.2862453 -1.9379696
2.2292774 -4.1407657 -1.9401803
2.3294044 -4.0873003 -1.9409016
2.4282129 -4.0313978 -1.9416144
2.8093555 -3.7840319 -1.9443704
3.1650975 -3.5003793 -1.9469552
3.413125 -3.2653637 -1.9487659
3.4919238 -3.1830225 -1.949343
3.7161033 -2.9246309 -1.95099
3.8548436 -2.7434332 -1.9520144
3.9209082 -2.6502991 -1.9525039
4.0460935 -2.4592721 -1.9534347
4.1051755 -2.3614812 -1.9538757
4.1618552 -2.2622516 -1.9543002
4.2678709 -2.05972 -1.9550978
4.2326856 2.1349425 -1.9558228
4.1232715 2.3357489 -1.9550946
3.9411132 2.6261621 -1.9538723
3.8080761 2.8119104 -1.9529736
3.5158594 3.1625316 -1.950986
3.2751856 3.4056194 -1.9493382
3.1911132 3.4826055 -1.948761
3.0175683 3.6302435 -1.9475665
2.5545702 3.9604728 -1.9443649
2.2590821 4.1304703 -1.9423122
2.1579981 4.1822538 -1.9416085
2.0557518 4.2315412 -1.9408959
1.8478515 4.3225369 -1.9394451
1.4205371 4.4735651 -1.9364545
1.3080175 4.4920478 -1.9302304
1.1917382 4.4939346 -1.9181255
0.96307617 4.4970746 -1.8974048
0.85041988 4.4983344 -1.8887292
0.73868161 4.4993987 -1.881144
0.62773436 4.5002642 -1.8746276
0.51747072 4.5009418 -1.8691629
0.18958984 4.5018268 -1.8589429
0.080859371 4.5017471 -1.8575648
-0.027753906 4.5014834 -1.8571911
-0.13638672 4.5010309 -1.8578228
-0.35414061 4.4995661 -1.8621075
-0.57332033 4.4973431 -1.8704656
-0.68372071 4.4959431 -1.8761981
-0.79486328 4.4943414 -1.8829877
-0.90682614 4.4925394 -1.8908502
-1.0197363 4.4905314 -1.8998092
-1.246709 4.477592 -1.9175701
-1.3538378 4.444438 -1.9168042
-1.4600586 4.4087334 -1.9160436
-1.7729882 4.2865777 -1.9137996
-1.8751464 4.2409329 -1.9130656
-2.0759473 4.1424174 -1.9116211
-2.3674903 3.9770696 -1.9095184
-2.4618456 3.9173992 -1.9088364
-2.7358496 3.7252312 -1.9068518
-2.8239844 3.6569195 -1.9062119
-2.9104102 3.5865448 -1.9055836
-3.0780468 3.4397857 -1.9043624
-3.2383788 3.2852929 -1.9031914
-3.3156934 3.2052636 -1.9026256
-3.391084 3.123435 -1.9020727
-3.4644432 3.039856 -1.9015337
-3.5358007 2.9545794 -1.9010088
-3.7372851 2.6890471 -1.8995205
-3.8607616 2.5044353 -1.8986034
-3.9753027 2.3142571 -1.8977484
-4.0290918 2.2172136 -1.8973448
-4.1764255 1.9189154 -1.8962322
-4.2487011 -1.7444695 -1.8948699
-4.205996 -1.8467261 -1.8951486
-4.063447 -2.1471164 -1.896088
-3.9566405 -2.3414931 -1.8967993
-3.8997655 -2.4367464 -1.8971798
-3.8406541 -2.5306461 -1.8975765
-3.7793262 -2.6231313 -1.8979893
-3.7157714 -2.7141511 -1.8984182
-3.6500683 -2.8036556 -1.8988626
-3.5822265 -2.891602 -1.8993225
-3.3663476 -3.1455147 -1.900792
-2.8824217 -3.6045077 -1.9041116
-2.5249512 -3.8704901 -1.906581
-2.1432421 -4.1014667 -1.9092301
-1.9443164 -4.2031159 -1.9106148
-1.7406249 -4.2951989 -1.9120358
-1.6371191 -4.3375778 -1.9127587
-1.2134472 -4.4820857 -1.9157251
-1.1054101 -4.5118423 -1.9164832
-0.66659176 -4.6047616 -1.9195685
-0.4440625 -4.6353388 -1.9211371
-0.10782226 -4.6610703 -1.9235117
0.0046484373 -4.6642447 -1.9243075
0.22980468 -4.6624532 -1.9259019
0.56708008 -4.6393867 -1.9282955
1.0131347 -4.5706739 -1.9314697
1.1235547 -4.5467572 -1.9322571
1.2334278 -4.5201635 -1.9330412
1.3426465 -4.4909053 -1.9338213
1.4511719 -4.4589977 -1.9345971
1.5589257 -4.4244547 -1.9353679
1.7719336 -4.3475351 -1.9368942
1.8770214 -4.3052006 -1.9376479
1.981084 -4.2603102 -1.9383951
2.0840819 -4.2128859 -1.9391357
2.1859374 -4.1629562 -1.9398683
2.2865918 -4.1105466 -1.9405932
2.385957 -4.0556865 -1.9413095
2.4840038 -3.9984059 -1.9420168
2.6758983 -3.8767073 -1.9434038
2.9522753 -3.6768389 -1.945407
3.128242 -3.5324757 -1.9466866
3.4583495 -3.2185998 -1.9490969
3.5360351 -3.1351485 -1.9496663
3.6851854 -2.9626107 -1.9507623
3.7565918 -2.8736248 -1.9512887
4.0801172 -2.4036314 -1.9536885
4.1378222 -2.3050103 -1.9541198
4.1931248 -2.2049887 -1.9545345
4.1475682 2.2931175 -1.9552569
4.0902634 2.392041 -1.9548739
4.0305371 2.4895051 -1.9544739
3.9040625 2.6798449 -1.9536223
3.7684863 2.8636851 -1.9527054
3.6241503 3.0405931 -1.9517245
3.5488281 3.1263134 -1.9512109
3.471416 3.21015 -1.9506823
3.3920214 3.2920396 -1.9501392
3.2274218 3.4498198 -1.9490103
3.1423242 3.5256133 -1.9484254
3.0554101 3.5992851 -1.9478271
2.9667578 3.6707964 -1.9472162
2.6908984 3.8719304 -1.9453094
2.5958397 3.9343829 -1.9446511
2.4993165 3.9944842 -1.9439815
2.3020995 4.1074944 -1.9426113
2.2015429 4.1603327 -1.9419117
1.9968456 4.2585492 -1.9404852
1.8927636 4.3038678 -1.9397589
1.7877636 4.3466339 -1.9390253
1.4670606 4.4593635 -1.9367807
1.3583789 4.4911714 -1.9357952
0.56472653 4.5006742 -1.8713802
0.45479491 4.5012407 -1.8665098
0.23629883 4.5018034 -1.8598444
0.12750976 4.5018048 -1.8580331
-0.1984375 4.5006914 -1.858634
-0.30729491 4.4999456 -1.8608465
-0.41649413 4.4990106 -1.8640741
-1.1993847 4.486949 -1.9161552
-1.3079785 4.4589801 -1.917132
-1.6250292 4.3475652 -1.9148614
-1.932959 4.2137942 -1.9126501
-2.0332909 4.1643596 -1.9119282
-2.1323633 4.1125617 -1.9112147
-2.3265429 4.0019879 -1.9098141
-2.4215233 3.9432805 -1.9091281
-2.5150487 3.8823395 -1.9084517
-2.6975098 3.7539105 -1.9071298
-2.7863476 3.6864958 -1.9064852
-2.8735156 3.6170049 -1.905852
-2.9589648 3.5454741 -1.9052304
-3.0426464 3.471945 -1.9046206
-3.2045898 3.3190837 -1.9034386
-3.3589745 3.1587725 -1.9023083
-3.5054295 2.9913855 -1.9012326
-3.6436718 2.8173132 -1.9002131
-3.8350194 2.5445416 -1.8987948
-3.8943651 2.4507158 -1.898353
-3.9514744 2.3555217 -1.8979266
-4.006279 2.2590239 -1.8975161
-4.1089063 2.0623095 -1.8967438
-4.1566696 1.9622101 -1.8963822
-4.2020411 1.8610253 -1.8960376
-4.2449708 1.758811 -1.89571
-4.2854686 1.6556238 -1.8953991
-4.2246094 -1.8029565 -1.8950268
-3.7432909 -2.675271 -1.8982323
-3.678535 -2.76543 -1.8986697
-3.1671777 -3.3505316 -1.9021544
-3.086328 -3.4269583 -1.9027094
-3.0036523 -3.5014617 -1.9032774
-2.6556542 -3.779345 -1.9056768
-2.5645409 -3.8435805 -1.906307
-2.4719043 -3.9056413 -1.9069484
-2.3777831 -3.9654937 -1.907601
-2.2822168 -4.0230989 -1.9082643
-1.6816894 -4.319694 -1.9124475
-1.5775878 -4.3606629 -1.913175
-1.4724902 -4.3991404 -1.9139102
-1.3664844 -4.4351029 -1.9146523
-1.25958 -4.4685245 -1.9154016
-1.0433886 -4.5276618 -1.9169186
-0.93424803 -4.5533338 -1.9176854
-0.60326171 -4.6145749 -1.9200146
-0.49197266 -4.6296754 -1.9207993
-0.38029295 -4.6421027 -1.921587
-0.15607421 -4.6588769 -1.9231707
0.068876952 -4.6648393 -1.9247621
0.18147461 -4.663753 -1.9255595
0.40654296 -4.6534276 -1.9271554
0.51890624 -4.6441875 -1.9279531
0.63102537 -4.6322341 -1.9287499
0.7429297 -4.6175652 -1.9295455
0.85445309 -4.6001925 -1.9303393
1.0762109 -4.557353 -1.9319192
1.1863281 -4.531908 -1.932705
1.2958398 -4.5037928 -1.9334869
1.404668 -4.473021 -1.9342645
1.7265332 -4.3649187 -1.9365686
2.243535 -4.1333466 -1.9402831
2.3434668 -4.0795369 -1.9410031
2.4420898 -4.0232882 -1.9417144
2.6351953 -3.9036207 -1.9431094
2.7295604 -3.8402641 -1.9437923
3.0910449 -3.5641925 -1.946416
3.2614257 -3.4131331 -1.9476575
3.3438475 -3.3344903 -1.9482592
3.6538768 -3.0002706 -1.9505318
3.7262011 -2.9120467 -1.9510646
4.0546093 -2.4455187 -1.9534982
4.2235641 -2.1472948 -1.9547638
3.9367578 2.0718396 -1.9537127
3.8308494 2.2584949 -1.9530063
3.715996 2.4396782 -1.9522351
3.655293 2.5280809 -1.9518259
3.5924804 2.6149547 -1.9514011
3.5275195 2.7002466 -1.9509611
3.3915722 2.8658936 -1.950037
3.3206248 2.9461479 -1.9495534
3.0181055 3.248939 -1.9474816
2.9380176 3.3198638 -1.9469311
2.7728417 3.4556901 -1.9457932
2.6013477 3.5832257 -1.9446084
2.423955 3.7021868 -1.9433801
2.0532227 3.913327 -1.9408041
1.7630175 4.0473347 -1.9387804
1.5646191 4.1247077 -1.9373938
1.4641309 4.1597395 -1.9366904
1.2608398 4.2224088 -1.9352654
1.1582031 4.2500153 -1.9345453
1.0549414 4.2751141 -1.9338199
0.951123 4.2976971 -1.9330902
0.84682614 4.3177485 -1.9323562
0.7421484 4.3352666 -1.931619
0.63711911 4.3502436 -1.930879
0.5317871 4.3626666 -1.9301361
0.32043946 4.3798518 -1.9286437
0.0029199219 4.3864422 -1.9263971
-0.52393556 4.3464618 -1.9226574
-0.62840819 4.3308806 -1.921914
-0.8359375 4.2922273 -1.9204358
-1.0411426 4.2436709 -1.9189714
-1.1428125 4.2157245 -1.9182451
-1.2437109 4.1853509 -1.9175236
-1.3438183 4.1525774 -1.9168072
-1.5414063 4.0799112 -1.9153912
-1.6387793 4.0400653 -1.9146926
-1.9245703 3.9067755 -1.9126382
-2.1093066 3.8067474 -1.9113069
-2.199785 3.7534721 -1.9106539
-2.3766797 3.6405585 -1.9093753
-2.4629979 3.5809917 -1.9087503
-2.6311717 3.4558134 -1.9075303
-2.7129297 3.3902764 -1.9069363
-2.7930663 3.3228264 -1.9063532
-2.8715527 3.2535014 -1.9057814
-3.1680858 2.958302 -1.9036132
-3.2376561 2.8802428 -1.9031026
-3.3710644 2.7193189 -1.9021205
-3.4348536 2.6365509 -1.9016497
-3.5563378 2.4666357 -1.90075
-3.8343065 -1.9926599 -1.8977462
-3.7350488 -2.1760442 -1.8984066
-3.6271093 -2.354562 -1.8991293
-3.38625 -2.6954055 -1.9007555
-3.3210058 -2.7769578 -1.9011987
-3.0410352 -3.0871367 -1.9031088
-2.9664745 -3.1604457 -1.9036198
-2.8121483 -3.3016961 -1.9046797
-2.732461 -3.3695438 -1.9052283
-2.6511524 -3.4354916 -1.9057885
-2.5682812 -3.4994957 -1.9063604
-2.3979981 -3.6215398 -1.9075378
-2.2219336 -3.7353759 -1.9087579
-2.1318653 -3.7891335 -1.9093832
-1.9479198 -3.8901558 -1.9106622
-1.7592676 -3.9823291 -1.9119765
-1.6632323 -4.0250144 -1.9126464
-1.4681835 -4.1034732 -1.9140093
-1.3692968 -4.1391973 -1.9147013
-1.2694921 -4.1725473 -1.9154
-1.1689062 -4.2035055 -1.916105
-0.96549803 -4.2581639 -1.9175326
-0.86282223 -4.2818298 -1.918254
-0.75958008 -4.3030252 -1.9189802
-0.23668945 -4.3715439 -1.9226665
0.08017578 -4.3823171 -1.9249077
0.18592773 -4.3808141 -1.9256568
0.29166991 -4.3767562 -1.9264064
0.92213863 -4.2988844 -1.9308885
1.025957 -4.27703 -1.9316286
1.1292676 -4.2526569 -1.9323657
1.2320019 -4.2257829 -1.9330993
1.334082 -4.1964164 -1.9338292
1.4354687 -4.1645737 -1.9345545
1.6358789 -4.093524 -1.9359897
1.7347949 -4.0543551 -1.9366992
1.8327734 -4.0127826 -1.9374026
2.2140136 -3.822922 -1.9401461
2.3063867 -3.7696922 -1.9408125
2.3974707 -3.7142153 -1.9414703
2.6624315 -3.534606 -1.943388
2.7477734 -3.4704568 -1.9440073
2.9137695 -3.3359485 -1.9452136
2.9943066 -3.2656703 -1.9458003
3.1501954 -3.1192651 -1.9469382
3.2254198 -3.0432286 -1.9474883
3.2988281 -2.9653497 -1.9480262
3.3703027 -2.8856804 -1.9485507
3.4398339 -2.8042712 -1.949062
3.5073924 -2.7211733 -1.9495596
3.5728905 -2.6364207 -1.950043
3.6363378 -2.5500772 -1.9505122
3.6976464 -2.4621887 -1.9509667
3.7568164 -2.3728049 -1.9514065
3.868535 -2.1897695 -1.95224
3.9074609 2.1256397 -1.9535179
3.7413867 2.4012804 -1.9524059
3.6196775 2.5778575 -1.9515852
3.4895506 2.7482049 -1.9507034
3.205332 3.0686004 -1.9487655
2.9726074 3.2896643 -1.9471688
2.8915331 3.3594549 -1.9466112
2.8088281 3.4272296 -1.9460412
2.7245214 3.492945 -1.9454596
2.6386719 3.5565691 -1.9448665
2.1879687 3.8420732 -1.9417416
2.0939453 3.8924236 -1.9410876
1.9024512 3.9861505 -1.9397537
1.7067676 4.0704036 -1.9383875
1.5073632 4.1450043 -1.936993
1.2023339 4.238471 -1.934855
0.99572265 4.288311 -1.9334037
0.89163083 4.3094525 -1.9326714
0.78717774 4.3280597 -1.9319363
0.47156247 4.3686137 -1.929711
0.36589843 4.377027 -1.9289649
0.15420899 4.3861737 -1.9274682
-0.057499997 4.3850932 -1.9259689
-0.37399414 4.3643599 -1.9237231
-0.687832 4.3208661 -1.921491
-0.79155272 4.3013577 -1.9207519
-0.99737304 4.2549186 -1.919284
-1.3009472 4.1669364 -1.917114
-1.4005859 4.1328006 -1.9164007
-1.4993163 4.0962992 -1.9156932
-1.5971191 4.0574503 -1.9149917
-1.789668 3.9728203 -1.9136087
-1.8842968 3.927094 -1.912928
-2.0700781 3.8289545 -1.91159
-2.3391798 3.6654937 -1.9096465
-2.5116112 3.5460784 -1.9083978
-2.758867 3.3520086 -1.9066021
-2.8380663 3.2834821 -1.9060255
-2.9913964 3.140929 -1.9049066
-3.1376464 2.9912994 -1.9038364
-3.2080176 2.9139459 -1.9033203
-3.3431053 2.7543805 -1.9023266
-3.645957 2.3293059 -1.9000835
-3.8025196 2.058275 -1.8989122
-3.806875 -2.0454662 -1.8979285
-3.7570801 -2.1370854 -1.8982595
