# .PCD v0.7 - Point Cloud Data file format
VERSION 0.7
FIELDS x y z
SIZE 4 4 4
TYPE F F F
COUNT 1 1 1
WIDTH 1499
HEIGHT 1
VIEWPOINT 0 0 0 1 0 0 0
POINTS 1499
DATA ascii
1.1260108 -13.289431 -1.9280288
1.4479736 -13.274733 -1.9304025
1.7699023 -13.252224 -1.9327781
2.0915966 -13.221924 -1.9351541
2.4128563 -13.183797 -1.937529
2.7334521 -13.137813 -1.9399011
3.3720508 -13.022414 -1.9446322
3.6895995 -12.952951 -1.9469882
4.0057569 -12.875717 -1.9493359
4.3203173 -12.790673 -1.9516739
4.9438376 -12.597336 -1.9563149
5.5585594 -12.37324 -1.9608994
5.8381395 -12.199475 -1.9551203
6.3851414 -11.839756 -1.9446133
6.9742966 -11.560523 -1.9517807
7.5520849 -11.25308 -1.9591503
5.7613525 -7.7491851 -1.3959498
8.3944921 -10.73977 -1.9705547
8.6681442 -10.554962 -1.9744424
8.9379587 -10.3634 -1.9783704
9.4007959 -8.5581226 -1.8377929
10.216113 -7.6385632 -1.8440391
10.40562 -7.395781 -1.8454986
10.589096 -7.1481462 -1.8469151
10.766411 -6.8957829 -1.8482875
10.937441 -6.6388688 -1.8496149
11.102079 -6.377562 -1.8508962
11.861812 -6.0728517 -1.9264261
12.842631 -5.4420648 -2.0163612
12.977031 -5.1334667 -2.0174327
13.103666 -4.821403 -2.0184479
13.222417 -4.5061016 -2.0194061
13.333193 -4.1877413 -2.0203061
13.435913 -3.8665559 -2.0211477
13.530502 -3.5427356 -2.0219302
13.694975 -2.8880987 -2.0233152
13.764731 -2.5577168 -2.0239167
13.826108 -2.2255669 -2.024457
13.923511 -1.5569299 -2.025352
14.005673 -0.54640561 -2.0262258
14.015923 -0.20846741 -2.0263913
14.010639 0.46771422 -2.0265326
13.995102 0.80549741 -2.0265081
13.971025 1.1427557 -2.0264206
13.847441 2.1492095 -2.025779
13.647695 3.1428888 -2.0245736
13.373105 4.1178088 -2.0228119
13.113682 4.3869128 -1.9990057
11.608272 5.513689 -1.8577889
11.316655 6.0605369 -1.8557882
10.830366 6.8511901 -1.8526251
9.6846628 6.4586816 -1.6828094
9.0762939 6.3745041 -1.6033635
8.6287203 6.3763742 -1.5510188
7.5349951 6.4604359 -1.4348333
7.1777196 6.4609313 -1.3960763
6.8390622 6.4614 -1.3601311
6.5171924 6.4618468 -1.3267392
6.2106051 6.4622703 -1.2956846
5.9178514 6.4626718 -1.2667695
5.3691111 6.4634275 -1.2146909
4.8625827 6.4641232 -1.16934
4.6229782 6.4644494 -1.1488893
3.9084911 6.3971324 -1.0837263
3.6908252 6.3819385 -1.0657578
3.4883251 6.3822117 -1.0514433
3.3029687 6.4055014 -1.0418501
3.1468604 6.4819446 -1.0416293
2.7692285 6.482451 -1.0190392
1.8862939 6.4836292 -0.97614372
1.717876 6.483851 -0.96965605
1.5515771 6.4840708 -0.96380979
1.3871875 6.4842882 -0.95858836
1.2244629 6.4845028 -0.9539749
0.90321285 6.4849219 -0.94651866
0.74428219 6.4851317 -0.943654
0.4288379 6.4855394 -0.93960667
0.27194336 6.4857445 -0.93841147
0.11535156 6.4859457 -0.93776602
-0.041103516 6.4861474 -0.93766576
-0.51157713 6.486753 -0.94064605
-0.66936523 6.4869542 -0.94274229
-0.82796383 6.4871554 -0.94539982
-0.98753905 6.4873581 -0.94862545
-1.3104589 6.4877672 -0.95682281
-1.4697949 6.4685154 -0.95893097
-1.6185986 6.404376 -0.9549365
-1.7840527 6.4045825 -0.96110624
-2.0881836 6.3030624 -0.95988554
-2.2569335 6.2992759 -0.96731842
-2.4155176 6.2619495 -0.97025472
-2.9621289 6.2834544 -1.004221
-3.1474657 6.2792954 -1.015397
-3.7108738 6.2328844 -1.048641
-3.9146338 6.2283139 -1.0634507
-5.0610204 6.2363586 -1.1610566
-5.5705371 6.2249241 -1.2075942
-6.4197898 6.2058663 -1.2907879
-8.1486864 6.1670666 -1.4773186
-8.5124216 6.1251354 -1.516028
-8.9942141 6.1480908 -1.5749595
-9.4105663 6.1049767 -1.6216034
-10.149165 5.9090638 -1.6977441
-10.409721 5.4062119 -1.6956923
-10.531113 5.1506481 -1.6947308
-10.646508 4.8924937 -1.6938127
-10.755864 4.6319065 -1.6929382
-11.71582 4.3884239 -1.8085774
-11.997934 4.1669884 -1.836076
-12.175234 3.5807018 -1.8346149
-12.253667 3.2848241 -1.8339589
-12.325249 2.9873412 -1.8333526
-12.389956 2.68838 -1.8327967
-12.542563 1.7842126 -1.8314326
-12.579531 1.4808892 -1.8310798
-12.632495 0.87226558 -1.8305278
-12.648491 0.56726742 -1.8303289
-12.657475 0.26201111 -1.8301814
-12.659438 -0.043342896 -1.8300858
-12.642373 -0.65376949 -1.8300488
-12.623335 -0.95852351 -1.8301077
-12.597304 -1.2627904 -1.8302183
-12.477392 -2.1710379 -1.8308591
-12.362807 -2.7712591 -1.8315426
-12.295171 -3.069334 -1.831961
-12.139384 -3.6606576 -1.8329502
-12.051332 -3.9536064 -1.8335204
-11.956499 -4.2445574 -1.8341409
-11.746806 -4.8198624 -1.8355312
-11.632011 -5.1039143 -1.8363006
-11.248501 -5.9399524 -1.8389007
-10.278457 -6.0789561 -1.7262945
-9.9509563 -6.2140222 -1.6959746
-9.8040619 -6.45608 -1.6969914
-9.4933882 -6.9301658 -1.6991519
-9.1606541 -7.3900123 -1.7014785
-8.806489 -7.834631 -1.703967
-8.6215572 -8.0509109 -1.7052706
-8.4315033 -8.26301 -1.7066131
-7.4075341 -9.2566957 -1.7138854
-7.1886573 -9.4412689 -1.7154477
-7.564775 -10.448813 -1.8648149
-7.0656199 -10.82217 -1.8683895
-5.4644384 -11.800403 -1.8799148
-4.612031 -12.204514 -1.8860815
-3.7301953 -12.548459 -1.8924809
-3.4304051 -12.649314 -1.8946607
-2.8229833 -12.829919 -1.8990836
-2.5156786 -12.909482 -1.9013244
-2.2062011 -12.981809 -1.9035832
-0.94989747 -13.197379 -1.9127731
-0.63208985 -13.232533 -1.915103
-0.31312987 -13.260119 -1.9174435
0.0068017575 -13.280056 -1.919793
0.3274951 -13.292348 -1.9221503
0.64879394 -13.296906 -1.9245142
1.2924365 -13.282804 -1.9292555
1.6144189 -13.264075 -1.9316305
2.5786669 -13.160999 -1.9387554
2.8989012 -13.110998 -1.9411259
3.536377 -12.987464 -1.9458511
4.1685987 -12.832729 -1.9505459
4.4822459 -12.74367 -1.9528784
6.5384274 -11.770308 -1.9464457
7.699409 -11.169071 -1.9610864
8.2609568 -10.826613 -1.9686913
8.3869238 -9.4827766 -1.8300838
8.85147 -9.0847645 -1.8336091
9.2964211 -8.6633224 -1.8369966
9.7204733 -8.2193966 -1.8402362
9.9242773 -7.9893351 -1.8417975
10.122476 -7.7540536 -1.8433191
10.501225 -7.268373 -1.8462362
10.681547 -7.0182667 -1.8476303
10.855615 -6.7635489 -1.8489794
12.221079 -6.0656533 -1.9723396
12.629165 -5.8929658 -2.0146699
13.043486 -4.9725537 -2.0179648
13.280674 -4.341887 -2.0198784
13.485825 -3.699456 -2.0215597
13.576177 -3.3743918 -2.0223114
13.79752 -2.3862295 -2.0242038
13.903095 -1.7188735 -2.0251584
13.943154 -1.3833002 -2.0255427
13.974692 -1.0467919 -2.0258646
14.017851 -0.033660889 -2.0264521
14.015073 0.30443543 -2.0265214
14.003686 0.64238465 -2.0265279
13.918115 1.6528808 -2.0261672
13.872519 1.9878576 -2.0259206
13.818418 2.3215234 -2.0256112
13.684937 2.9839959 -2.0248051
13.318359 4.2834826 -2.0224531
11.806602 5.0986891 -1.8591385
11.535507 5.6565061 -1.8572916
11.389594 5.9298706 -1.8562902
11.23689 6.1993456 -1.855238
11.07749 6.4647288 -1.8541354
10.741074 6.9837341 -1.8521022
8.5163765 6.4590683 -1.5451782
8.1035004 6.4596448 -1.4981085
7.7148142 6.4601855 -1.4546432
7.3478417 6.4606957 -1.4144285
7.0004492 6.4611778 -1.3771615
6.3568797 6.4620676 -1.3104053
5.2344384 6.463613 -1.2023642
4.7376709 6.4642944 -1.1585934
4.5023289 6.4646139 -1.1388508
4.2747364 6.4649253 -1.1204108
3.0476367 6.4820776 -1.0354626
2.3152831 6.4830575 -0.99517316
2.1405029 6.4832907 -0.98699486
1.9684814 6.4835191 -0.97951478
1.7989551 6.4837437 -0.9727084
1.4663671 6.4841843 -0.96103305
1.3028613 6.4843993 -0.95612806
1.1409374 6.4846115 -0.95182401
0.9803564 6.4848218 -0.94810694
0.82092774 6.4850302 -0.94496709
-0.12200683 6.4862537 -0.93782783
-0.27862793 6.4864535 -0.93855542
-0.43558592 6.4866552 -0.93983257
-0.75124019 6.4870582 -0.94404614
-1.3949023 6.4878745 -0.95932865
-1.8704443 6.4046922 -0.96454692
-2.1751075 6.3011117 -0.96364444
-2.3327637 6.2638059 -0.96626419
-2.6800928 6.2560129 -0.98387784
-2.8740478 6.2854309 -0.99911892
-3.436919 6.2728014 -1.0340003
-4.022285 6.2258973 -1.0715197
-4.4789109 6.2494211 -1.1114906
-4.9174118 6.2058115 -1.1446245
-5.4437451 6.2277708 -1.1957591
-5.7090478 6.2218151 -1.2207055
-6.8945603 6.1932616 -1.3397647
-7.1933641 6.1547375 -1.3685778
-8.3126125 6.1296191 -1.4930626
-10.348955 5.5287147 -1.6961721
-10.473228 5.2744408 -1.6951898
-10.810019 4.4962792 -1.6925035
-11.951074 4.3073888 -1.8364584
-12.046367 4.0161777 -1.8356794
-12.134897 3.7230003 -1.8349497
-12.291538 3.1312225 -1.8336391
-12.359575 2.8329515 -1.8330588
-12.474932 2.2324078 -1.8320498
-12.595899 1.3238068 -1.8309175
-12.64163 0.71463192 -1.8304187
-12.654018 0.40950379 -1.8302462
-12.659369 0.1041626 -1.8301253
-12.65771 -0.20119567 -1.8300564
-12.649062 -0.50642943 -1.8300387
-12.544487 -1.7230502 -1.8304844
-12.500933 -2.0253551 -1.8307246
-12.450419 -2.3266606 -1.8310161
-12.393003 -2.626771 -1.8313589
-12.328691 -2.9255493 -1.8317525
-12.257514 -3.2228155 -1.8321974
-12.179536 -3.5184762 -1.8326926
-12.003144 -4.1042643 -1.833835
-11.904859 -4.3941245 -1.8344811
-11.799892 -4.6817613 -1.8351773
-11.445371 -5.5298266 -1.837561
-11.31415 -5.8070893 -1.8384531
-10.547138 -6.0731149 -1.7594143
-9.8757229 -6.3395624 -1.6964948
-9.725893 -6.5799432 -1.6975337
-9.5704632 -6.8169336 -1.6986146
-9.2430029 -7.2803168 -1.7009016
-8.8939695 -7.7286911 -1.7033513
-8.5239449 -8.1610823 -1.7059598
-8.1336327 -8.5764961 -1.7087222
-7.9310594 -8.777566 -1.7101598
-7.7236814 -8.9740486 -1.7116337
-7.2949462 -9.3527212 -1.7146887
-7.6825342 -10.355307 -1.863973
-6.6749802 -11.090033 -1.8711935
-5.8737354 -11.579199 -1.876961
-5.5986571 -11.729891 -1.8789457
-5.3198242 -11.874208 -1.8809597
-4.7513766 -12.143445 -1.8850721
-4.4620557 -12.268137 -1.8871685
-2.5774658 -7.6565704 -1.1678815
-2.4030128 -7.7518797 -1.1732348
-3.5755467 -12.601472 -1.8936051
-3.2743456 -12.698722 -1.8957963
-2.6644042 -12.871953 -1.9002398
-2.355952 -12.947785 -1.90249
-1.7329638 -13.077541 -1.907041
-1.4187402 -13.131348 -1.9093395
-1.1029395 -13.177679 -1.9116518
-0.46732908 -13.24775 -1.9163116
-0.1478418 -13.271391 -1.9186571
0.81506836 -13.296235 -1.9257382
1.1369189 -13.289058 -1.928109
2.1024902 -13.220757 -1.9352347
2.7443213 -13.136119 -1.9399815
3.700366 -12.950467 -1.947068
4.0164695 -12.872956 -1.9494156
4.6436524 -12.69458 -1.9540794
4.9543552 -12.593786 -1.9563932
5.5689011 -12.369116 -1.9609765
6.0969043 -11.964465 -1.9412276
6.3952098 -11.83527 -1.9447329
6.6910448 -11.698955 -1.9482924
5.7662401 -7.7424927 -1.3955714
8.6773634 -10.548581 -1.974575
8.9470358 -10.356779 -1.9785044
9.4081001 -8.550683 -1.8378487
9.620039 -8.3286228 -1.8394678
9.8265524 -8.1011219 -1.8410486
10.222656 -7.6304002 -1.8440895
10.772329 -6.8871484 -1.8483334
10.943159 -6.6300745 -1.8496592
12.556065 -6.0379658 -2.0140932
12.981455 -5.1229296 -2.017468
13.226294 -4.4953532 -2.0194376
13.336806 -4.1768875 -2.0203357
13.439258 -3.8556013 -2.0211754
13.533569 -3.5317285 -2.0219557
13.828052 -2.2142868 -2.0244741
13.880683 -1.8805575 -2.0249505
13.924858 -1.5455328 -2.0253649
13.987617 -0.87251282 -2.0260062
14.006157 -0.53494686 -2.0262325
14.01749 0.14114441 -2.0264959
13.970049 1.1541979 -2.0264165
13.937099 1.4906726 -2.0262637
13.895596 1.8261975 -2.0260475
13.720263 2.8246503 -2.0250227
13.64499 3.1540258 -2.0245566
13.46958 3.8062816 -2.0234389
13.36957 4.1286998 -2.0227888
13.080498 4.3877048 -1.9944899
11.739219 5.2442298 -1.8586811
11.603539 5.5230994 -1.8577567
11.311484 6.0696778 -1.8557525
10.992641 6.6003294 -1.8535653
10.82456 6.859911 -1.8525912
9.0605564 6.374526 -1.6015023
8.2997561 6.4593711 -1.5203718
7.8997169 6.459928 -1.4752113
6.5065527 6.4618616 -1.3256468
6.2004395 6.4622836 -1.2946689
5.9081445 6.4626856 -1.2658231
5.1024508 6.4637938 -1.1904702
4.3837399 6.4647765 -1.1291603
3.9013183 6.3971424 -1.08319
3.6838622 6.381947 -1.0652549
3.4815526 6.3822217 -1.0509722
3.3029735 6.4184103 -1.0435066
2.9495702 6.4822092 -1.0295286
2.4007714 6.482944 -0.99938232
2.051245 6.4834094 -0.98304152
1.7121972 6.4838586 -0.96944684
1.5459716 6.4840784 -0.96362317
1.3816357 6.4842954 -0.95842206
1.0577637 6.4847202 -0.94983017
0.89780271 6.48493 -0.94641262
0.7389062 6.4851379 -0.9435665
0.58087891 6.4853439 -0.94128352
0.11004394 6.4859533 -0.93775326
-0.20294434 6.4863572 -0.9381355
-0.3597168 6.4865575 -0.93914688
-1.1537793 6.4875684 -0.95256835
-1.4698046 6.4441381 -0.95549828
-1.9329296 6.3244247 -0.95601821
-2.0938671 6.3029346 -0.96012723
-2.2627196 6.2991467 -0.96758431
-2.9683642 6.2833142 -1.0045872
-3.3435936 6.2748947 -1.0278542
-4.3712888 6.2518358 -1.1027856
-5.0693312 6.2361732 -1.1617938
-5.3194284 6.2305589 -1.1843152
-5.5795212 6.2247229 -1.2084413
-6.4300876 6.205636 -1.2918354
-7.0301461 6.1584005 -1.3510858
-8.1621532 6.1667662 -1.4788444
-9.4268646 6.1046119 -1.6235548
-10.014932 6.1477575 -1.6987958
-10.413931 5.3976002 -1.695659
-10.535131 5.1419396 -1.6946989
-10.759462 4.6230125 -1.6929094
-12.092988 3.8648474 -1.835296
-12.178002 3.5706956 -1.834592
-12.327568 2.977212 -1.8333329
-12.392046 2.6781993 -1.8327786
-12.580659 1.4705993 -1.8310686
-12.633149 0.86192811 -1.8305203
-12.654111 -0.35901794 -1.8300408
-12.622568 -0.96884644 -1.8301105
-12.596298 -1.2730957 -1.8302228
-12.563051 -1.576687 -1.8303868
-12.522837 -1.8794628 -1.8306022
-12.360615 -2.7814052 -1.8315561
-12.218041 -3.3758693 -1.8324472
-12.136523 -3.6706293 -1.8329687
-12.048218 -3.9635189 -1.8335406
-11.628008 -5.1135168 -1.8363274
-11.506426 -5.3948717 -1.8371475
-11.37834 -5.6735172 -1.838016
-10.826264 -6.0670075 -1.7940631
-10.259955 -6.0793571 -1.7240219
-9.9460592 -6.2222815 -1.6960084
-9.7989788 -6.4642401 -1.6970265
-9.6462355 -6.7029004 -1.6980872
-9.4879293 -6.9380798 -1.6991899
-9.154829 -7.3976927 -1.7015193
-8.9802094 -7.6218286 -1.702745
-8.800312 -7.8420286 -1.7040105
-8.6151857 -8.0581627 -1.7053157
-8.4249506 -8.2701368 -1.7066593
-8.2297211 -8.4777765 -1.7080412
-8.0295162 -8.6810064 -1.7094607
-7.6146436 -9.0737648 -1.7124097
-7.4001803 -9.263031 -1.7139381
-7.3090134 -10.644663 -1.8666453
-6.8004589 -11.006195 -1.8702923
-6.5395703 -11.178216 -1.8721669
-6.2744579 -11.344235 -1.8740741
-6.0052247 -11.50416 -1.8760132
-5.7320118 -11.657891 -1.8779833
-5.1742382 -11.946308 -1.8820121
-4.8899512 -12.080815 -1.8840688
-4.6022315 -12.208736 -1.8861526
-2.6610401 -7.6104379 -1.165494
-2.487617 -7.7061553 -1.1706219
-3.7200732 -12.551984 -1.8925546
-2.8126073 -12.832726 -1.8991593
-2.5052147 -12.91205 -1.9014007
-2.1956542 -12.984131 -1.9036602
-0.30228513 -13.260925 -1.917523
0.017661132 -13.280618 -1.9198729
0.33839354 -13.292631 -1.9222305
0.65969235 -13.296934 -1.9245943
1.3033692 -13.282293 -1.9293361
2.5895555 -13.159429 -1.938836
2.9097655 -13.109154 -1.9412063
3.2290087 -13.051052 -1.9435717
4.4928565 -12.740507 -1.9529573
5.4213767 -12.426193 -1.9598756
6.2514353 -11.898557 -1.9430331
6.5484762 -11.765696 -1.9465665
7.423408 -11.324559 -1.9574784
7.709043 -11.163489 -1.9612138
8.2703953 -10.820544 -1.9688222
8.5457325 -10.638789 -1.9726917
8.3949556 -9.4762154 -1.8301446
8.6294336 -9.2799902 -1.8319229
9.9310398 -7.9814305 -1.8418494
10.129111 -7.7459621 -1.84337
10.507437 -7.2599654 -1.8462843
10.861425 -6.7548084 -1.8490243
11.028955 -6.4954386 -1.8503267
11.189921 -6.231791 -1.8515817
11.562871 -6.0788012 -1.8884649
12.779756 -5.579495 -2.0158617
13.170063 -4.6481018 -2.0189829
13.489023 -3.688467 -2.0215862
13.579086 -3.3633194 -2.0223355
13.660923 -3.0358565 -2.0230253
13.734433 -2.7063212 -2.0236542
13.799575 -2.3749335 -2.0242219
13.90459 -1.7075152 -2.0251725
13.94436 -1.3719 -2.0255547
13.975595 -1.0353345 -2.0258744
13.998266 -0.69807005 -2.0261309
14.012383 -0.36026612 -2.0263247
14.014829 0.31590208 -2.0265229
14.003149 0.6538403 -2.0265269
13.916714 1.6642615 -2.0261598
13.682417 2.9951751 -2.0247896
13.602827 3.3234954 -2.0242913
13.514965 3.6496069 -2.0237312
13.314672 4.2943273 -2.0224288
12.592143 4.3993273 -1.9282415
12.045449 4.5371852 -1.8607469
11.802251 5.1082716 -1.8591088
11.669961 5.3888416 -1.8582098
11.384531 5.9390793 -1.8562554
11.071987 6.4736524 -1.8540972
10.906548 6.7350779 -1.8530682
10.735151 6.9923801 -1.8520672
9.4118605 6.459065 -1.6501766
8.8250971 6.3748546 -1.5738097
8.5019188 6.4590893 -1.5435159
7.7020311 6.4602036 -1.4532275
6.988955 6.4611936 -1.3759402
6.6597753 6.4616489 -1.3414346
5.7620606 6.4628882 -1.251694
4.9730225 6.4639707 -1.1789885
4.2671432 6.4649353 -1.1198063
4.0469189 6.4652343 -1.1026253
3.792788 6.3972898 -1.0751201
3.5785985 6.3820896 -1.057748
3.3790526 6.3823581 -1.0439763
3.2340283 6.4818273 -1.0471787
2.6679883 6.4825864 -1.013397
2.3093066 6.4830661 -0.99488544
1.9626855 6.4835262 -0.97927284
1.7932421 6.4837523 -0.972489
1.460791 6.4841919 -0.96085769
1.2973486 6.4844065 -0.95597214
0.9749316 6.4848275 -0.94799161
0.81554198 6.4850378 -0.94487089
0.65710938 6.4852452 -0.94231659
0.49944824 6.4854488 -0.94032246
0.34235352 6.4856529 -0.93888128
0.18564452 6.4858556 -0.93798882
0.029145507 6.4860582 -0.93764418
-0.28394529 6.4864612 -0.93859088
-0.59840816 6.4868627 -0.94173193
-1.0759522 6.4874706 -0.95064843
-1.5449755 6.4042821 -0.95237106
-1.7094922 6.4044895 -0.95825619
-1.8761278 6.4046984 -0.96477735
-2.0132079 6.3047447 -0.95676392
-2.18083 6.3009825 -0.96389717
-2.3385694 6.2636752 -0.96654087
-2.510747 6.2598119 -0.9750061
-2.8802049 6.2852926 -0.99946988
-3.0637109 6.2811742 -1.0102746
-3.6211717 6.2348986 -1.0423168
-3.822412 6.230382 -1.0566725
-4.0294042 6.2257385 -1.0720587
-4.6900682 6.2109132 -1.1250978
-5.1974168 6.2332969 -1.1732436
-5.7182422 6.2216101 -1.2215835
-6.5888815 6.2020726 -1.3080947
-7.2049952 6.1544762 -1.3698306
-7.5979004 6.1794286 -1.4157706
-7.9729099 6.1710119 -1.457487
-8.3264456 6.1293077 -1.4946465
-8.7947216 6.1525683 -1.551608
-10.087441 6.0203977 -1.6982281
-10.353281 5.5201111 -1.6961381
-10.477334 5.2657676 -1.6951573
-10.7075 4.7492356 -1.6933255
-12.219282 3.4179211 -1.8342474
-12.293945 3.1211302 -1.8336188
-12.361757 2.8228095 -1.8330401
-12.654311 0.39911741 -1.8302412
-12.659419 0.093806148 -1.8301224
-12.657538 -0.21154724 -1.8300549
-12.648652 -0.51677793 -1.830039
-12.632744 -0.82172054 -1.8300749
-12.609853 -1.1262048 -1.8301622
-12.579975 -1.4301324 -1.8303012
-12.254985 -3.2328708 -1.8322133
-12.176758 -3.5284698 -1.8327104
-11.999922 -4.1141558 -1.8338561
-11.901411 -4.4039226 -1.8345039
-11.565967 -5.2593126 -1.8367453
-11.441015 -5.5392718 -1.8375905
-11.30957 -5.816433 -1.8384842
-10.527934 -6.073534 -1.7570392
-10.015073 -6.10425 -1.6955318
-9.7207127 -6.5880313 -1.6975697
-9.5650978 -6.8249063 -1.698652
-9.2372503 -7.2880468 -1.7009419
-9.0652294 -7.5140576 -1.702148
-8.1268311 -8.5833979 -1.7087704
-7.9241114 -8.7843075 -1.710209
-7.7165723 -8.9806232 -1.7116843
-7.5043359 -9.172225 -1.7131956
-7.4291306 -10.553913 -1.8657854
-6.9249315 -10.920992 -1.8693987
-6.4030223 -11.264794 -1.8731488
-4.4522214 -12.272231 -1.8872398
-2.5715868 -7.6598153 -1.1680555
-3.565371 -12.604882 -1.8936791
-2.6540136 -12.874635 -1.9003155
-1.4080566 -13.13303 -1.9094179
-1.092207 -13.179118 -1.9117304
-0.45653319 -13.248684 -1.9163909
-0.13701659 -13.272056 -1.9187366
0.18335937 -13.28779 -1.9210905
0.50441891 -13.295817 -1.9234517
0.82597655 -13.296119 -1.9258184
1.7917529 -13.250417 -1.9329394
2.1134229 -13.219584 -1.9353154
2.7551513 -13.134413 -1.9400616
3.0749071 -13.08009 -1.9424298
3.3936181 -13.017932 -1.9447922
4.027163 -12.870176 -1.9494948
4.3416162 -12.784616 -1.9518322
4.6542578 -12.691289 -1.9541584
5.8550782 -12.183542 -1.9541147
6.7010593 -11.694187 -1.9484144
6.9941111 -11.550543 -1.9520277
7.5714402 -11.242161 -1.9594034
5.7738428 -7.7394729 -1.3958789
8.413188 -10.727439 -1.9708172
8.6865969 -10.542171 -1.974708
8.9561377 -10.350134 -1.9786388
8.9760351 -8.9709768 -1.8345563
9.4153662 -8.5432434 -1.837904
9.6271677 -8.3209753 -1.8395224
10.22916 -7.6222591 -1.8441393
10.418257 -7.3791466 -1.8455961
10.601323 -7.1311717 -1.8470095
10.778213 -6.8784986 -1.8483789
10.948828 -6.6212726 -1.8497033
13.111978 -4.8001032 -2.0185146
13.536596 -3.5206933 -2.021981
13.622441 -3.1943142 -2.0226998
13.69997 -2.8657434 -2.0233579
13.829966 -2.2029619 -2.0244913
13.988379 -0.86107236 -2.0260146
14.016308 -0.18551697 -2.0264003
14.009838 0.49066892 -2.0265326
13.993764 0.82842529 -2.0265043
13.969067 1.1655957 -2.0264122
13.935835 1.5020691 -2.0262573
13.894032 1.8375585 -2.0260389
13.785019 2.5046916 -2.0254142
13.717817 2.8358769 -2.0250077
13.64229 3.1651917 -2.0245397
13.558428 3.4923999 -2.0240095
13.466348 3.817235 -2.0234182
13.36603 4.1395874 -2.0227656
11.985336 4.6860156 -1.8603441
11.734731 5.2537718 -1.8586506
11.306303 6.0788169 -1.8557168
11.149887 6.3460546 -1.8546367
10.987045 6.6092076 -1.8535331
8.5993214 6.3764157 -1.547599
7.8865623 6.4599476 -1.4737421
7.5101123 6.4604697 -1.4321096
7.15416 6.4609628 -1.3935498
6.495903 6.4618759 -1.3245572
6.1903415 6.4622974 -1.2936592
5.8984814 6.4626999 -1.2648838
5.0938768 6.4638062 -1.1897036
4.6070018 6.4644713 -1.1475506
4.3760157 6.4647875 -1.1285361
3.8941503 6.3971519 -1.0826486
3.676914 6.3819566 -1.0647541
3.1337597 6.4819617 -1.0408065
2.9431591 6.4822178 -1.0291457
2.7567089 6.4824681 -1.0183325
2.5740039 6.4827123 -1.0083214
2.3947508 6.4829516 -0.99908179
2.2186475 6.4831872 -0.99057961
2.0454199 6.483418 -0.98278826
1.7065136 6.4838672 -0.96923846
1.5403515 6.4840856 -0.96343505
0.89240235 6.4849362 -0.94630706
0.57551271 6.4853501 -0.94121593
0.41816404 6.4855542 -0.93950742
0.26132324 6.4857578 -0.9383505
0.10474121 6.4859605 -0.93774205
-0.051718749 6.4861608 -0.93767875
-0.20825195 6.4863634 -0.93816119
-0.36504394 6.4865646 -0.9391911
-0.52226561 6.4867663 -0.94077069
-0.6801123 6.4869666 -0.94290531
-1.1592529 6.4875755 -0.95270842
-1.4698144 6.4199376 -0.9520914
-1.7953613 6.4045982 -0.96154892
-2.6009912 6.2577882 -0.97966725
-3.350122 6.2747498 -1.0282791
-3.5447021 6.2703834 -1.0412725
-3.7245069 6.2325778 -1.0496119
-3.9286718 6.2279978 -1.0644939
-4.1609521 6.2565551 -1.086216
-4.5989013 6.2400231 -1.120589
-5.3280516 6.2303662 -1.1851035
-5.5885401 6.2245212 -1.2092904
-6.7517381 6.1984167 -1.3249806
-9.0248871 6.1474023 -1.5785662
-9.4432716 6.1042428 -1.6255157
-10.019746 6.1394105 -1.6987582
-10.158393 5.8921814 -1.6976718
-10.418149 5.3889771 -1.6956258
-11.005517 4.4069676 -1.7137945
-11.770644 4.3869858 -1.8159294
-12.004384 4.1472435 -1.8360233
-12.095966 3.8549206 -1.8352714
-12.25874 3.264693 -1.8339161
-12.329868 2.9670928 -1.8333132
-12.45144 2.3676677 -1.8322587
-12.545288 1.7636786 -1.8314071
-12.659321 -0.064083248 -1.830081
-12.653809 -0.36933899 -1.8300402
-12.621782 -0.97917968 -1.8301136
-12.595283 -1.2834064 -1.8302276
-12.521347 -1.8897189 -1.8306103
-12.47396 -2.191503 -1.8308789
-12.419639 -2.4921649 -1.8311986
-12.215395 -3.3858993 -1.832464
-12.045107 -3.9734251 -1.8335609
-11.624008 -5.1230803 -1.8363544
-11.502187 -5.4043651 -1.8371762
-11.239136 -5.9585724 -1.8389648
-10.806303 -6.0674448 -1.7915792
-9.4824705 -6.946002 -1.6992278
-9.3184423 -7.1775193 -1.7003736
-9.1490088 -7.4053636 -1.7015601
-8.7940912 -7.8494487 -1.7040544
-8.6088181 -8.0654411 -1.7053605
-7.8174071 -8.8863707 -1.7109672
-7.6074414 -9.080267 -1.712461
-7.1736279 -9.45362 -1.7155547
-7.5481734 -10.461846 -1.8649336
-5.7226462 -11.662998 -1.8780508
-5.4455223 -11.810176 -1.8800515
-5.1646581 -11.950978 -1.8820814
-4.8802342 -12.085258 -1.8841392
-4.5924072 -12.212965 -1.8862237
-2.6551855 -7.6136723 -1.1656555
-2.4816942 -7.7094254 -1.1708087
-3.7099168 -12.555521 -1.8926283
-3.1073534 -12.749274 -1.897012
-2.185122 -12.986442 -1.9037372
-1.8735058 -13.050971 -1.9060136
-0.29144531 -13.261725 -1.9176027
0.028535156 -13.281143 -1.9199526
0.34927735 -13.292897 -1.9223105
0.67062497 -13.296938 -1.9246747
0.99236816 -13.293242 -1.927044
1.63625 -13.262517 -1.9317917
1.9580517 -13.235453 -1.9341674
3.5579345 -12.982727 -1.9460112
4.1899171 -12.826937 -1.9507045
5.4317822 -12.42226 -1.9599533
6.261528 -11.894182 -1.9431517
7.1444774 -11.473525 -1.9539152
7.4331393 -11.319207 -1.9576045
8.5549755 -10.632522 -1.9728231
8.6372948 -9.2732344 -1.8319825
8.866909 -9.0708313 -1.8337266
9.0915823 -8.862586 -1.8354357
9.3111715 -8.6485958 -1.837109
9.5255032 -8.4290457 -1.8387452
9.7345018 -8.2039623 -1.8403435
9.9379196 -7.9735293 -1.8419021
11.034497 -6.4865885 -1.8503698
11.585044 -6.0783606 -1.8912733
12.269477 -6.0646801 -1.9785476
12.639317 -5.8725009 -2.01475
12.784575 -5.5691171 -2.0159001
12.922177 -5.2619967 -2.0169945
13.052036 -4.9513993 -2.0180333
13.288188 -4.3202839 -2.0199394
13.582011 -3.3522246 -2.0223601
13.663554 -3.0246854 -2.0230477
13.801655 -2.3636904 -2.0242403
13.906084 -1.6961492 -2.0251865
13.976513 -1.0239093 -2.0258842
13.998891 -0.68658566 -2.0261385
14.014565 0.32736754 -2.0265241
13.869097 2.0105639 -2.0259016
13.814438 2.3440721 -2.025588
13.751343 2.6760943 -2.025212
13.679833 3.0063403 -2.0247736
13.511846 3.6606274 -2.0237114
13.310971 4.3051906 -2.0224044
12.041577 4.546948 -1.860721
11.797871 5.1178403 -1.8590792
11.665341 5.3982921 -1.8581784
10.900869 6.7438622 -1.8530352
9.3954096 6.4590878 -1.648219
7.6892285 6.4602208 -1.4518132
7.3237057 6.4607286 -1.4118125
9.6996727 5.1843576 -1.8436526
9.5670509 5.4141073 -1.8427377
9.284956 5.8629379 -1.8407807
8.9810591 6.2965989 -1.8386593
8.656723 6.7144361 -1.8364869
8.4874411 6.9173522 -1.8354465
7.5472217 6.4602098 -1.6653429
6.8500538 6.4611874 -1.5785024
6.2205906 6.4620667 -1.5035926
5.9274073 6.4624767 -1.4699868
5.6468797 6.4628658 -1.4386667
5.3779101 6.4632382 -1.409456
4.6308494 6.4642725 -1.3329799
4.1747851 6.4648995 -1.2900424
3.6977 6.3817725 -1.2363908
3.1533349 6.4817834 -1.20831
2.5923681 6.4825416 -1.1703475
0.90861326 6.4847775 -1.0976709
0.74964356 6.4849854 -1.0943271
0.59156251 6.4851928 -1.0916352
0.12065918 6.4858031 -1.0874124
-0.035800781 6.4860058 -1.0872747
-0.5062207 6.4866085 -1.0906646
-0.66399413 6.4868102 -1.0930746
-0.82254392 6.4870105 -1.0961336
-0.98208982 6.4872131 -1.0998515
-1.1428076 6.4874182 -1.1042386
-1.4686035 6.4878268 -1.1150784
-1.612998 6.4042306 -1.1070768
-1.7783642 6.4044361 -1.1142055
-1.9351025 6.3687916 -1.1158106
-2.082495 6.3031735 -1.1127881
-2.4096825 6.2620654 -1.124758
-2.5831494 6.2581725 -1.1349242
-3.1411035 6.2794213 -1.1769823
-3.3305664 6.2751708 -1.1909
-3.5246875 6.2708154 -1.2058603
-3.9076221 6.2284522 -1.2325559
-4.1391554 6.2570276 -1.257607
-4.3562937 6.2521544 -1.2773798
-4.580503 6.2471237 -1.2985525
-4.7868066 6.208724 -1.3141922
-5.0258203 6.2033606 -1.3383328
-5.3021193 6.2309289 -1.3714801
-6.7193017 6.1991234 -1.5325075
-7.007534 6.1588864 -1.5639024
-7.7509322 6.1759706 -1.6613265
-8.5503664 5.5568981 -1.7094187
-8.676899 5.3459702 -1.708431
-9.1323338 4.4757972 -1.7048471
-9.5536957 4.3997874 -1.7631774
-10.322363 3.8761132 -1.848332
-10.489526 3.3713255 -1.8469671
-10.69582 2.6016765 -1.8452438
-10.84812 1.820238 -1.8439146
-10.886767 1.5577612 -1.8435601
-10.945806 1.0306195 -1.8429852
-10.980425 0.50146604 -1.8425895
-10.988554 0.23646729 -1.8424591
-10.990537 -0.028632201 -1.842374
-10.986406 -0.2936981 -1.8423337
-10.95979 -0.82319272 -1.8423885
-10.90874 -1.350932 -1.8426238
-10.733745 -2.396862 -1.8436334
-10.539355 -3.1687548 -1.8448586
-10.380107 -3.6753688 -1.845896
-10.291709 -3.925904 -1.8464799
-10.19749 -4.1744032 -1.8471072
-10.0975 -4.4207416 -1.8477775
-9.8804245 -4.9064426 -1.849246
-9.7634029 -5.1455359 -1.8500438
-9.5127392 -5.6155992 -1.8517636
-9.3792381 -5.8463116 -1.8526849
-9.2186718 -6.0597887 -1.8493154
-8.7669134 -6.0706201 -1.7875524
-8.0950441 -6.2036042 -1.709638
-7.7960205 -6.5948505 -1.7117349
-7.6395946 -6.7853208 -1.7128357
-7.3133202 -7.1554461 -1.7151387
-6.79146 -7.6820154 -1.7188396
-6.6091795 -7.8495011 -1.7201369
-6.4228854 -8.012804 -1.7214645
-6.2326708 -8.1718321 -1.7228224
-5.8408298 -8.4766445 -1.7256254
-5.2260203 -8.8994646 -1.7300382
-4.581162 -9.2788715 -1.7346838
-4.1361084 -9.5065842 -1.7378989
-3.9964404 -10.54936 -1.8910536
-2.6689012 -7.5930014 -1.3491681
-2.1819239 -11.148182 -1.9042501
-1.6451659 -11.263585 -1.9081705
-1.3744384 -11.311708 -1.9101503
-0.27949706 -11.439363 -1.9181759
-0.0035205078 -11.454871 -1.9202032
0.55004394 -11.465977 -1.9242748
0.82731444 -11.461528 -1.9263167
1.3820019 -11.432513 -1.9304075
1.6591064 -11.407954 -1.9324538
2.4874268 -11.293836 -1.9385812
2.7619922 -11.242336 -1.9406158
3.3078172 -11.119236 -1.9446664
3.8481054 -10.969393 -1.9486831
4.1157618 -10.884506 -1.950676
5.1658545 -10.479328 -1.9585131
5.2264647 -9.4266729 -1.8068357
5.9110985 -9.049798 -1.8119754
6.3522606 -8.7702627 -1.8152969
6.567822 -8.62222 -1.8169231
6.9881835 -8.309967 -1.8201003
7.1926856 -8.1459246 -1.8216494
7.3932323 -7.976738 -1.8231708
7.5896873 -7.8024783 -1.824663
7.7818942 -7.6232595 -1.8261256
7.9697213 -7.4391794 -1.8275572
8.1530809 -7.2503433 -1.828957
8.3318062 -7.0568609 -1.8303242
8.5057812 -6.8588409 -1.8316575
8.6748877 -6.6564121 -1.8329562
8.8389845 -6.4496961 -1.834219
8.997983 -6.2388024 -1.8354455
9.2395411 -6.0816398 -1.8542492
9.7262983 -6.0709677 -1.9219818
10.548418 -5.5675449 -1.9994409
10.816025 -5.0576982 -2.0015464
11.057935 -4.5345731 -2.0034664
11.169047 -4.2684445 -2.0043552
11.461982 -3.4538326 -2.0067282
11.545918 -3.17747 -2.0074196
11.860209 -1.7676135 -2.0101085
11.901655 -1.4813244 -2.0104897
11.994926 -0.32804564 -2.0114834
11.997837 0.25080261 -2.0116591
11.971553 0.82907838 -2.0116196
11.877553 1.6920727 -2.0111575
11.778769 2.2622344 -2.0105822
11.718637 2.5452037 -2.010215
11.407607 3.6586499 -2.0082221
11.210615 4.201776 -2.0069168
10.903051 4.3892384 -1.9702417
10.003881 4.5996432 -1.845736
9.7616644 5.0721679 -1.8440791
9.0564108 6.1933126 -1.8391865
8.8990774 6.4061022 -1.8380852
7.7273874 6.4599557 -1.6883749
6.6813865 6.4614234 -1.5580827
5.7808738 6.4626794 -1.4535198
5.2430468 6.4634266 -1.3951312
4.9897413 6.4637766 -1.3688232
4.7456689 6.4641137 -1.3442578
3.8068407 6.3971152 -1.2478733
3.5922461 6.3819165 -1.2276441
3.0540428 6.4819174 -1.2011411
2.3212109 6.4829049 -1.1542991
1.8046191 6.4835949 -1.1281686
1.6372607 6.4838171 -1.1210078
1.4719189 6.4840355 -1.1145831
1.3083594 6.4842539 -1.1088706
1.1463819 6.4844666 -1.1038557
0.98576659 6.4846764 -1.0995244
0.82630855 6.4848862 -1.0958596
0.51011717 6.4852991 -1.0904971
0.35299316 6.4855027 -1.0887829
0.19627441 6.4857044 -1.0877053
0.039765622 6.485908 -1.0872613
-0.27330565 6.486311 -1.0882734
-0.43024412 6.4865112 -1.0897317
-1.0650097 6.487318 -1.1020344
-1.2264258 6.4875231 -1.1067731
-1.3893212 6.4877281 -1.1122038
-1.5338476 6.4041295 -1.1038955
-1.6982129 6.4043369 -1.1106697
-2.1693702 6.3012257 -1.1171325
-2.6740918 6.2561316 -1.1405121
-2.8678856 6.285553 -1.158152
-3.0511377 6.2814417 -1.1706176
-3.2384911 6.277236 -1.1840487
-3.4303124 6.272933 -1.1984999
-3.6076953 6.2351828 -1.2075657
-3.8085742 6.2306762 -1.2241316
-4.0151658 6.2260399 -1.2418913
-4.2505565 6.2545276 -1.2676592
-4.4712791 6.2495737 -1.2881448
-4.6743946 6.2112474 -1.3031098
-4.9092774 6.2059751 -1.3264658
-5.180449 6.2336597 -1.3587024
-5.9444237 6.1827455 -1.4377553
-6.231792 6.1762962 -1.4707896
-8.0713959 6.2684045 -1.7131337
-8.2149115 6.0679784 -1.7120239
-8.616396 5.4482069 -1.7089037
-8.8592434 5.0207543 -1.7070024
-9.0816994 4.5829687 -1.7052482
-9.2844582 4.4076304 -1.7228494
-9.8560982 4.390924 -1.8087405
-10.66625 2.7264893 -1.8454946
-10.725947 2.4677539 -1.8449862
-10.90437 1.4217535 -1.8433944
-10.957105 0.89400816 -1.8428657
-10.974292 0.62939513 -1.8426688
-10.98538 0.36450011 -1.8425165
-10.990341 0.099420168 -1.8424095
-10.981874 -0.4306671 -1.8423306
-10.891572 -1.4869238 -1.8427138
-10.853774 -1.7493832 -1.8429223
-10.809912 -2.0109363 -1.8431754
-10.76 -2.2714362 -1.8434734
-10.704082 -2.530776 -1.843816
-10.642163 -2.78879 -1.8442031
-10.500454 -3.3003705 -1.8451099
-10.335132 -3.8051305 -1.8461925
-10.24372 -4.054637 -1.8467988
-10.04357 -4.5472126 -1.8481408
-9.9349165 -4.7900238 -1.848876
-9.5752831 -5.5031071 -1.8513333
-9.4443846 -5.7352433 -1.852235
-9.3080759 -5.9643979 -1.8531772
-8.981328 -6.0655007 -1.8167371
-8.1644678 -6.1071324 -1.7091528
-7.8699412 -6.5015922 -1.7112157
-7.5569577 -6.8823938 -1.7134181
-7.3937302 -7.0674 -1.7145703
-7.2261133 -7.2486887 -1.7157557
-7.054204 -7.4261284 -1.7169738
-6.878037 -7.5996456 -1.7182243
-6.6977391 -7.7691216 -1.7195064
-6.5133691 -7.9344583 -1.7208194
-6.3250437 -8.0955582 -1.7221627
-6.1328321 -8.2523336 -1.7235358
-5.5338864 -8.6957273 -1.7278264
-5.1169481 -8.9680128 -1.7308229
-4.9035153 -9.096879 -1.7323595
-4.467236 -9.3397036 -1.7355061
-4.2445898 -9.4534864 -1.7371147
-4.3649998 -10.384996 -1.8883843
-2.4056885 -7.7381191 -1.3583963
-3.0988281 -10.887443 -1.8975706
-2.8381836 -10.969972 -1.8994671
-2.3105371 -11.116533 -1.9033121
-1.5053955 -11.289258 -1.9091924
-1.2339453 -11.334063 -1.9111786
-0.96123046 -11.372401 -1.9131756
-0.68736327 -11.404231 -1.9151831
-0.1369043 -11.448213 -1.9192232
0.41621581 -11.465734 -1.9232898
0.69336426 -11.464506 -1.9253302
0.97071284 -11.456601 -1.9273736
1.2480664 -11.441984 -1.929419
2.0786622 -11.35782 -1.9355553
2.6294873 -11.268056 -1.9396337
2.9035351 -11.213093 -1.9416656
3.1764405 -11.151416 -1.9436908
3.4480565 -11.083056 -1.9457083
3.9867139 -10.926334 -1.9497148
5.1138816 -9.4824915 -1.8059919
5.8026462 -9.1139507 -1.81116
5.7599802 -7.7473311 -1.6183428
6.8880076 -8.3873329 -1.8193425
7.0943894 -8.225812 -1.8209045
7.296865 -8.0591049 -1.8224394
7.495317 -7.8872795 -1.8239459
7.6895947 -7.710444 -1.8254229
7.8795557 -7.5286961 -1.8268696
8.5938129 -6.7547345 -1.8323332
8.7603369 -6.5500736 -1.8336134
8.9218311 -6.3411803 -1.8348577
9.0781441 -6.1281829 -1.8360651
10.333872 -5.9362736 -1.9977633
10.480039 -5.6885462 -1.9989053
10.75372 -5.1821055 -2.0010545
11.116206 -4.3973584 -2.0039318
11.586592 -3.033756 -2.0077572
11.659966 -2.7542684 -2.0083718
11.785518 -2.1899445 -2.0094461
11.837626 -1.905483 -2.0099056
11.973921 -0.75674009 -2.0112147
11.989848 -0.46776062 -2.011409
11.998491 -0.1784613 -2.0115495
11.999814 0.11099731 -2.0116363
11.993837 0.40038818 -2.0116694
11.960019 0.97826719 -2.0115743
11.89709 1.5536493 -2.0112646
11.805254 2.1250141 -2.0107405
11.684755 2.6908488 -2.0100043
11.451094 3.5259924 -2.0085068
10.54559 4.398921 -1.9154083
9.9435396 4.7229757 -1.8453249
9.5624361 5.4218431 -1.8427058
8.9757175 6.3038278 -1.838622
8.8156834 6.5144935 -1.8375001
8.6510448 6.7213941 -1.8364521
8.4815969 6.9241562 -1.8354105
7.5347509 6.460227 -1.6637603
7.177485 6.4607272 -1.6188183
6.5169969 6.4616528 -1.53842
6.2104249 6.462081 -1.5024139
5.3689694 6.4632506 -1.4085002
5.1108932 6.4636097 -1.3813057
4.8624606 6.4639525 -1.3559141
4.6228614 6.4642835 -1.3321998
4.3913527 6.4646006 -1.3100517
3.301743 6.4031272 -1.2076628
3.1467919 6.481792 -1.2078313
2.7691698 6.4823022 -1.1816363
2.4067481 6.4827905 -1.1591929
1.8862548 6.4834862 -1.1318977
1.7178417 6.4837093 -1.1243743
1.5515381 6.4839306 -1.1175963
1.0631884 6.4845762 -1.1015325
0.90319335 6.4847851 -1.0975468
0.58621091 6.485199 -1.091556
0.42882323 6.485405 -1.0895318
-0.19762695 6.4862118 -1.087797
-0.35437986 6.4864144 -1.0889478
-0.51156247 6.4866147 -1.0907366
-0.66935056 6.4868164 -1.0931673
-0.82793945 6.4870167 -1.0962485
-1.1482812 6.4874244 -1.1044
-1.3104346 6.487628 -1.1094934
-1.4709228 6.473475 -1.1128199
-1.6185693 6.4042382 -1.1073071
-2.4155126 6.2619333 -1.1250905
-2.7807274 6.2875071 -1.1524639
-3.1474559 6.2792783 -1.1774358
-3.5313475 6.2706652 -1.2063862
-3.914624 6.2282968 -1.2331594
-4.3637743 6.251987 -1.2780744
-4.5882373 6.2469492 -1.2992958
-4.7947803 6.2085462 -1.3149831
-5.0610008 6.23634 -1.3463418
-5.3107567 6.2307348 -1.372393
-5.5705271 6.224906 -1.4003044
-6.0913525 6.1794481 -1.4545386
-6.730083 6.1988816 -1.5338101
-7.0188279 6.1586328 -1.5652951
-8.4234324 5.7579517 -1.7104064
-8.5547409 5.5497875 -1.7093846
-8.6810884 5.3387632 -1.7083983
-9.0298634 4.6895933 -1.7056582
-10.233222 4.1171813 -1.8490524
-10.325391 3.8676097 -1.8483075
-10.492148 3.3627002 -1.8469454
-10.566674 3.1076305 -1.8463291
-10.635254 2.8509789 -1.8457559
-10.920337 1.2855663 -1.8432406
-10.946596 1.0216632 -1.8429769
-10.980791 0.49247679 -1.8425844
-10.988715 0.22746886 -1.8424554
-10.986167 -0.30268675 -1.8423331
-10.95913 -0.83215511 -1.842391
-10.907671 -1.3598596 -1.8426293
-10.872798 -1.6227161 -1.842816
-10.83185 -1.8847136 -1.8430476
-10.784858 -2.14575 -1.8433239
-10.731835 -2.4056587 -1.843645
-10.607812 -2.9216242 -1.8444206
-10.536856 -3.1774099 -1.8448747
-10.45998 -3.431541 -1.8453729
-9.7593508 -5.1536016 -1.8500713
-9.6365719 -5.3899426 -1.8509121
-9.5083055 -5.6234703 -1.8517941
-9.202837 -6.0601707 -1.8471345
-8.7521191 -6.0709715 -1.7855471
-8.330039 -6.0809216 -1.7288644
-8.0901318 -6.2103562 -1.7096725
-7.9427977 -6.4075351 -1.7107044
-7.790791 -6.6013651 -1.7117716
-7.6342235 -6.791718 -1.7128735
-6.4165039 -8.0182705 -1.7215102
-6.2261472 -8.1771517 -1.7228689
-6.0319724 -8.3316402 -1.724257
-5.4274168 -8.7679415 -1.7285908
-5.2188864 -8.904007 -1.7300895
-4.5737062 -9.2829046 -1.7347375
-4.237246 -10.443734 -1.8893092
-3.9879394 -10.552983 -1.8911151
-3.2239306 -10.845393 -1.8966609
-2.4386914 -11.083405 -1.9023776
-0.81978512 -11.389676 -1.9142121
-0.54540527 -11.418125 -1.9162244
-0.27014649 -11.440001 -1.9182446
0.0058691404 -11.455279 -1.9202722
0.28245115 -11.463935 -1.9223057
0.83672363 -11.461262 -1.9263862
1.1140966 -11.449891 -1.9284309
1.3914111 -11.431807 -1.9304769
1.6684813 -11.406991 -1.932523
2.4967577 -11.292189 -1.9386504
2.7712841 -11.24047 -1.9406848
3.0447705 -11.182035 -1.9427134
3.8572071 -10.966611 -1.9487509
4.1248093 -10.8815 -1.9507432
4.3905177 -10.7898 -1.9527235
6.3596482 -8.7653341 -1.8153528
6.5750585 -8.6171112 -1.8169776
6.9951806 -8.3044825 -1.8201534
7.1995602 -8.1402655 -1.8217014
7.399951 -7.9709144 -1.8232217
7.7883396 -7.6170983 -1.8261746
7.9760299 -7.4328504 -1.8276052
8.3377781 -7.0502167 -1.8303698
8.8444576 -6.4426169 -1.8342612
9.0033636 -6.2315788 -1.835487
9.7433987 -6.0705895 -1.9243813
10.689926 -5.3057008 -2.0005519
10.944341 -4.7888432 -2.0025623
11.374331 -3.7186399 -2.0060124
11.548662 -3.1680496 -2.0074422
11.62541 -2.8895218 -2.0080812
11.695127 -2.6090453 -2.0086691
11.936904 -1.1842602 -2.0108283
11.983067 -0.60740048 -2.0113218
12.000073 -0.028816527 -2.011601
11.970844 0.83887696 -2.0116169
11.946528 1.1273071 -2.0115149
11.876127 1.7017852 -2.0111496
11.71647 2.5547709 -2.0102015
11.492964 3.3927875 -2.0087795
11.30917 3.9407141 -2.0075727
10.878994 4.3898911 -1.9665411
10.207299 4.4080286 -1.8638055
9.7573729 5.0800672 -1.8440495
9.6273146 5.3113499 -1.843154
9.4915571 5.5391893 -1.8422152
9.350215 5.763442 -1.8412347
9.2033834 5.9839454 -1.8402125
9.0511522 6.2005968 -1.8391497
8.7310982 6.6218834 -1.8369405
8.5640869 6.8267503 -1.8359188
7.7145605 6.4599743 -1.6867269
7.3476071 6.4604907 -1.6400982
6.6704736 6.4614391 -1.5567706
6.356699 6.4618773 -1.5194827
5.7713819 6.4626927 -1.4524615
5.4973435 6.4630737 -1.4223241
4.7375488 6.4641247 -1.3434529
4.2746286 6.4647617 -1.2991799
3.3856542 6.3821983 -1.2110755
2.8588672 6.4821825 -1.187606
2.6741309 6.4824314 -1.1754897
2.3152294 6.4829135 -1.153963
1.9684325 6.4833775 -1.1358064
1.4663378 6.4840441 -1.1143769
1.3028369 6.4842601 -1.1086888
1.140913 6.4844737 -1.1036987
0.82091308 6.4848938 -1.0957469
0.6624707 6.4850998 -1.0927633
0.034472656 6.4859152 -1.0872589
-0.43558106 6.4865184 -1.089793
-0.9103027 6.4871225 -1.0980995
-1.0704736 6.4873252 -1.1021851
-1.2319238 6.4875293 -1.1069468
-1.7038232 6.4043431 -1.1109123
-1.8704003 6.404552 -1.1184503
-2.0075634 6.3048558 -1.1091796
-2.1751025 6.301096 -1.1174259
-2.3327539 6.2637901 -1.1204643
-2.5048485 6.2599292 -1.1302552
-2.680083 6.2559972 -1.1408881
-2.874043 6.2854137 -1.1585618
-3.0574219 6.2813001 -1.1710557
-3.2449217 6.277092 -1.1845225
-3.8154783 6.2305212 -1.2247132
-4.2579346 6.2543616 -1.2683342
-4.4788914 6.249403 -1.2888649
-4.6822166 6.2110705 -1.3038763
-5.188921 6.233469 -1.3595865
-5.4437304 6.2277513 -1.3865806
-5.7090282 6.2217965 -1.415509
-5.9539695 6.1825304 -1.4388365
-6.2417822 6.1760716 -1.4719534
-6.5782862 6.2022901 -1.5155824
-6.8961716 6.1947117 -1.553936
-7.5855269 6.1796823 -1.6401272
-8.6206684 5.441052 -1.7088704
-9.0853024 4.5754676 -1.7052197
-9.8765135 4.390326 -1.8118273
-10.281607 3.9884214 -1.8486619
-10.370747 3.7378099 -1.8479389
-10.454038 3.4853039 -1.8472587
-10.531425 3.2310503 -1.8466214
-10.602871 2.9751396 -1.8460274
-10.727861 2.4589484 -1.8449697
-10.828789 1.9378289 -1.8440881
-10.870171 1.6757404 -1.8437138
-10.905469 1.4128174 -1.8433839
-10.934688 1.149212 -1.8430988
-10.957788 0.88502622 -1.8428582
-10.97478 0.62040466 -1.8426626
-10.990396 0.090433955 -1.8424066
-10.989023 -0.17467284 -1.8423462
-10.981528 -0.43966734 -1.8423307
-10.948164 -0.9687683 -1.8424354
-10.922334 -1.2326361 -1.8425552
-10.852373 -1.7582669 -1.8429302
-10.808315 -2.0197906 -1.8431848
-10.571865 -3.0540488 -1.8446499
-10.332129 -3.813621 -1.8462123
-9.8166456 -5.0384774 -1.8496803
-9.5709372 -5.5110197 -1.8513632
-9.4398384 -5.7430615 -1.8522662
-8.0145407 -6.3127069 -1.7102017
-7.8647752 -6.5081706 -1.711252
-7.2203708 -7.254766 -1.7157964
-6.5070505 -7.9399862 -1.7208645
-6.3185983 -8.1009426 -1.7222086
-5.5269189 -8.7005119 -1.7278764
-4.8962207 -9.1011658 -1.7324121
-4.6794968 -9.2249298 -1.7339742
-4.2369971 -9.4572468 -1.7371696
-4.108706 -10.500935 -1.8902401
-3.8579443 -10.607162 -1.8920577
-2.5737402 -7.6455016 -1.3523009
-2.3997169 -7.7412467 -1.3586003
-2.5664258 -11.048832 -1.9014465
-2.3015234 -11.118803 -1.9033777
-2.0347412 -11.182493 -1.9053243
-1.7662597 -11.239886 -1.9072855
-1.496206 -11.290894 -1.9092596
-1.2247168 -11.335484 -1.9112459
-0.95194334 -11.373596 -1.9132437
-0.67805177 -11.405204 -1.9152513
-0.40321776 -11.430249 -1.9172677
0.42560059 -11.465805 -1.9233589
0.70277339 -11.464359 -1.9253994
1.8115966 -11.391536 -1.9335806
2.3638232 -11.314768 -1.9376657
2.6387939 -11.266297 -1.9397027
2.9128075 -11.211108 -1.9417343
3.4572606 -11.080616 -1.9457766
3.9957714 -10.92345 -1.9497823
4.7895751 -10.638163 -1.9557012
5.1217918 -9.4786291 -1.8060513
5.3540869 -9.3613482 -1.8077923
5.5836377 -9.2382765 -1.8095148
6.0339112 -8.975028 -1.8128991
5.7655125 -7.7415161 -1.6180801
6.6850681 -8.5383406 -1.8178085
7.3036718 -8.0533514 -1.8224909
7.6960983 -7.7043543 -1.8254725
7.8859229 -7.522449 -1.8269181
8.0713186 -7.335731 -1.8283324
8.2521143 -7.1443291 -1.8297143
8.599555 -6.7478647 -1.8323773
8.7659225 -6.5430565 -1.8336564
8.9272165 -6.3340278 -1.8348993
9.5034466 -6.0758777 -1.8908324
10.009936 -6.0646696 -1.9619297
10.758149 -5.1733813 -2.0010893
10.885259 -4.9148855 -2.002094
11.11997 -4.3883195 -2.0039618
11.589185 -3.0243218 -2.0077789
11.728413 -2.4633551 -2.0089531
11.839257 -1.8958218 -2.0099201
11.88394 -1.6100384 -2.0103252
11.921387 -1.3231659 -2.0106771
11.990258 -0.45795226 -2.0114145
11.998642 -0.16863158 -2.0115533
11.993501 0.4102008 -2.0116696
11.97999 0.69935119 -2.0116472
11.959185 0.98806149 -2.0115709
11.931108 1.2761176 -2.011441
11.895771 1.563374 -2.0112572
11.803442 2.1346729 -2.0107298
11.746523 2.4183044 -2.0103865
11.68247 2.7003894 -2.0099902
11.611338 2.9807103 -2.009541
11.533198 3.2590892 -2.0090401
11.257216 4.0807223 -2.0072274
11.151591 4.3495274 -2.0065215
10.522818 4.3995337 -1.9119285
9.9395161 4.7310472 -1.8452973
9.2749949 5.877893 -1.8407114
8.9703808 6.3110447 -1.8385845
8.4757814 6.9309607 -1.8353744
7.5222945 6.4602442 -1.6621748
6.8276658 6.4612179 -1.5757791
6.5063572 6.4616685 -1.5371562
5.1023092 6.4636207 -1.3804147
4.1598096 6.4649191 -1.2886859
3.6837742 6.3817921 -1.2352209
3.4814746 6.3820677 -1.2186674
2.4007177 6.4827991 -1.1588442
2.2245166 6.4830346 -1.1489571
2.0512011 6.4832678 -1.1398971
1.8804932 6.4834948 -1.1316303
1.7121631 6.4837179 -1.1241331
1.5459374 6.4839377 -1.1173794
1.2189502 6.4843698 -1.106023
0.7388916 6.4849997 -1.0941228
0.2666162 6.4856153 -1.0881108
0.11003418 6.4858165 -1.0873834
-0.35971192 6.4864221 -1.0889982
-0.51690918 6.4866209 -1.0908087
-0.67471188 6.4868236 -1.0932606
-0.8333447 6.4870248 -1.0963652
-0.99295408 6.4872274 -1.1001278
-1.1537499 6.4874301 -1.1045616
-1.315957 6.4876342 -1.1096786
-1.4709277 6.44906 -1.1088276
-1.7896582 6.4044495 -1.1147151
-1.9341503 6.3284068 -1.1092874
-2.0938623 6.3029184 -1.1133469
-2.7868211 6.2873707 -1.1528567
-2.9683545 6.283298 -1.164902
-3.5380321 6.270514 -1.2069137
-3.7176855 6.2327161 -1.2165494
-4.3712792 6.2518177 -1.2787712
-5.0693164 6.2361536 -1.3471965
-5.3194089 6.2305408 -1.3733102
-5.5795116 6.2247033 -1.4012841
-6.1011276 6.1792283 -1.4556642
-7.0301218 6.1583786 -1.5666904
-7.4122214 6.1835718 -1.6181256
-7.7763181 6.1754017 -1.6645993
-8.1510401 6.1583896 -1.7125181
-8.427969 5.7509251 -1.7103713
-8.5590963 5.5426841 -1.7093506
-8.685298 5.3315539 -1.7083654
-8.9225636 4.9011521 -1.7065043
-9.0335493 4.6821361 -1.7056291
-10.138681 4.3562779 -1.8498119
-10.23645 4.1087537 -1.8490263
-10.328408 3.8591039 -1.8482831
-10.494785 3.3540709 -1.8469238
-10.569101 3.0989513 -1.8463088
-10.699878 2.5841136 -1.8452091
-10.756269 2.3246722 -1.844725
-10.806621 2.0640929 -1.8442849
-10.889179 1.5399151 -1.8435377
-10.967334 0.7482751 -1.8427516
-10.975248 -0.57657528 -1.8423405
-10.958467 -0.84111756 -1.8423934
-10.935571 -1.1052508 -1.8424917
-10.830361 -1.8935864 -1.8430563
-10.670712 -2.6730731 -1.8440238
-10.457255 -3.4401407 -1.8453906
-10.090498 -4.4373889 -1.8478247
-9.9844141 -4.6812634 -1.8485407
-9.7552586 -5.1616697 -1.8500994
-9.5038624 -5.6313438 -1.8518248
-9.3699608 -5.8618546 -1.852749
-9.187026 -6.0605531 -1.844956
-8.7373238 -6.0713229 -1.7835451
-7.7855515 -6.6078739 -1.7118084
-7.3019285 -7.1677451 -1.7152193
-7.1319528 -7.3469129 -1.7164227
-6.9576659 -7.5222087 -1.717659
-6.4101171 -8.0237293 -1.7215556
-5.4203906 -8.7726374 -1.7286413
-5.2117481 -8.9085388 -1.7301409
-4.9997849 -9.0396051 -1.7316661
-4.784575 -9.1657677 -1.7332166
-4.5662599 -9.2869234 -1.7347914
-4.2288327 -10.447532 -1.8893701
-2.657207 -7.5994582 -1.3495418
-2.4840136 -7.6949887 -1.3554704
-3.2151709 -10.848393 -1.8967247
-2.4297118 -11.085789 -1.9024429
-2.1638379 -11.152514 -1.9043821
-1.8961474 -11.212962 -1.9063363
-1.6268262 -11.267051 -1.9083045
-1.3560205 -11.314734 -1.9102851
-1.0838623 -11.355998 -1.9122775
-0.81047851 -11.390743 -1.9142803
-0.53609371 -11.418971 -1.9162925
0.56885254 -11.465896 -1.9244132
0.84614253 -11.460981 -1.9264555
1.1235205 -11.449385 -1.9285003
1.6778857 -11.40603 -1.9325924
1.9545605 -11.374272 -1.9346374
2.7805712 -11.238605 -1.9407536
3.0540233 -11.179936 -1.9427819
3.5970459 -11.042543 -1.9468156
4.3995066 -10.786573 -1.9527905
4.6630468 -10.688071 -1.9547566
5.1833496 -10.471554 -1.958644
5.0086718 -9.5331745 -1.8052042
5.7011914 -9.1724167 -1.8103976
6.1482615 -8.9033175 -1.81376
7.0021725 -8.2990046 -1.8202063
9.2714939 -6.0809455 -1.8586614
9.7606201 -6.0702085 -1.9267981
10.26627 -6.046258 -1.9972365
10.557929 -5.5504832 -1.9995153
11.280313 -3.9811549 -2.0052505
11.467891 -3.4351459 -2.0067766
11.551372 -3.158633 -2.0074646
11.697368 -2.5994995 -2.0086882
11.759785 -2.3172269 -2.009223
11.863261 -1.7482318 -2.0101361
11.937944 -1.1745007 -2.0108385
11.964399 -0.88634151 -2.0111101
11.983599 -0.59760189 -2.0113285
11.995512 -0.30841124 -2.011493
12.000112 -0.018997801 -2.0116041
11.997432 0.27042845 -2.0116613
11.987422 0.5597223 -2.0116646
11.970146 0.84866822 -2.0116146
11.945571 1.1370789 -2.0115104
11.91375 1.4247333 -2.0113528
11.828374 1.9971429 -2.0108767
11.571831 3.1248791 -2.0092888
11.490058 3.4021764 -2.0087607
10.855009 4.390542 -1.9628543
9.9960451 4.6158762 -1.8456827
9.8774757 4.853508 -1.8448733
9.4868603 5.5468554 -1.8421828
9.3453369 5.7709861 -1.8412008
9.0458889 6.2078748 -1.839113
8.7255173 6.6289282 -1.8369067
8.5583248 6.8336215 -1.8358833
7.7017722 6.4599924 -1.6850877
7.3355126 6.4605079 -1.6385779
5.7618995 6.4627061 -1.4514052
5.4882421 6.4630847 -1.4213389
4.9728856 6.4637985 -1.3671025
4.7294288 6.4641366 -1.3426529
3.7926953 6.3971338 -1.246663
3.5785155 6.3819361 -1.2265186
3.3789697 6.3822083 -1.2105489
2.8525391 6.4821897 -1.1871793
2.6679344 6.482439 -1.1750942
2.4869483 6.4826832 -1.1639243
1.9626416 6.4833851 -1.135525
1.6259863 6.4838328 -1.120549
1.4607617 6.4840503 -1.1141723
0.97491211 6.4846911 -1.0992537
0.81552732 6.4848986 -1.095636
0.18563965 6.4857187 -1.0876559
0.029150389 6.4859214 -1.0872546
-0.28393555 6.4863243 -1.0883533
-0.7566064 6.4869275 -1.094784
-0.91571778 6.4871302 -1.0982268
