# .PCD v0.7 - Point Cloud Data file format
VERSION 0.7
FIELDS x y z
SIZE 4 4 4
TYPE F F F
COUNT 1 1 1
WIDTH 1498
HEIGHT 1
VIEWPOINT 0 0 0 1 0 0 0
POINTS 1498
DATA ascii
6.5553708 -2.1210723 -1.9714711
6.6059666 -1.9626946 -1.9718667
6.6526365 -1.8030847 -1.9722347
6.6953611 -1.6423455 -1.9725751
6.7340722 -1.4805682 -1.9728873
6.8487692 -0.82516295 -1.9738531
6.8981833 -0.16139221 -1.9743577
6.9002438 0.0050799558 -1.974411
6.8982129 0.17155579 -1.9744352
6.8920407 0.33793029 -1.9744302
6.8673925 0.66996151 -1.9743323
6.848877 0.83540893 -1.9742395
6.8263083 1.00034 -1.9741176
6.7342772 1.491004 -1.9735788
6.5010448 2.2889197 -1.9721099
6.3145895 2.7513928 -1.9708947
6.1715527 3.0513287 -1.9699496
6.0945606 3.1985033 -1.9694378
6.0139747 3.3436944 -1.9689
5.9298534 3.4868169 -1.9683365
5.7512403 3.7665007 -1.9671347
5.5591893 4.0368681 -1.9658352
5.4582715 4.1683621 -1.9651498
5.2469921 4.423564 -1.9637105
5.0854688 4.5017071 -1.943352
4.8534861 4.5098186 -1.8957391
4.6322656 4.5173664 -1.8513801
4.2975974 4.6159415 -1.8046175
4.1831837 4.7162189 -1.8038292
3.9472363 4.9080853 -1.8022003
3.5768456 5.1733246 -1.7996345
3.4492869 5.255528 -1.7987491
3.188535 5.4103336 -1.7969354
2.9207909 5.5520697 -1.7950692
2.7845213 5.6179423 -1.794118
2.5075781 5.739522 -1.792182
2.3670897 5.7951641 -1.7911983
2.2253516 5.847342 -1.790205
1.9385253 5.9411945 -1.7881924
1.5011816 6.0553994 -1.7851168
0.75925779 6.1738968 -1.7798818
0.46002927 6.1959538 -1.7777646
-0.13885742 6.1966057 -1.7735168
-0.28813475 6.1877518 -1.772456
-0.43707031 6.175302 -1.7713968
-0.58558595 6.1592813 -1.7703396
-0.88095701 6.1165824 -1.7682345
-1.1736035 6.0597992 -1.7661456
-1.3186816 6.0261784 -1.7651089
-1.7480078 5.904737 -1.7620355
-1.8888769 5.8574848 -1.7610253
-2.4390235 5.6355252 -1.7570716
-2.572871 5.5719843 -1.7561076
-2.7050781 5.5052958 -1.7551543
-2.8355956 5.4355121 -1.7542123
-2.9643457 5.3626738 -1.7532821
-3.0912304 5.2868266 -1.7523645
-3.2162206 5.2080154 -1.7514596
-3.3392186 5.126297 -1.7505684
-3.4602051 5.0417166 -1.7496905
-3.5790527 4.9543219 -1.7488272
-3.8102148 4.7713151 -1.7471452
-4.5747657 4.4921646 -1.8345758
-4.791914 4.4834991 -1.8777175
-5.4178224 3.7656305 -1.8879129
-5.5052052 3.6325727 -1.8872621
-5.5893946 3.4975297 -1.8866335
-5.670332 3.3605864 -1.8860277
-5.7479687 3.2218096 -1.8854448
-5.8223047 3.0812809 -1.884885
-6.1428418 2.3551183 -1.8824427
-6.1965036 2.2057464 -1.8820274
-6.2466111 2.0551844 -1.881637
-6.2931542 1.9035107 -1.8812716
-6.336113 1.7508093 -1.8809314
-6.4431639 1.2873962 -1.8800646
-6.5480466 0.50236082 -1.8791385
-6.5578809 0.34421447 -1.8790319
-6.5599608 -0.28929749 -1.8788699
-6.5024705 -0.92021972 -1.8791311
-6.478828 -1.0769061 -1.8792623
-6.4514942 -1.2330041 -1.8794202
-6.3858495 -1.5430981 -1.8798138
-6.3475585 -1.6969274 -1.8800496
-6.2110543 -2.1525412 -1.8809122
-6.1584277 -2.3021746 -1.8812506
-5.9795117 -2.7432353 -1.8824172
-5.9129686 -2.8873668 -1.8828558
-5.8430271 -3.0299282 -1.8833188
-5.6930857 -3.3100116 -1.8843172
-5.2614355 -3.9772322 -1.8872237
-5.1657324 -4.1044245 -1.8878732
-4.9653125 -4.3519764 -1.8892373
-4.8607321 -4.4721899 -1.8899511
-4.753252 -4.5899401 -1.890686
-4.5299802 -4.8177805 -1.8922169
-4.4142575 -4.9277334 -1.893012
-4.2959471 -5.0349655 -1.8938264
-4.0516601 -5.2409959 -1.8955113
-3.7976756 -5.4353685 -1.8972677
-3.6671679 -5.5280414 -1.8981719
-3.5344532 -5.6176262 -1.8990923
-3.2626073 -5.7873325 -1.9009811
-2.8131347 -5.9607577 -1.8859913
-2.6406348 -5.9639368 -1.8662908
-2.3055565 -5.9696021 -1.831086
-1.6678027 -5.9784079 -1.7759564
-1.3664551 -6.0042553 -1.7619762
-1.2220312 -6.0389624 -1.7629925
-1.0766602 -6.0702128 -1.7640164
-0.78351563 -6.1222515 -1.7660836
-0.48783201 -6.1601915 -1.7681721
-0.3392871 -6.1738343 -1.7692224
-0.19035156 -6.1839066 -1.7702768
-0.04111328 -6.1903915 -1.7713336
0.10829102 -6.1932831 -1.7723927
0.2578418 -6.1925721 -1.7734536
0.40740234 -6.1882505 -1.7745154
0.55693358 -6.1803207 -1.775578
0.70627928 -6.1687684 -1.7766399
0.85541987 -6.1536093 -1.7777014
1.4479883 -6.0569019 -1.7819266
2.2144823 -5.9685636 -1.8215803
2.545918 -5.96278 -1.8551774
3.2499707 -5.9483361 -1.9395087
3.4078906 -5.894701 -1.9482697
3.692168 -5.7294869 -1.9503245
3.9682813 -5.550405 -1.9523245
4.2356052 -5.3578415 -1.9542654
4.4934373 -5.1522288 -1.9561419
4.6185837 -5.0446835 -1.9570545
4.7411227 -4.9340391 -1.9579495
4.9780173 -4.7037544 -1.9596832
5.5191212 -4.078743 -1.9636663
5.8059278 -3.6728897 -1.9657949
5.894834 -3.5329382 -1.9664581
6.2154589 -2.9520614 -1.9688672
6.3540134 -2.6502197 -1.9699198
6.417695 -2.496774 -1.9704072
6.4775782 -2.3417621 -1.9708679
6.5336227 -2.1852813 -1.9713018
6.6784177 -1.7080255 -1.9724396
6.7187595 -1.5466626 -1.9727633
6.7551465 -1.3843212 -1.9730591
6.7875094 -1.2211114 -1.9733266
6.8400488 -0.8924762 -1.9737756
6.8763084 -0.56158322 -1.9741096
6.8882713 -0.39554992 -1.974233
6.896162 -0.22925781 -1.9743277
6.8995409 0.10367065 -1.974429
6.8737402 0.60236448 -1.9743617
6.8569236 0.76799315 -1.9742808
6.8360252 0.93314636 -1.9741709
6.781992 1.2616198 -1.9738638
6.5766406 2.0673242 -1.9725946
6.4669433 2.3813066 -1.9718893
6.4063377 2.5361261 -1.9714955
6.2737889 2.8409448 -1.970626
6.2019138 2.9907575 -1.9701511
6.047246 3.2847314 -1.9691223
5.7887692 3.7102044 -1.9673877
5.4998145 4.1150432 -1.965432
5.3970118 4.2450237 -1.9647332
5.2910938 4.3723907 -1.9640115
4.9467282 4.5065827 -1.9147481
4.5059667 4.5215826 -1.8265338
4.3435936 4.5742316 -1.8049339
4.2393456 4.6858635 -1.808084
4.1142774 4.7742486 -1.8033538
3.9960938 4.8699198 -1.8025378
3.8756347 4.9626179 -1.801705
3.501533 5.2223859 -1.7991117
3.3728514 5.3027058 -1.7982179
3.109951 5.4536734 -1.796388
2.9759471 5.5242472 -1.795454
2.8402929 5.5914836 -1.7945074
2.5644922 5.715838 -1.7925802
2.2833104 5.8264871 -1.7906113
1.8528124 5.9662762 -1.7875903
1.1180469 6.1281061 -1.782416
0.96932614 6.1496696 -1.7813662
0.071748048 6.2029715 -1.7750121
-0.22728515 6.1917939 -1.7728888
-0.3763867 6.1808124 -1.7718285
-0.52505857 6.1662455 -1.7707705
-0.67328125 6.1481156 -1.769715
-0.82093745 6.126441 -1.7686627
-1.4041601 6.0046487 -1.7644976
-1.5477148 5.9655476 -1.7634704
-1.6902051 5.9230423 -1.7624499
-1.9716991 5.8279328 -1.7604312
-2.2479784 5.7195807 -1.7584463
-2.3839843 5.6605291 -1.7574679
-2.782578 5.4643474 -1.754595
-3.2893066 5.1599736 -1.7509303
-3.5308495 4.9903007 -1.7491777
-3.7637889 4.8095098 -1.7474831
-3.876914 4.7150788 -1.746659
-3.9877245 4.6180315 -1.7458504
-4.2849121 4.5034184 -1.7786827
-4.702158 4.4871025 -1.8597614
-4.8919139 4.447681 -1.8918014
-4.9957323 4.3266144 -1.891037
-5.0966892 4.2031708 -1.8902923
-5.1946092 4.0774198 -1.8895684
-5.3813086 3.8193023 -1.8881843
-5.4699802 3.6870756 -1.8875247
-5.5554395 3.552835 -1.8868872
-5.7166991 3.2786107 -1.8856796
-5.9336915 2.8541014 -1.884042
-5.999248 2.7093987 -1.8835435
-6.0613184 2.5632286 -1.8830692
-6.1199412 2.4156702 -1.8826191
-6.2266212 2.1167192 -1.8817931
-6.2745996 1.965487 -1.8814176
-6.3190231 1.8131982 -1.8810672
-6.4305468 1.350799 -1.8801687
-6.5090818 0.8818835 -1.8795028
-6.5429587 0.5667749 -1.8791893
-6.5543261 0.40872985 -1.8790721
-6.5619531 0.25047058 -1.8789812
-6.5658593 0.092081904 -1.8789167
-6.5294724 -0.69881165 -1.878991
-6.5110645 -0.85618103 -1.8790852
-6.4889255 -1.0130798 -1.8792057
-6.4335837 -1.3251415 -1.8795259
-6.4004197 -1.4801288 -1.879725
-6.3231735 -1.7875994 -1.8802016
-6.2791405 -1.939916 -1.8804785
-6.2315135 -2.0911767 -1.8807812
-6.1255956 -2.390202 -1.8814629
-5.871943 -2.9719863 -1.8831271
-5.7247262 -3.2534688 -1.8841059
-5.646152 -3.3915825 -1.8846312
-5.5642872 -3.5278432 -1.8851801
-5.4792285 -3.6621673 -1.8857522
-5.3909764 -3.7944899 -1.8863477
-5.2051463 -4.052825 -1.8876055
-5.1076365 -4.1786871 -1.8882679
-4.9037399 -4.4234586 -1.8896575
-4.6882715 -4.6584854 -1.891131
-4.5763865 -4.7721686 -1.8918983
-4.224668 -5.097157 -1.8943176
-4.1023045 -5.1999125 -1.8951617
-3.8502245 -5.3967013 -1.896904
-3.7206542 -5.4906144 -1.8978012
-3.5888476 -5.5814667 -1.898715
-3.1804783 -5.8351102 -1.9015526
-2.8845313 -5.9593911 -1.894448
-2.7105663 -5.9626689 -1.8741494
-1.7311718 -5.9776535 -1.7807064
-1.5763671 -5.9794474 -1.7693923
-1.4253906 -5.9891124 -1.7615618
-1.1360546 -6.0578895 -1.763598
-0.99014646 -6.0870795 -1.7646261
-0.84351563 -6.1127758 -1.7656602
-0.54831052 -6.1536069 -1.7677447
-0.39991209 -6.1687021 -1.7687936
-0.25112304 -6.1802287 -1.7698464
0.04734375 -6.1925397 -1.7719607
0.49595702 -6.1839905 -1.7751445
0.64539063 -6.1739178 -1.7762067
0.79461914 -6.1602302 -1.7772685
1.2402929 -6.0975056 -1.7804441
1.8296777 -5.9743991 -1.7878615
2.1483006 -5.9696355 -1.8153683
2.3114061 -5.9669437 -1.8309788
2.6464355 -5.9608922 -1.8661658
2.8188965 -5.9575152 -1.8858562
3.3489842 -5.9266539 -1.9478445
3.4928319 -5.8472505 -1.9488833
3.6347852 -5.7643132 -1.9499093
3.7748144 -5.6778922 -1.9509226
3.9126365 -5.588028 -1.951921
4.4416504 -5.195199 -1.9557648
4.6914549 -4.9795313 -1.9575866
4.9306054 -4.7516675 -1.9593357
5.0459766 -4.6333313 -1.9601816
5.1584668 -4.5121446 -1.9610076
5.2679977 -4.3881793 -1.9618133
5.5780468 -4.0003643 -1.9641024
5.6750293 -3.8660369 -1.9648215
5.7686815 -3.7293191 -1.9655175
5.8589745 -3.5902867 -1.9661905
5.9458594 -3.449028 -1.9668394
6.1853809 -3.0127325 -1.9686397
6.5112696 -2.2492702 -1.9711285
6.56499 -2.0919738 -1.9715459
6.6608005 -1.7735375 -1.9722995
6.7747946 -1.2877747 -1.9732208
6.8047557 -1.1240966 -1.9734715
6.8306541 -0.95970458 -1.9736934
6.8838964 -0.46330139 -1.9741861
6.8934374 -0.2971051 -1.9742925
6.8988671 -0.13071166 -1.9743698
6.9001951 0.035769042 -1.9744177
6.8973727 0.20223388 -1.9744363
6.8794041 0.53469789 -1.9743862
6.7943258 1.1948749 -1.9739358
6.6879492 1.6825769 -1.9732946
6.6444821 1.843186 -1.9730237
6.5457811 2.1608691 -1.9723974
6.4905758 2.317744 -1.9720422
6.3686523 2.6270769 -1.971249
6.302031 2.7793458 -1.9708121
6.1576266 3.0786133 -1.9698575
6.0799704 3.2254303 -1.9693407
5.6390915 3.9277825 -1.9663767
5.5408201 4.0613103 -1.9657105
5.4393067 4.1923332 -1.965021
5.3346386 4.3207731 -1.9643084
4.5925879 4.5186992 -1.8435329
4.3929687 4.5360417 -1.80683
4.1618066 4.7343998 -1.8036819
4.0445409 4.8312626 -1.8028725
3.6794043 5.1039543 -1.800346
3.5534668 5.1887212 -1.7994723
3.4255567 5.2703376 -1.798584
3.2957616 5.3487639 -1.7976816
3.1641209 5.4239507 -1.7967654
2.8957911 5.5644717 -1.7948948
2.7592382 5.6297269 -1.7939413
2.6212108 5.691596 -1.7929766
2.4817772 5.7500443 -1.7920012
1.9118652 5.9491363 -1.7880052
1.6208007 6.0275311 -1.7859588
1.4740624 6.0613699 -1.7849259
1.3266211 6.0916228 -1.7838871
1.1785938 6.1182733 -1.7828432
1.0300195 6.141314 -1.781795
0.88103515 6.160738 -1.7807424
0.73170894 6.1765351 -1.7796872
0.58212888 6.1887078 -1.7786291
0.13280272 6.2034793 -1.7754455
-0.016894531 6.2011662 -1.7743831
-0.4644824 6.1726189 -1.7712017
-1.0546288 6.0846467 -1.7669955
-1.2004199 6.0538616 -1.7659539
-1.3453418 6.0196075 -1.7649182
-1.4892968 5.9819036 -1.7638884
-1.6322362 5.9407816 -1.7628651
-1.7740722 5.8962736 -1.7618487
-2.0540721 5.7972112 -1.7598398
-2.1920996 5.7427349 -1.758848
-2.328701 5.6849995 -1.7578655
-2.4638281 5.6240473 -1.7568929
-2.5973632 5.5599222 -1.755931
-2.7292774 5.4926639 -1.7549798
-2.8594627 5.4223113 -1.75404
-2.9878709 5.3489141 -1.7531122
-3.1144238 5.2725201 -1.7521969
-3.4822752 5.0258098 -1.7495303
-3.6007519 4.9379082 -1.7486697
-3.8310742 4.7539067 -1.7469931
-3.9426658 4.6579204 -1.7461795
-4.2041211 4.5064898 -1.7634686
-4.404707 4.4988117 -1.8015378
-4.8330564 4.4818339 -1.8860073
-4.9537401 4.3762813 -1.8913463
-5.0558786 4.2537971 -1.8905934
-5.1550388 4.1289859 -1.8898611
-5.4341798 3.7412493 -1.887791
-5.5209665 3.6078229 -1.8871446
-5.6848927 3.3351312 -1.8859184
-5.7619238 3.1960297 -1.8853397
-5.8356347 3.0551848 -1.8847842
-5.9729295 2.7685986 -1.8837439
-6.0364256 2.6230133 -1.8832597
-6.0964646 2.4760149 -1.8827997
-6.2060156 2.1780725 -1.8819534
-6.3013477 1.8754339 -1.8812069
-6.4173045 1.4141003 -1.8802774
-6.4486718 1.2586883 -1.8800188
-6.500371 0.94593078 -1.8795795
-6.5206738 0.78875428 -1.8793991
-6.5372558 0.63115597 -1.8792448
-6.5647264 0.15669373 -1.8789397
-6.5664062 -0.0017333984 -1.878891
-6.5643845 -0.16015258 -1.8788685
-6.5491405 -0.4766272 -1.8789032
-6.4983883 -0.94914979 -1.8791534
-6.2975292 -1.8779168 -1.8803625
-6.2513475 -2.0296175 -1.8806547
-6.2016306 -2.1802137 -1.8809725
-6.1483297 -2.3296225 -1.8813158
-6.0915527 -2.477762 -1.8816842
-5.9674997 -2.7699163 -1.8824962
-5.8297653 -3.0560303 -1.8834066
-5.7558494 -3.1966217 -1.8838983
-5.5142965 -3.6076207 -1.8855162
-5.3372459 -3.8718665 -1.8867106
-5.2440329 -4.0008435 -1.8873419
-5.1477637 -4.1276245 -1.8879952
-5.0484762 -4.2521391 -1.8886706
-4.6223731 -4.7261152 -1.8915828
-4.2738571 -5.0544314 -1.8939785
-4.1525097 -5.1583509 -1.8948152
-4.0286717 -5.2594028 -1.8956702
-3.7737792 -5.4526782 -1.8974332
-3.6428709 -5.544785 -1.8983402
-3.5097461 -5.633801 -1.8992639
-3.3744824 -5.719666 -1.9002033
-3.0977342 -5.8817406 -1.9021286
-2.7810643 -5.9613624 -1.8822488
-2.6092088 -5.9644961 -1.8628138
-2.2752831 -5.9700794 -1.8281101
-2.1126366 -5.9725461 -1.8127242
-1.9525781 -5.9748063 -1.7985847
-1.7948534 -5.9768682 -1.785647
-1.4855664 -5.9804215 -1.7632196
-1.3400879 -6.0109143 -1.7621619
-1.1954101 -6.0449862 -1.76318
-0.46048826 -6.1629758 -1.7683654
0.28541014 -6.1920495 -1.7736492
0.43499023 -6.1870637 -1.7747113
0.73380858 -6.1662498 -1.7768358
0.88288087 -6.1504192 -1.7778966
1.0316309 -6.13098 -1.7789563
1.3277539 -6.0812907 -1.7810683
1.475039 -6.0510583 -1.78212
1.767207 -5.979866 -1.7842089
1.9230371 -5.973073 -1.7955056
2.4093261 -5.9652467 -1.8408353
2.7481542 -5.9589224 -1.8776503
2.9227929 -5.955399 -1.8982147
3.4343944 -5.8800578 -1.9484611
3.5771289 -5.7985559 -1.9494925
3.8567188 -5.6250877 -1.9515159
4.2597752 -5.339427 -1.9544412
4.3894725 -5.2376261 -1.9553847
4.5166893 -5.1326327 -1.9563113
4.6413865 -5.0245066 -1.957221
4.7634177 -4.9133048 -1.9581125
5.2236814 -4.4390583 -1.9614871
5.4360938 -4.1852479 -1.9630526
5.5375876 -4.0544319 -1.9638029
5.6358786 -3.921109 -1.9645311
5.9108591 -3.5068936 -1.9665778
5.9956932 -3.3643503 -1.9672124
6.076992 -3.2197194 -1.9678228
6.1547165 -3.0730813 -1.9684081
6.228828 -2.9245336 -1.9689683
6.2992969 -2.774157 -1.9695032
6.3660254 -2.6220531 -1.9700116
6.4290233 -2.468308 -1.970494
6.4882226 -2.3130155 -1.9709501
6.5435448 -2.1562798 -1.971379
6.5949998 -1.998193 -1.9717807
6.686152 -1.6783532 -1.9725015
6.725791 -1.5168005 -1.97282
6.761416 -1.3542944 -1.9731104
6.7930174 -1.1909301 -1.9733726
6.8205762 -1.0268195 -1.9736062
6.8440819 -0.86205566 -1.9738113
6.8788376 -0.53099549 -1.9741347
6.8971386 -0.19858032 -1.9743418
6.9001365 -0.032122191 -1.9744015
6.8990231 0.13436218 -1.9744323
6.8709569 0.63293272 -1.974349
6.8533883 0.79848081 -1.974263
6.8317184 0.96353638 -1.9741474
6.8059864 1.1279962 -1.9740031
6.7762012 1.2917553 -1.9738299
6.742373 1.4547125 -1.9736277
6.6626949 1.7778131 -1.9731377
6.6169138 1.9377588 -1.97285
6.2608104 2.8687024 -1.9705404
6.1120801 3.1657891 -1.9695545
6.0322852 3.3114336 -1.9690225
5.9489551 3.4550238 -1.9684646
5.8621192 3.5964763 -1.9678816
5.7718749 3.7357049 -1.9672738
5.5812793 4.0071454 -1.9659849
5.3777246 4.2687039 -1.9646019
5.2712598 4.3955817 -1.9638762
4.68082 4.5157242 -1.8610253
4.4684958 4.5240498 -1.8194832
4.2089648 4.6940632 -1.8040069
4.0926561 4.7921109 -1.8032048
3.8531933 4.9793792 -1.8015497
3.3489256 5.3171635 -1.7980514
3.0853808 5.4669342 -1.7962168
2.5387988 5.7266154 -1.7924004
2.3985937 5.78303 -1.791419
2.2571192 5.8359895 -1.7904278
2.1144922 5.8854532 -1.7894274
1.8260645 5.9738321 -1.7874023
1.5340039 6.0480008 -1.7853481
0.94184566 6.1532512 -1.7811723
0.64315426 6.1841812 -1.779061
0.044140626 6.2025471 -1.7748163
-0.10544921 6.1980915 -1.7737544
-0.40381834 6.1783953 -1.7716333
-0.9949609 6.0961981 -1.7674214
-1.1410546 6.0668387 -1.7663783
-1.2863379 6.0339932 -1.7653402
-1.4306933 5.9976959 -1.7643079
-1.5740722 5.957963 -1.7632815
-1.7163574 5.9148345 -1.7622623
-1.8575 5.8683343 -1.7612506
-2.273164 5.7089396 -1.758265
-2.5430956 5.5864553 -1.756322
-2.6756835 5.5204706 -1.7553663
-2.8065722 5.451375 -1.7544219
-2.9357324 5.3792095 -1.753489
-3.0630467 5.304029 -1.7525685
-3.552705 4.9740887 -1.7490188
-4.0077929 4.599854 -1.7457041
-4.1305566 4.5161443 -1.7512596
-4.7425389 4.4854865 -1.8678164
-5.0145311 4.3040314 -1.8908983
-5.1149216 4.1801567 -1.8901575
-5.2123437 4.0539923 -1.8894372
-5.3066406 3.9256108 -1.8887384
-5.4859571 3.6624701 -1.8874056
-5.5708494 3.5278668 -1.8867722
-5.8777246 2.9709864 -1.8844662
-5.9460349 2.8275385 -1.8839483
-6.0109472 2.682555 -1.8834542
-6.1303611 2.3883209 -1.8825389
-6.184834 2.2392223 -1.882118
-6.2830663 1.9374859 -1.881351
-6.4034667 1.4772558 -1.8803903
-6.5128317 0.85290217 -1.8794695
-6.5560155 0.37956664 -1.8790534
-6.5661817 0.06287048 -1.8789076
-6.5656638 -0.095560297 -1.8788744
-6.5534668 -0.41216552 -1.8788875
-6.5417871 -0.57016903 -1.8789337
-6.5263767 -0.72785825 -1.8790063
-6.4277635 -1.3537731 -1.8795605
-6.3939157 -1.5086157 -1.8797647
-6.3153219 -1.8157568 -1.8802505
-6.2706347 -1.9678844 -1.8805324
-6.2223339 -2.1189404 -1.8808398
-6.1705079 -2.2688448 -1.8811728
-5.993906 -2.7108192 -1.8823227
-5.9281344 -2.8552966 -1.8827555
-5.8589454 -2.9982147 -1.8832132
-5.7104883 -3.2790701 -1.884201
-5.3743653 -3.8186629 -1.8864596
-5.2824316 -3.9485095 -1.8870815
-5.1873827 -4.0761952 -1.8877261
-4.9883008 -4.3247833 -1.8890804
-4.884326 -4.44554 -1.8897899
-4.6678805 -4.6796436 -1.8912708
-4.5554786 -4.7928467 -1.8920419
-4.4403515 -4.9034028 -1.8928328
-4.079453 -5.2185454 -1.8953195
-3.8265135 -5.4142456 -1.897068
-3.5643065 -5.5978808 -1.8988851
-3.429873 -5.6850357 -1.8998184
-3.0143065 -5.9272146 -1.90271
-2.8521874 -5.9600143 -1.8905929
-2.6788573 -5.9632468 -1.8705667
-2.509043 -5.9662433 -1.8519726
-2.3423924 -5.9690127 -1.8347524
-2.1786621 -5.9715648 -1.8188477
-2.0175586 -5.9739094 -1.8042054
-1.8588965 -5.9760509 -1.7907803
-1.7024804 -5.9779978 -1.7785357
-1.5480371 -5.9797568 -1.7674307
-0.66894531 -6.1386638 -1.7668923
-0.52098632 -6.1566563 -1.7679378
-0.22365233 -6.1819644 -1.7700409
0.074882813 -6.1929493 -1.7721558
0.22441405 -6.1930451 -1.7732164
0.37399414 -6.1895323 -1.7742782
0.52353513 -6.182404 -1.7753406
0.97101563 -6.1393442 -1.7785244
1.1195313 -6.1177659 -1.779583
1.4149804 -6.0638242 -1.781691
1.7076563 -5.9955382 -1.783783
2.5082812 -5.9634714 -1.8511571
2.8511231 -5.9568658 -1.889648
3.2089355 -5.9492536 -1.9341382
3.3755662 -5.9122915 -1.9480364
3.5191698 -5.8322229 -1.9490734
3.6607811 -5.7486339 -1.9500974
3.8003709 -5.6615806 -1.9511077
4.0731735 -5.4772191 -1.9530855
4.3368845 -5.2795348 -1.9550018
4.8344235 -4.8460321 -1.9586315
4.9520702 -4.7300792 -1.959493
5.496572 -4.1080918 -1.9634997
5.9615135 -3.4227319 -1.9669565
6.0442576 -3.278954 -1.9675769
6.1990528 -2.9853454 -1.968743
6.2710156 -2.8356912 -1.9692882
-5.2175684 3.1236925 -1.8891841
-5.2898827 2.9960406 -1.8886416
-5.4253125 2.7359056 -1.8876204
-5.4883399 2.6035571 -1.8871425
-5.6048923 2.3346789 -1.8862536
-5.8395019 1.6415801 -1.8844286
-5.9100876 1.3575751 -1.8838619
-5.9672165 1.0706378 -1.8833902
-5.990654 0.92625976 -1.8831903
-6.0107126 0.78138667 -1.8830144
-6.0273142 0.63609558 -1.8828628
-6.0405078 0.49046203 -1.8827356
-6.0502439 0.34456909 -1.8826326
-6.0594044 0.05230774 -1.8824998
-6.0547557 -0.24003723 -1.8824649
-6.0363379 -0.53184325 -1.8825277
-6.0219626 -0.67734557 -1.8825959
-5.9829297 -0.96715391 -1.8828055
-5.9583106 -1.1113 -1.8829464
-5.7845407 -1.8213311 -1.8840142
-5.7397752 -1.9606531 -1.8842993
-5.6404395 -2.2360044 -1.88494
-5.5281639 -2.50646 -1.8856735
-5.4672556 -2.6396632 -1.8860747
-5.4031835 -2.7714195 -1.8864986
-4.9547362 -3.5275273 -1.8895037
-4.8696775 -3.6471498 -1.8900793
-4.7817578 -3.7647595 -1.8906757
-4.6910839 -3.8802955 -1.8912917
-4.5015135 -4.1048684 -1.8925844
-4.1974707 -4.4245377 -1.8946667
-4.0910935 -4.5262647 -1.8953975
-3.9822459 -4.6254725 -1.8961465
-3.8710742 -4.7221122 -1.8969127
-3.6418066 -4.9074378 -1.8984959
-3.4037988 -5.0818014 -1.9001435
-3.0314746 -5.3218937 -1.9027286
-2.7738476 -5.467082 -1.9045223
-2.2385058 -5.7201452 -1.9082607
-2.1009374 -5.7753978 -1.9092236
-1.961953 -5.8273716 -1.9101973
-1.8217382 -5.8760314 -1.9111807
-0.79004884 -5.9624939 -1.8685125
-0.21016601 -5.9645543 -1.8541131
-0.066162109 -5.9646392 -1.8531036
0.22175781 -5.9642954 -1.8541636
0.36599609 -5.9638672 -1.8562357
0.65580076 -5.962492 -1.8634932
0.80171871 -5.9615402 -1.868699
0.94847655 -5.9604111 -1.8749737
1.2453222 -5.9576035 -1.8908057
1.7015234 -5.951961 -1.9231222
1.8572558 -5.949677 -1.936303
2.1454101 -5.8622918 -1.9393225
2.2874122 -5.8118763 -1.9403415
2.4282227 -5.7579989 -1.9413528
2.7059569 -5.6399598 -1.9433502
2.9778612 -5.5084128 -1.945309
3.1114452 -5.4376554 -1.9462732
3.2433202 -5.3636284 -1.9472258
3.5016112 -5.205925 -1.9490945
3.7521582 -5.0356464 -1.9509112
3.8743162 -4.9459066 -1.9517986
4.112041 -4.7574692 -1.9535284
4.3404393 -4.5574613 -1.9551948
4.4509568 -4.4532566 -1.9560027
4.5589356 -4.3463359 -1.9567938
4.6643162 -4.2367539 -1.9575665
4.8669629 -4.0098724 -1.9590565
4.9641013 -3.8927107 -1.9597727
5.1497068 -3.6512771 -1.9611453
5.2380466 -3.5271542 -1.9618008
5.4055271 -3.272455 -1.9630477
5.4845605 -3.1420324 -1.9636387
5.6329198 -2.8754427 -1.9647529
5.7021775 -2.7394345 -1.9652759
5.7680759 -2.6017299 -1.9657751
5.8305759 -2.4624059 -1.9662509
5.8896384 -2.3215575 -1.9667026
5.9972949 -2.0356076 -1.9675325
6.0907812 -1.7445904 -1.9682631
6.1698046 -1.4492193 -1.9688923
6.2038474 -1.3001269 -1.9691683
6.260859 -0.99959409 -1.9696426
6.3420997 -0.085957028 -1.9704309
6.3424411 0.067080684 -1.9704688
6.3390136 0.22007935 -1.97048
6.3318162 0.37294677 -1.9704645
6.3208299 0.52558774 -1.970422
6.2653513 0.98120236 -1.9701343
6.2393942 1.1319879 -1.9699851
6.2096872 1.2820764 -1.9698095
6.139287 1.5797814 -1.9693792
6.054297 1.8735772 -1.9688445
6.0064063 2.0187836 -1.9685386
5.9549413 2.1627398 -1.968207
5.8999705 2.3053582 -1.9678503
5.7795801 2.5862396 -1.9670618
5.6455369 2.860733 -1.9661746
5.5735154 2.9953716 -1.965695
5.4982324 3.1281657 -1.9651916
5.4196973 3.2590332 -1.9646652
5.3380079 3.3878949 -1.9641155
5.1653028 3.6392779 -1.962949
4.5768747 4.3374906 -1.9589376
4.3119235 4.5006342 -1.936312
3.9250391 4.5139041 -1.8583039
3.5856738 4.5494571 -1.7995523
3.2429686 4.790534 -1.7971776
3.0053418 4.9368486 -1.795526
2.7610936 5.071269 -1.7938249
2.6366699 5.1339178 -1.7929568
2.5108008 5.1934881 -1.7920779
2.2550976 5.3032622 -1.7902895
1.8627832 5.4440885 -1.7875398
1.73 5.4845819 -1.7866073
1.5963281 5.5218205 -1.7856677
1.4618847 5.5557828 -1.7847221
1.1908886 5.6138225 -1.7828134
0.91772461 5.6586099 -1.7808863
0.7805078 5.6760125 -1.779917
0.50525391 5.7008133 -1.7779704
0.36737305 5.7082124 -1.776994
0.22940429 5.7122674 -1.7760165
0.091503903 5.7129889 -1.7750386
-0.32139647 5.695219 -1.7721058
-0.45844725 5.6826835 -1.7711308
-0.59508789 5.6668496 -1.7701579
-0.73121095 5.647747 -1.7691879
-0.86679685 5.6253877 -1.7682211
-1.1358985 5.5709662 -1.7662996
-1.2692871 5.5389471 -1.7653462
-1.5333691 5.4654117 -1.7634559
-1.9215624 5.3317742 -1.7606714
-2.0485938 5.2811222 -1.7597587
-2.2985938 5.1708622 -1.7579598
-2.4214549 5.11133 -1.7570746
-2.5428123 5.0489054 -1.7561994
-2.6625586 4.9836297 -1.7553347
-3.0116699 4.771142 -1.752809
-3.1244531 4.6949067 -1.7519915
-3.2353418 4.6160393 -1.7511866
-3.3442383 4.5345893 -1.7503954
-3.6672168 4.5007038 -1.8035769
-3.8457129 4.4938655 -1.8374956
-4.1889548 4.4419794 -1.8967861
-4.2931542 4.3378754 -1.8960229
-4.4939256 4.12253 -1.8945488
-4.5903611 4.0114031 -1.8938391
-4.7750974 3.7825763 -1.8924755
-5.1106153 3.3004851 -1.8899838
-5.1871872 3.1752625 -1.8894116
-5.4630175 2.6577044 -1.8873348
-5.6884861 2.1169672 -1.88561
-5.8234472 1.6990722 -1.8845558
-5.8617773 1.5578314 -1.884251
-5.8967772 1.4157439 -1.8839698
-6.0029392 0.8405273 -1.8830831
-6.020947 0.69538879 -1.8829217
-6.0466895 0.40408629 -1.8826715
-6.0507421 -0.32652953 -1.8824731
-6.0412011 -0.47242248 -1.882507
-6.0282321 -0.61805421 -1.8825651
-5.9920216 -0.90821654 -1.8827547
-5.96875 -1.0525879 -1.8828861
-5.9421287 -1.1963836 -1.8830415
-5.9121189 -1.3395214 -1.8832213
-5.8419333 -1.623518 -1.883653
-5.801826 -1.7642242 -1.8839047
-5.7117286 -2.0426614 -1.8844793
-5.6617675 -2.1802373 -1.8848016
-5.6085253 -2.3166234 -1.8851477
-5.5521092 -2.4517412 -1.8855163
-5.4924903 -2.5855119 -1.8859081
-5.3637891 -2.8487346 -1.8867601
-5.2947755 -2.9780405 -1.8872195
-5.147656 -3.231667 -1.888204
-4.904707 -3.5986071 -1.889842
-4.7284179 -3.8334363 -1.8910381
-4.6360645 -3.9477108 -1.8916665
-4.3430076 -4.2771811 -1.8936687
-4.2401562 -4.3823457 -1.8943738
-4.1347656 -4.4850779 -1.8950973
-4.0269141 -4.5853224 -1.8958392
-3.6892772 -4.870523 -1.8981677
-3.4529979 -5.0471616 -1.8998026
-3.3317382 -5.1312695 -1.9006432
-2.9559472 -5.3661509 -1.903254
-2.8269725 -5.438468 -1.9041522
-2.6962109 -5.5077233 -1.9050634
-2.1571875 -5.7532573 -1.9088299
-1.8790137 -5.8565912 -1.9107788
-1.1451563 -5.9598918 -1.8853831
-0.70356447 -5.9629741 -1.8653232
-0.26894531 -5.9644699 -1.8548199
0.0190625 -5.9646087 -1.85299
0.16302735 -5.9644213 -1.8536134
0.30713865 -5.9640622 -1.8552655
0.74211913 -5.9619498 -1.8664477
1.1843847 -5.9582372 -1.8872149
1.6385645 -5.9528332 -1.9181012
1.9436718 -5.9273453 -1.9378766
2.3709764 -5.7803864 -1.9409415
2.6498046 -5.6651306 -1.942946
2.7870996 -5.6024046 -1.9439343
3.0571582 -5.4669065 -1.9458815
3.3205664 -5.3182654 -1.9477842
3.5766504 -5.1568003 -1.949638
3.7017283 -5.0713711 -1.950545
4.6216602 -4.2817612 -1.9572536
4.8265524 -4.0569563 -1.958759
4.9248438 -3.9407802 -1.9594831
5.1128321 -3.7012558 -1.9608722
5.3724022 -3.3250639 -1.9628005
5.4527149 -3.1954577 -1.9634005
5.5298438 -3.063875 -1.9639781
5.6037402 -2.9303985 -1.9645331
5.741621 -2.6580827 -1.9655743
5.8659863 -2.3791704 -1.9665213
5.9229784 -2.2374563 -1.9669584
6.0264649 -1.9499367 -1.9677593
6.1156931 -1.6575555 -1.9684601
6.1904101 -1.3610333 -1.9690588
6.3125486 -0.60645199 -1.9701004
6.3257618 -0.45401061 -1.9702295
6.340879 -0.14835204 -1.9704077
6.3427539 0.0046697995 -1.9704565
6.3352051 0.31062806 -1.970474
6.3125587 0.61583436 -1.9703841
6.2955761 0.76791871 -1.9702994
6.2748828 0.91952938 -1.9701875
6.2504392 1.0705737 -1.9700493
6.1903906 1.3705865 -1.9696929
6.1156249 1.6672131 -1.9692318
6.0728126 1.8140216 -1.9689621
5.922822 2.2473638 -1.9679987
5.8657618 2.3891504 -1.9676269
5.7412987 2.6682091 -1.966809
5.4521189 3.2059045 -1.9648827
5.2015138 3.5887249 -1.9631943
5.0191793 3.8330376 -1.9619575
4.5134277 4.4014678 -1.9585024
4.1941113 4.5047588 -1.9121081
4.0014648 4.5113459 -1.8733702
3.816201 4.5174942 -1.8371443
3.6433301 4.5302043 -1.80603
3.5194042 4.599052 -1.7990936
3.4094532 4.6861515 -1.8004473
3.0543749 4.9079695 -1.795867
2.5622656 5.1695671 -1.7924374
1.9166894 5.4266424 -1.7879181
1.6509472 5.5070281 -1.7860519
1.2463672 5.6030598 -1.7832043
0.83650386 5.6693182 -1.7803128
0.42361328 5.7055998 -1.7773925
0.14773437 5.7130985 -1.7754376
0.0098437499 5.7118497 -1.7744589
-0.12788086 5.7072797 -1.7734811
-0.26541016 5.6993852 -1.7725037
-0.6757617 5.6559343 -1.7695831
-0.8115918 5.6348929 -1.7686149
-0.94677734 5.6106181 -1.7676502
-1.6108105 5.4412322 -1.7629009
-1.740664 5.3979349 -1.7619699
-1.9969434 5.3021455 -1.7601299
-2.2480762 5.1943059 -1.7583237
-2.4935155 5.0747061 -1.756555
-2.6139159 5.0105915 -1.755686
-2.8498242 4.8739309 -1.753981
-3.078701 4.7263165 -1.7523233
-3.3000586 4.5681133 -1.7507166
-3.4288378 4.5128717 -1.7607447
-3.5962305 4.5033698 -1.7903777
-3.9545898 4.4896064 -1.8586682
-4.2509861 4.3806243 -1.896332
-4.5513573 4.0569925 -1.8941263
-4.6462107 3.9445488 -1.8934274
-4.7383103 3.829931 -1.8927474
-4.8276463 3.7132037 -1.8920867
-5.0785251 3.3510356 -1.890223
-5.1563182 3.226546 -1.8896422
-5.231113 3.1002851 -1.8890826
-5.4371676 2.7116113 -1.8875308
-5.499629 2.578999 -1.8870568
-5.6149998 2.3096263 -1.8861761
-5.7174802 2.0352294 -1.8853855
-5.8068357 1.7564142 -1.8846868
-5.8465428 1.615537 -1.8843725
-5.8829198 1.4737866 -1.8840817
-5.9159374 1.3312366 -1.8838143
-5.9717965 1.0440606 -1.8833514
-5.9946094 0.89958858 -1.8831561
-6.0140328 0.75463009 -1.8829845
-6.0300097 0.60926938 -1.8828375
-6.0425587 0.46358213 -1.8827146
-6.0573535 0.17154723 -1.882542
-6.0536227 -0.26696959 -1.8824667
-6.0455079 -0.41294616 -1.8824902
-6.0189452 -0.70413327 -1.882611
-5.978652 -0.99376827 -1.8828295
-5.9533982 -1.1378094 -1.8829751
-5.8927245 -1.423941 -1.8833392
-5.8573337 -1.5658746 -1.8835572
-5.7765427 -1.8470989 -1.8840649
-5.682529 -2.1242707 -1.8846673
-5.5755076 -2.3967948 -1.8853631
-5.5171776 -2.5311258 -1.8857456
-5.4556737 -2.664068 -1.8861511
-5.3232908 -2.9255021 -1.8870294
-5.2524705 -3.0538437 -1.887502
-5.1786227 -3.1805069 -1.8879963
-5.1017771 -3.3054278 -1.8885123
-5.0219822 -3.4285252 -1.8890498
-4.9392576 -3.5497327 -1.8896084
-4.853662 -3.6689858 -1.8901877
-4.5801072 -4.0143528 -1.892048
-4.4834862 -4.125124 -1.8927075
-4.3842282 -4.2336106 -1.8933862
-4.0711818 -4.5447459 -1.8955346
-3.9619043 -4.6434875 -1.8962866
-3.8503125 -4.7396474 -1.897056
-3.7363963 -4.8331604 -1.8978422
-3.3814354 -5.0973105 -1.9002986
-3.0080469 -5.3357859 -1.9028915
-2.8797851 -5.4093437 -1.9037844
-2.4846289 -5.6115603 -1.9065402
-2.3496873 -5.672677 -1.9074832
-2.2132518 -5.7305765 -1.9084373
-2.0753808 -5.7852259 -1.9094027
-1.9362011 -5.8365941 -1.9103777
-1.7957617 -5.8846402 -1.9113629
-1.6540917 -5.9293356 -1.9123573
-1.2059667 -5.9593463 -1.8888738
-0.90963864 -5.9617295 -1.8735223
-0.61734372 -5.9633932 -1.8625039
-0.4722949 -5.9639621 -1.8585806
0.24832031 -5.9642296 -1.854468
0.53735352 -5.9631367 -1.8600296
0.68262696 -5.9623294 -1.8643723
0.97564453 -5.9601831 -1.8762492
1.1236621 -5.9588385 -1.8838128
1.2729492 -5.9573083 -1.8924896
1.5759569 -5.953671 -1.9132824
1.7300683 -5.9515553 -1.9254589
2.593369 -5.6897392 -1.9425399
2.7312791 -5.6283922 -1.9435325
3.3971679 -5.271781 -1.9483383
3.5250487 -5.1907511 -1.9492642
3.6509666 -5.1065812 -1.950177
3.7748437 -5.0193329 -1.9510757
3.896621 -4.9290266 -1.9519604
4.1334958 -4.7395053 -1.9536847
4.248457 -4.6404033 -1.9545231
4.4710546 -4.4337425 -1.9561501
4.5785742 -4.3263288 -1.9569376
4.6834569 -4.2162623 -1.9577072
4.885088 -3.9884539 -1.9591901
4.9816895 -3.870841 -1.9599026
5.2540135 -3.5040252 -1.9619193
5.3387303 -3.3773355 -1.9625497
5.4203415 -3.2485559 -1.9631585
5.4987693 -3.1177719 -1.9637451
5.5739841 -2.985059 -1.9643093
5.645947 -2.8504965 -1.964851
5.7798634 -2.5761547 -1.9658648
5.8417187 -2.4365516 -1.9663359
6.0065136 -2.0089836 -1.967604
6.0543747 -1.8638384 -1.9679773
6.2097068 -1.2725476 -1.9692162
6.2875876 -0.82039058 -1.9698737
6.3060837 -0.66851681 -1.9700401
6.3208399 -0.51621825 -1.9701802
6.3318162 -0.36359435 -1.9702934
6.3390036 -0.21073669 -1.9703799
6.3421092 0.095294796 -1.9704729
6.3300586 0.40110901 -1.9704586
6.3183985 0.55369872 -1.9704113
6.2837791 0.85776365 -1.9702364
6.2608495 1.0090508 -1.9701089
6.2038379 1.3096637 -1.9697745
6.1320605 1.6070385 -1.9693344
6.090703 1.7542822 -1.9690751
5.9971776 2.0454223 -1.9684793
5.8303514 2.4724262 -1.9673952
5.7677832 2.6118224 -1.9669839
5.6325192 2.8856909 -1.9660879
5.484004 3.1524444 -1.9650964
5.4048829 3.2829442 -1.9645656
5.2372165 3.5378058 -1.9634355
5.1487694 3.6620123 -1.962837
5.0573144 3.7839642 -1.9622167
4.9629297 3.9035978 -1.9615749
4.7655759 4.135622 -1.9602292
4.5572267 4.3575091 -1.9588027
4.4491115 4.464499 -1.9580609
4.0790915 4.5087161 -1.888854
3.8908985 4.5150394 -1.8516259
3.4525487 4.6476665 -1.798631
3.2213671 4.8045096 -1.7970276
3.1030858 4.8785992 -1.7962058
2.4874413 5.2041311 -1.7919146
2.3599999 5.2600141 -1.7910237
2.1013963 5.3623004 -1.7892132
1.9703906 5.4086599 -1.7882947
1.8383887 5.4517975 -1.7873685
1.7054394 5.4916935 -1.7864348
1.4370019 5.5616827 -1.7845471
1.3017089 5.5917487 -1.7835944
1.1658008 5.6185064 -1.7826365
1.0293359 5.6419487 -1.7816741
0.89246094 5.6620698 -1.780708
0.75516599 5.6788602 -1.7797379
0.61762697 5.6923089 -1.7787656
0.47982422 5.702426 -1.7777905
0.34194335 5.7092109 -1.776814
0.20396484 5.7126493 -1.7758363
-0.2093457 5.7030058 -1.7729024
-0.34666991 5.6931558 -1.7719259
-0.48368162 5.6800103 -1.7709512
-0.62023437 5.6635761 -1.7699789
-0.89171875 5.6209111 -1.7680433
-1.0265039 5.5947146 -1.7670809
-1.1605663 5.5653033 -1.7661233
-1.2937988 5.5327005 -1.7651708
-1.6878418 5.4159636 -1.7623489
-1.8170507 5.3708429 -1.7614218
-2.1973145 5.2172599 -1.7586889
-2.4439354 5.1000395 -1.7569125
-2.684453 4.9712896 -1.7551765
-2.8022559 4.9026995 -1.754325
-2.91833 4.8313518 -1.7534852
-3.0326073 4.7572894 -1.7526574
-3.1450293 4.6805606 -1.7518423
-3.2555077 4.6012163 -1.7510403
-3.3667285 4.5226297 -1.7515408
-3.5262499 4.5059671 -1.7775277
-3.6996386 4.4994755 -1.8096614
-3.8793554 4.492558 -1.8439969
-4.2083693 4.4229631 -1.896644
-4.4133301 4.2114749 -1.8951412
-4.607861 3.9906659 -1.89371
-4.7010837 3.8769269 -1.8930224
-4.7915626 3.7610466 -1.8923538
-4.8792286 3.6431036 -1.8917046
-4.9640331 3.5231562 -1.8910751
-5.0459666 3.4012749 -1.8904659
-5.1249609 3.2775238 -1.8898767
-5.2009959 3.1519792 -1.8893081
-5.4745407 2.6332483 -1.8872476
-5.5351267 2.4997942 -1.8867868
-5.5925097 2.3649762 -1.8863482
-5.6976461 2.0915544 -1.8855392
-5.7453318 1.9531035 -1.885169
-5.830781 1.6730926 -1.8844976
-5.868506 1.531687 -1.8841972
-5.9028711 1.3894562 -1.8839206
-5.933877 1.2464703 -1.8836673
-6.0065231 0.81379271 -1.8830515
-6.0238962 0.66858703 -1.8828948
-6.0378513 0.52302366 -1.8827618
-6.0590625 0.084975585 -1.8825097
-6.0592284 -0.061229248 -1.8824747
-6.0559568 -0.20739624 -1.8824639
-6.0390821 -0.4992938 -1.8825158
-6.0084372 -0.79008788 -1.8826656
-5.8721581 -1.5080981 -1.8834655
-5.8348045 -1.6495299 -1.8836975
-5.7940817 -1.7900628 -1.8839538
-5.6521974 -2.2054763 -1.8848637
-5.4177928 -2.7421117 -1.8864017
-5.2817383 -3.0017006 -1.8873065
-5.2091017 -3.1290605 -1.887792
-5.054873 -3.3785481 -1.888828
-4.9733396 -3.5005355 -1.889378
-4.8016601 -3.7386599 -1.8905405
-4.7115817 -3.854665 -1.8911525
-4.6187596 -3.9685428 -1.8917843
-4.5232325 -4.0802259 -1.892436
-4.4250488 -4.1896453 -1.8931071
-4.3242478 -4.296752 -1.8937973
-4.2208982 -4.4014721 -1.8945059
-4.0067968 -4.6035304 -1.8959777
-3.8961132 -4.7007451 -1.8967401
-3.7831249 -4.7953458 -1.8975195
-3.5504003 -4.976469 -1.8991281
-3.3091307 -5.1464601 -1.9008001
-3.1854393 -5.2271624 -1.9016584
-3.0598047 -5.3049231 -1.9025317
-2.9322851 -5.3797116 -1.9034189
-2.6719432 -5.5201507 -1.9052328
-2.5392089 -5.5857244 -1.906159
-2.4048924 -5.6481347 -1.9070971
-2.269043 -5.7073536 -1.9080471
-2.1317382 -5.7633338 -1.9090078
-1.8531445 -5.8654528 -1.9109603
-1.7119921 -5.9115148 -1.9119506
-1.5696973 -5.9542093 -1.91295
-1.4177148 -5.957222 -1.9023721
-0.96969724 -5.9613028 -1.8762953
-0.67668945 -5.9631119 -1.8644061
-0.53139645 -5.9637518 -1.8600537
-0.38666016 -5.9642181 -1.8567486
-0.098330073 -5.9646349 -1.8532397
0.18957031 -5.9643683 -1.8538412
0.33374998 -5.9639783 -1.855683
0.47828123 -5.9634161 -1.8585581
0.62332028 -5.9626799 -1.8624743
0.76904297 -5.9617686 -1.8674442
0.91559571 -5.9606791 -1.8734771
1.0631542 -5.9594092 -1.8805953
1.2119043 -5.9579554 -1.8888153
1.5136328 -5.9544764 -1.9086621
1.6669922 -5.9524431 -1.9203476
1.8222558 -5.9502053 -1.9332501
2.3968847 -5.7703342 -1.9411275
2.8122559 -5.5904698 -1.9441155
2.947793 -5.5237694 -1.9450924
3.7245703 -5.0552831 -1.9507109
3.9676952 -4.8741455 -1.9524773
4.2018356 -4.6811633 -1.954183
4.3153906 -4.5803714 -1.9550118
4.641006 -4.2614708 -1.9573956
4.7443161 -4.1498652 -1.9581542
4.8448825 -4.0357242 -1.958894
4.942656 -3.9190991 -1.9596145
5.0375586 -3.800076 -1.9603153
5.3045607 -3.4292645 -1.9622952
5.6170115 -2.9055934 -1.9646331
5.6869922 -2.769978 -1.965161
5.8169041 -2.4936786 -1.9661465
5.8767481 -2.3531566 -1.9666036
5.9330955 -2.2111773 -1.9670364
6.0810447 -1.7773407 -1.9681865
6.1231737 -1.6303893 -1.9685194
6.1616993 -1.4824206 -1.968827
6.1965623 -1.3335223 -1.9691088
6.2277341 -1.183789 -1.9693649
6.2789645 -0.88219297 -1.9697982
6.2989941 -0.73051631 -1.9699756
6.340117 0.18589355 -1.97048
6.2706442 0.94742978 -1.9701639
6.2455173 1.0983611 -1.9700209
6.2166505 1.2486115 -1.969851
6.1478906 1.5467058 -1.9694326
6.1080174 1.6943665 -1.9691839
6.0645118 1.8409753 -1.9689096
6.0174122 1.9864483 -1.9686092
5.7291307 2.6936224 -1.9667286
5.6611719 2.8304112 -1.9662783
5.5899024 2.9654529 -1.9658041
5.5153317 3.0986657 -1.9653062
5.4375196 3.22997 -1.9647849
5.2723923 3.4865289 -1.963673
4.9056735 3.9733245 -1.9611852
4.4934864 4.4211979 -1.9583654
4.3571582 4.4990325 -1.9456991
4.1579881 4.5060077 -1.9047672
3.4986327 4.614295 -1.79895
3.3848143 4.6953006 -1.7981616
3.2690821 4.7734613 -1.7973589
3.1515331 4.848742 -1.7965425
2.9112499 4.9904704 -1.7948712
2.6645899 5.1201849 -1.7931515
2.5390527 5.1804471 -1.7922753
2.4121289 5.2376032 -1.7913882
2.283916 5.2916217 -1.7904913
2.0239453 5.3901443 -1.7886703
1.6262695 5.5137858 -1.7858783
1.4919921 5.5484748 -1.784934
0.67374998 5.6872306 -1.7791624
0.53605467 5.6987066 -1.7781885
0.26024413 5.7116461 -1.776235
-0.29071289 5.6975689 -1.7723238
-0.42784178 5.6857672 -1.7713485
-0.56458986 5.6706729 -1.770375
-0.70084959 5.652298 -1.7694043
-0.83657223 5.6306643 -1.7684367
-0.97164059 5.6057868 -1.7674727
-1.105996 5.5776801 -1.7665133
-1.3722754 5.5118928 -1.7646093
-1.5040528 5.4742475 -1.763666
-1.6348144 5.4334831 -1.762729
-1.7645117 5.389616 -1.761799
-2.3941405 5.1248856 -1.7572714
-2.5158105 5.0630999 -1.756394
-3.2106836 4.6338835 -1.7513657
-4.1653419 4.4649043 -1.8969588
-4.2700682 4.3613496 -1.896192
-4.7550001 3.8085661 -1.8926241
-5.0931053 3.3282194 -1.8901144
-5.1703415 3.2033935 -1.8895376
-5.2445602 3.0768187 -1.8889816
-5.3157716 2.9485528 -1.8884469
-5.3839064 2.8186829 -1.8879336
-5.4489059 2.6872704 -1.887442
-5.5695214 2.4201195 -1.8865243
-5.6772461 2.1477008 -1.885697
-5.7719922 1.8706158 -1.8849605
-5.8535056 1.5894684 -1.8843169
-5.9216504 1.3048749 -1.8837676
-5.9762497 1.0174621 -1.8833135
-5.9984665 0.87289429 -1.8831226
-6.0172262 0.7278595 -1.8829558
-6.032578 0.58243102 -1.8828131
-6.0576954 -0.1477893 -1.8824655
-6.0436325 -0.43983826 -1.8824972
-6.0314255 -0.58553344 -1.88255
-6.0157909 -0.73090756 -1.8826272
-5.9742575 -1.0203693 -1.8828546
-5.9191113 -1.3075916 -1.8831789
-5.8864551 -1.4501691 -1.8833773
-5.7684178 -1.8728225 -1.8841165
-5.673203 -2.1495912 -1.8847277
-5.506074 -2.555738 -1.8858187
-5.2391014 -3.077322 -1.8875914
-5.0069628 -3.4510105 -1.8891511
-4.9236913 -3.5718629 -1.8897136
-4.6569333 -3.9223571 -1.8915243
-4.5625095 -4.0349426 -1.8921679
-4.3656735 -4.2533507 -1.8935134
-4.1585155 -4.4623294 -1.8949342
-4.05124 -4.563139 -1.8956716
-3.9415429 -4.6614084 -1.8964269
-3.4798534 -5.027977 -1.8996165
-3.2361326 -5.1945996 -1.9013065
-3.1112988 -5.2735667 -1.9021738
-2.8559375 -5.4225693 -1.9039503
-2.7255859 -5.4925184 -1.9048587
-2.5935254 -5.5593667 -1.9057797
-2.4598632 -5.6230707 -1.9067132
-2.3246191 -5.6835961 -1.9076583
-2.1879296 -5.7409005 -1.9086146
-1.9103808 -5.8457036 -1.9105587
-1.4796484 -5.9565353 -1.9067099
-1.3282812 -5.9581614 -1.8964161
-1.1784375 -5.9595966 -1.8872725
-0.73614258 -5.9628 -1.8664821
-0.59055662 -5.963511 -1.8617022
-0.44560546 -5.9640489 -1.8579708
-0.15704101 -5.9646058 -1.8536209
-0.013085937 -5.9646263 -1.8529903
0.27493164 -5.9641576 -1.8548084
0.41928709 -5.9636655 -1.8572603
0.56410158 -5.9630008 -1.8607516
0.85571289 -5.9611454 -1.8708874
1.3006152 -5.957005 -1.8942136
1.6042285 -5.9532962 -1.9154375
1.7587011 -5.9511423 -1.9278384
2.1979198 -5.8441033 -1.9396991
2.3394921 -5.792407 -1.9407154
2.7565625 -5.6167092 -1.9437144
3.0273144 -5.4826994 -1.9456658
3.1602635 -5.4107327 -1.9466256
3.2915039 -5.3355107 -1.9475741
3.9188085 -4.9120512 -1.9521219
4.0379882 -4.818212 -1.9529889
4.1548634 -4.7214494 -1.9538405
4.8041892 -4.0825686 -1.9585947
4.9031053 -3.9669507 -1.9593229
5.1826267 -3.6057615 -1.9613894
5.2698631 -3.4808297 -1.9620372
5.3540039 -3.3537471 -1.9626635
5.435039 -3.2245908 -1.9632684
5.5129004 -3.0934432 -1.963851
5.5874805 -2.9603882 -1.964411
5.6588473 -2.825489 -1.9649484
5.791533 -2.550535 -1.9659534
5.9105759 -2.2692435 -1.966863
5.9648438 -2.1264431 -1.9672811
6.0155954 -1.9823157 -1.9676746
6.1064258 -1.6904407 -1.9683868
6.1464353 -1.5428741 -1.9687048
6.2154784 -1.2449414 -1.9692636
6.244463 -1.0947577 -1.969504
6.3090916 -0.64046383 -1.970068
6.3399415 -0.18253662 -1.9703932
6.3281932 0.42926392 -1.970452
6.3158398 0.58179623 -1.9703997
6.2798338 0.88569885 -1.9702148
6.1978416 1.3372235 -1.9697381
6.1246972 1.6342633 -1.9692882
5.9878221 2.0720153 -1.9684192
5.9350781 2.2154889 -1.9680783
5.8190722 2.4982429 -1.9673212
5.7558885 2.6373487 -1.9669055
5.6892872 2.774823 -1.966465
5.6193748 2.910589 -1.9660007
5.3899512 3.3067865 -1.9644653
5.3070993 3.4348845 -1.9639072
5.2211423 3.5608709 -1.9633269
5.0401368 3.8061993 -1.9620999
4.9452047 3.925396 -1.9614544
4.8474317 4.0421915 -1.9607879
4.643486 4.2682757 -1.9593939
4.5375094 4.3774371 -1.9586675
4.043838 4.5099139 -1.8818023
3.8569725 4.5161591 -1.8450298
3.6793261 4.5247941 -1.8117545
3.544492 4.5804534 -1.7992675
3.3165135 4.7419343 -1.797688
3.1996875 4.8183904 -1.7968771
2.9608006 4.9625349 -1.7952161
2.8388574 5.0301423 -1.7943668
2.4640722 5.2146683 -1.7917514
2.3363476 5.269969 -1.7908581
1.9461328 5.4168582 -1.7881247
1.8139453 5.4593973 -1.7871969
1.68083 5.4986954 -1.7862619
1.5468457 5.5347247 -1.7853198
1.4121192 5.5674734 -1.7843717
1.2767187 5.5969315 -1.7834182
1.1406933 5.6230779 -1.7824594
1.0041504 5.6459064 -1.7814964
0.72983396 5.6815872 -1.7795588
0.31651366 5.7100945 -1.7766339
0.17856444 5.712923 -1.7756561
-0.23468749 5.7014384 -1.7727225
-0.37196288 5.6909809 -1.771746
-0.64533204 5.6601872 -1.7698001
-0.78129882 5.6398807 -1.7688308
-1.1851953 5.5595307 -1.7659473
-1.4504297 5.4899812 -1.76405
-1.7117578 5.4078765 -1.7621773
-2.095078 5.2616911 -1.7594244
-2.2202928 5.2069488 -1.7585235
-2.3440626 5.1492486 -1.7576323
-2.4663768 5.0886455 -1.7567507
-2.5871484 5.0251665 -1.7558793
-2.7063086 4.9588494 -1.7550186
-2.8237987 4.8897443 -1.7541692
-2.9395604 4.8178935 -1.7533315
-3.0534668 4.7433367 -1.7525063
-3.1701758 4.6737761 -1.7545695
-3.394541 4.5182438 -1.7556775
-3.7322752 4.4982319 -1.8158245
-3.9132323 4.491231 -1.8505813
-4.101162 4.4837642 -1.8877375
-4.4317284 4.1915045 -1.8950061
-4.5297947 4.0818086 -1.894285
-4.6252441 3.9698577 -1.8935817
-4.7179685 3.8557243 -1.8928977
-4.80792 3.7394574 -1.8922327
-4.8950782 3.6211383 -1.891587
-5.0607615 3.3785992 -1.8903555
-5.1391892 3.2545085 -1.8897703
-5.2146778 3.1286414 -1.8892057
-5.4227829 2.7410388 -1.8876398
-5.5459471 2.4750359 -1.8867043
-5.6563377 2.2036419 -1.8858583
-5.7066894 2.0661151 -1.8854692
-5.7537403 1.9274591 -1.8851032
-5.7975192 1.7877587 -1.8847604
-5.8379884 1.6470885 -1.8844405
-5.8750978 1.5055243 -1.8841445
-6.0099802 0.78705323 -1.8830209
-6.0267282 0.6417743 -1.8828683
-6.0563865 0.20419616 -1.8825564
-6.0588865 -0.0881842 -1.8824706
-6.0549707 -0.2343341 -1.8824645
-5.9593358 -1.1056805 -1.8829405
-5.9001756 -1.3921198 -1.8832937
-5.7416015 -1.9552325 -1.8842877
-5.6936817 -2.0935264 -1.8845956
-5.6424999 -2.2306724 -1.8849267
-5.530488 -2.5012274 -1.8856583
-5.469697 -2.6344867 -1.8860586
-5.4057517 -2.7663028 -1.8864816
-4.8730469 -3.6425138 -1.8900564
-4.7852635 -3.7602034 -1.8906518
-4.6013379 -3.9892972 -1.8919032
-4.5053024 -4.1005678 -1.8925586
-4.4066501 -4.2095675 -1.8932329
-4.201582 -4.4205146 -1.8946384
-4.095293 -4.5223355 -1.8953688
-3.8754492 -4.7183862 -1.8968824
-3.6463768 -4.9039226 -1.8984643
-3.5285058 -4.9926057 -1.8992797
-3.408535 -5.0785017 -1.9001107
-3.1624315 -5.2417221 -1.9018185
-2.9085937 -5.3931684 -1.9035836
-2.7789452 -5.464365 -1.9044867
-2.2438672 -5.7179193 -1.9082233
-2.1062987 -5.7732944 -1.909186
-1.9674121 -5.8254056 -1.910159
-1.6858495 -5.9196415 -1.9121344
-1.5418457 -5.9558172 -1.9112459
-1.3898242 -5.9575219 -1.9004741
-1.2393652 -5.9590349 -1.8908637
-0.7957617 -5.9624596 -1.8687359
-0.50465816 -5.963851 -1.8593661
-0.36004883 -5.9642854 -1.8562533
-0.21579102 -5.9645472 -1.8541735
-0.071777344 -5.9646392 -1.8531238
0.072128907 -5.9645591 -1.8531005
0.21611327 -5.9643087 -1.8541031
0.36035156 -5.9638872 -1.8561352
0.50499022 -5.9632926 -1.8592023
0.94270504 -5.9604588 -1.8747084
1.0905077 -5.9591546 -1.8820279
1.2394824 -5.9576659 -1.8904537
1.3898144 -5.9559879 -1.9000103
1.5417773 -5.9541159 -1.9107271
1.6954687 -5.952045 -1.9226339
1.9966894 -5.9109778 -1.9382564
2.1398633 -5.8641882 -1.9392828
2.2819433 -5.8139043 -1.9403023
2.5623534 -5.7029896 -1.9423169
2.7005858 -5.642395 -1.9433115
3.2381835 -5.3665857 -1.9471887
3.7473438 -5.0390916 -1.9508761
3.8695996 -4.949461 -1.951764
4.1074805 -4.7612739 -1.9534951
4.8631153 -4.0144038 -1.9590281
5.0547361 -3.7778718 -1.9604424
5.2346387 -3.5320494 -1.9617754
5.4023728 -3.2775118 -1.9630243
5.4815235 -3.1471584 -1.963616
5.630156 -2.8807335 -1.9647321
5.6995411 -2.744786 -1.9652559
5.7655759 -2.6071303 -1.9657562
-4.8375387 2.8961864 -1.8918267
-4.9047165 2.7778935 -1.8913227
-5.0890331 2.4141247 -1.889931
-5.1972656 2.1648858 -1.8891054
-5.2469435 2.0384564 -1.8887237
-5.2935743 1.9109112 -1.8883632
-5.3371778 1.7823242 -1.8880242
-5.3777246 1.6527636 -1.8877065
-5.4495411 1.3910083 -1.8871363
-5.5088768 1.1262262 -1.8866539
-5.5556345 0.85899776 -1.8862602
-5.6189942 -0.087076411 -1.885591
-5.6152344 -0.22261474 -1.8855864
-5.5485644 -0.89693356 -1.8859026
-5.4996676 -1.1637158 -1.8861874
-5.4028025 -1.558905 -1.8867828
-5.3227439 -1.8181988 -1.8872906
-5.2781348 -1.9463809 -1.8875772
-5.2305079 -2.0734921 -1.8878855
-5.179863 -2.1994629 -1.8882153
-4.2623439 -3.7024269 -1.8943744
-3.9873729 -4.0049663 -1.8962542
-3.7922168 -4.1956043 -1.8975942
-3.6912303 -4.2874436 -1.8982891
-3.3753612 -4.5483909 -1.9004691
-3.2659373 -4.6303453 -1.9012262
-2.8092284 -4.9317174 -1.9043957
-2.6905956 -5.0002265 -1.9052212
-2.5703125 -5.0659113 -1.9060589
-2.4484472 -5.1287303 -1.9069089
-2.2001758 -5.2456341 -1.9086429
-1.687627 -5.4434581 -1.9122323
-1.4244434 -5.5238609 -1.9140801
-0.8872754 -5.6465545 -1.9178619
-0.47730467 -5.7045321 -1.9207565
-0.3396875 -5.7172852 -1.9217297
-0.2017578 -5.7267237 -1.9227057
-0.06356445 -5.7328391 -1.9236844
0.7664941 -5.6994567 -1.9295797
1.0415527 -5.6615949 -1.9315395
1.1784375 -5.6376696 -1.9325161
1.3147753 -5.6104217 -1.9334893
1.4504687 -5.5798645 -1.9344589
1.7196484 -5.5088816 -1.9363848
1.8529785 -5.4684849 -1.9373398
1.985332 -5.4248428 -1.9382887
2.1166601 -5.3779821 -1.9392313
2.2468653 -5.3279176 -1.9401662
2.8785057 -5.03055 -1.9447155
3.2391014 -4.8156466 -1.9473232
3.35583 -4.7381582 -1.9481689
3.4706151 -4.6578097 -1.9490019
3.5834961 -4.5746455 -1.9498218
4.2159376 -4.0193095 -1.9544367
4.5003905 -3.7078407 -1.9565266
4.5900879 -3.5994029 -1.957188
4.6771193 -3.4887614 -1.957831
4.7614355 -3.3759847 -1.9584553
4.9976072 -3.0255017 -1.9602118
5.1405368 -2.7824237 -1.9612821
5.3322458 -2.4051366 -1.9627295
5.4444141 -2.146065 -1.9635851
5.4957128 -2.0144904 -1.9639797
5.5437694 -1.8816683 -1.9643513
5.5885348 -1.747685 -1.9647
5.7869043 -0.92392635 -1.9662985
5.8080564 -0.7841174 -1.966481
5.8257618 -0.64381468 -1.966639
5.8399997 -0.50310975 -1.9667727
5.8621387 0.062000733 -1.9670609
5.8589745 0.20341431 -1.9670712
5.852324 0.34470519 -1.967057
5.8285642 0.6265741 -1.966954
5.7909765 0.90690917 -1.9667524
5.7088084 1.3230188 -1.9662662
5.5044727 1.9991338 -1.9649738
5.399756 2.261543 -1.9642919
5.3426075 2.3907006 -1.9639168
5.2822852 2.5183899 -1.9635185
5.1524024 2.7690477 -1.9626553
5.0828905 2.8918664 -1.962191
5.0104003 3.0129063 -1.961705
4.6049314 3.5889752 -1.9589627
4.2321482 4.0107989 -1.9564165
4.1327052 4.1103044 -1.9557343
4.0309081 4.2073078 -1.9550347
3.8204393 4.3935928 -1.9535851
3.7119141 4.4827652 -1.9528363
3.5473046 4.5007815 -1.9228314
