# .PCD v0.7 - Point Cloud Data file format
VERSION 0.7
FIELDS x y z
SIZE 4 4 4
TYPE F F F
COUNT 1 1 1
WIDTH 1500
HEIGHT 1
VIEWPOINT 0 0 0 1 0 0 0
POINTS 1500
DATA ascii
9.4387884 4.4683638 -1.9933311
8.5066891 4.5419011 -1.8406738
8.2410154 4.9251895 -1.8325338
8.1160154 5.1202765 -1.8316921
7.569365 5.8668342 -1.8279867
7.4214745 6.0444551 -1.8269787
7.2692966 6.2182584 -1.8259393
7.1129489 6.3881278 -1.8248694
6.7882028 6.7157168 -1.8226501
5.9719238 6.5077152 -1.6859258
5.6887207 6.5076175 -1.6498445
5.4172363 6.5075226 -1.6161958
4.9054685 6.5073404 -1.5554843
4.1481247 6.4213943 -1.4591843
3.93291 6.4232073 -1.4376075
3.7702637 6.5050311 -1.4351339
3.5633299 6.5049539 -1.4157257
3.1652539 6.5048027 -1.3808054
2.9732811 6.5047269 -1.3651551
2.6015625 6.5045805 -1.3371898
2.4211426 6.5045099 -1.3247747
2.0696776 6.5043683 -1.3028626
1.5618163 6.504158 -1.2767766
1.233291 6.5040188 -1.2635808
0.59253907 6.5037408 -1.2465478
0.43457031 6.5036712 -1.2441605
0.12000977 6.5035281 -1.2415766
-0.036962889 6.5034575 -1.2413703
-0.35121092 6.5033121 -1.2431325
-0.50884765 6.5032392 -1.2451042
-1.1321679 6.4174285 -1.2438465
-1.6393945 6.5009575 -1.2797225
-1.8073046 6.5008721 -1.2879192
-1.9774804 6.5007868 -1.2969815
-2.5041406 6.5005178 -1.3296715
-2.6859765 6.5004239 -1.3425235
-2.8714941 6.5003262 -1.356424
-3.2548633 6.5001249 -1.3875735
-3.657207 6.4999075 -1.4235809
-3.8665721 6.4997964 -1.4435779
-4.0820017 6.4996796 -1.4650102
-4.3040724 6.4995575 -1.4879676
-4.5333495 6.4994316 -1.5125504
-4.7704687 6.4993 -1.5388701
-5.8871579 6.9107656 -1.732857
-6.0478611 6.7618036 -1.731607
-6.2048631 6.6092048 -1.7303805
-6.6541405 6.1314225 -1.7271142
-6.7960644 5.965435 -1.7260685
-6.9339547 5.7962737 -1.7250506
-7.3228316 5.2706647 -1.7221687
-7.6732421 4.7199345 -1.7195538
-8.6243649 4.4795833 -1.8550082
-9.1317768 3.4203715 -1.861305
-9.2087202 3.1979809 -1.8607074
-9.4079781 2.5212975 -1.8591357
-9.5593748 1.8328918 -1.8579012
-9.5990915 1.601383 -1.8575654
-9.6333685 1.3690485 -1.857268
-9.6857128 0.90240294 -1.856788
-9.7162695 0.43393433 -1.8564622
-9.7233591 0.19931945 -1.8563572
-9.7249994 -0.035387572 -1.8562911
-9.7211819 -0.2700592 -1.8562634
-9.6971283 -0.73882264 -1.856325
-9.6769629 -0.97266906 -1.8564137
-9.6202631 -1.4386945 -1.8567077
-9.4946966 -2.1316953 -1.8574374
-9.3842087 -2.588284 -1.8581151
-9.3210154 -2.8145943 -1.858511
-9.1788177 -3.2626474 -1.8594157
-9.0999022 -3.4841533 -1.8599243
-8.7329493 -4.3506641 -1.8623265
-8.6286325 -4.561842 -1.8630176
-8.5193453 -4.7706056 -1.8637445
-8.0338373 -5.5792999 -1.8670017
-7.9006543 -5.7743316 -1.8679012
-7.7585449 -5.9629426 -1.8677864
-7.0485449 -5.9797602 -1.7643411
-6.4527731 -6.3319888 -1.7256422
-6.1471872 -6.6440225 -1.727738
-5.661406 -7.0849972 -1.7310827
-5.3201857 -7.3599181 -1.7334402
-4.7840624 -7.742064 -1.7371557
-4.5991993 -7.8610678 -1.7384398
-4.0276856 -8.1918945 -1.7424185
-3.831826 -8.2932005 -1.7437848
-3.6334667 -8.3899155 -1.7451698
-3.0243847 -8.6518555 -1.7494311
-2.3965819 -8.870244 -1.7538354
-2.183701 -8.9331121 -1.7553314
-1.7531641 -9.0436506 -1.7583609
-1.3170605 -9.1336536 -1.7614346
-0.20884766 -9.2668018 -1.7692678
0.014833984 -9.2774544 -1.7708526
0.46329102 -9.2825756 -1.7740338
0.91225582 -9.2660408 -1.7772238
1.1366601 -9.2496309 -1.7788198
1.5844824 -9.20047 -1.7820092
1.8075781 -9.1677399 -1.7836001
2.2519042 -9.0859728 -1.7867721
2.6924024 -8.9825449 -1.7899221
2.9109278 -8.9227419 -1.7914867
3.128125 -8.8575897 -1.7930431
3.3438573 -8.7870979 -1.7945905
3.3411036 -7.6477036 -1.5929968
4.5998826 -8.2539568 -1.8036277
5.0008006 -8.0352783 -1.8065237
5.1973534 -7.9184866 -1.8079457
5.3911033 -7.7968102 -1.8093488
5.7697849 -7.5390396 -1.8120959
6.4882517 -6.9678526 -1.8173275
6.8261814 -6.6556964 -1.8197982
6.9894137 -6.4932961 -1.8209944
7.3038473 -6.1562853 -1.8233041
7.4547653 -5.9818769 -1.8244157
7.7975879 -5.9533935 -1.8725899
8.1868744 -5.9434433 -1.9310586
8.5591402 -5.9036341 -1.9846747
8.8434572 -5.4896159 -1.9867886
9.2308493 -4.842546 -1.9896884
9.3492088 -4.6204419 -1.9905798
9.5692577 -4.1674485 -1.9922469
9.6707907 -3.9368322 -1.993021
9.766592 -3.7036726 -1.9937551
10.090859 -2.7485192 -1.9962785
10.156904 -2.5048625 -1.9968039
10.216885 -2.2595704 -1.9972867
10.270683 -2.0127988 -1.997726
10.446338 -0.76235718 -1.9992634
10.472529 -0.25746581 -1.9995668
10.464335 0.50082761 -1.9996853
10.399209 1.2563555 -1.9993987
10.324336 1.7562957 -1.998984
10.277529 2.0046594 -1.9987097
10.224522 2.2517376 -1.9983909
10.02873 2.9836621 -1.9971719
9.9513474 3.2240136 -1.9966787
9.6836329 3.9320319 -1.9949439
9.5827341 4.1631842 -1.9942815
9.1593647 4.5165057 -1.9493084
8.6549997 4.5306525 -1.8646966
8.4007025 4.6591911 -1.8336052
8.0307322 5.2475677 -1.8311166
7.6183982 5.8058829 -1.8283206
6.6774802 6.8205853 -1.8219417
5.7831931 6.5076504 -1.6617733
5.5078611 6.5075531 -1.6273216
5.2435641 6.5074615 -1.5951816
4.448545 6.4215021 -1.4910966
4.2228513 6.4214215 -1.46698
3.8415916 6.5050578 -1.4420117
3.4294238 6.5049028 -1.4036158
3.2312403 6.504827 -1.3863642
2.8485937 6.5046782 -1.3554248
2.12833 6.5043912 -1.3063054
1.9558398 6.5043216 -1.2964313
1.4523633 6.5041118 -1.2720528
1.1260059 6.5039725 -1.2599174
0.8050586 6.5038333 -1.2508981
0.64613283 6.5037651 -1.2475213
0.17316405 6.5035529 -1.2418094
0.016162109 6.5034819 -1.2413599
-0.29797852 6.5033355 -1.2426302
-0.61347657 6.5031877 -1.2468101
-0.91958982 6.417532 -1.2374632
-1.0782226 6.4174552 -1.2421045
-1.2384765 6.4191132 -1.2478476
-1.4178222 6.5010662 -1.2700633
-1.5830566 6.5009842 -1.2771401
-3.1887598 6.5001593 -1.3819757
-3.3857031 6.5000553 -1.3989224
-3.587666 6.4999466 -1.4171247
-4.4549317 6.4994745 -1.5040442
-4.6893163 6.4993448 -1.5297625
-4.9320116 6.4992108 -1.5572991
-5.9938769 6.8126178 -1.7320275
-6.1521678 6.6612344 -1.7307928
-6.6052246 6.1868501 -1.7274742
-6.748486 6.0219622 -1.7264193
-6.8877344 5.8538666 -1.7253921
-7.1539841 5.5084162 -1.7234222
-7.280859 5.3312421 -1.7224805
-7.4034667 5.1512604 -1.7215687
-7.5217772 4.9685516 -1.7206866
-7.6357031 4.7832122 -1.7198352
-7.7452245 4.5953655 -1.719014
-8.4650393 4.4849749 -1.8285574
-8.7383785 4.3630705 -1.8643161
-8.8376169 4.1492448 -1.8635621
-8.9316988 3.9332511 -1.8628442
-9.1045895 3.4952178 -1.8615154
-9.3249512 2.8248155 -1.8597958
-9.3878908 2.5982635 -1.8592962
-9.5447063 1.9110217 -1.8580233
-9.5862398 1.6798151 -1.857675
-9.6531153 1.2149371 -1.8570923
-9.7126465 0.5132733 -1.8565063
-9.7027435 -0.6595996 -1.8563037
-9.6843748 -0.89359432 -1.8563796
-9.6605959 -1.1271118 -1.8564938
-9.6313763 -1.3600256 -1.856647
-9.5113087 -2.0539706 -1.8573376
-9.276289 -2.9635305 -1.8587936
-9.2043257 -3.1873081 -1.8592523
-9.1271772 -3.4094088 -1.859748
-8.9573536 -3.8481131 -1.8608509
-8.8647757 -4.0644727 -1.8614576
-8.7671089 -4.2787004 -1.8621008
-8.6644726 -4.4906616 -1.8627799
-8.5568752 -4.700254 -1.8634945
-8.4443359 -4.907362 -1.8642449
-8.3269529 -5.111867 -1.8650305
-8.0778418 -5.5126348 -1.8667048
-7.9462695 -5.7086821 -1.8675929
-7.1631737 -5.9770927 -1.7807549
-6.6487498 -6.1155343 -1.7243021
-6.5029688 -6.2778287 -1.7252988
-6.3533497 -6.4367566 -1.7263234
-6.1999512 -6.5922155 -1.7273757
-6.0428414 -6.7441297 -1.7284554
-5.5499997 -7.177681 -1.7318518
-5.3788476 -7.3145142 -1.7330344
-5.2043848 -7.4473753 -1.7342416
-5.0267186 -7.57617 -1.7354723
-4.2857323 -8.0492201 -1.7406205
-3.8983691 -8.2594357 -1.7433202
-3.7008495 -8.3577147 -1.7446992
-3.5008788 -8.4513493 -1.7460965
-3.2985742 -8.540288 -1.7475113
-3.0940623 -8.624465 -1.748943
-2.8874316 -8.7038193 -1.7503909
-2.6787305 -8.7782965 -1.7518545
-2.4682422 -8.8478441 -1.7533321
-0.9511621 -9.1925688 -1.7640175
-0.72973633 -9.221015 -1.7655821
-0.50740236 -9.2441664 -1.7671545
-0.28443357 -9.2619886 -1.7687325
-0.060898434 -9.2744503 -1.7703158
0.16307616 -9.281539 -1.7719036
0.83632809 -9.2703657 -1.7766839
1.7322069 -9.1794243 -1.7830625
2.1769726 -9.1013308 -1.7862369
2.6181934 -9.0015554 -1.7893912
2.8371289 -8.9435797 -1.7909582
3.2710059 -8.8115501 -1.794068
3.4856932 -8.7375374 -1.7956085
3.535332 -7.7524924 -1.626376
4.119082 -8.4839401 -1.8001623
4.3261914 -8.3890152 -1.801654
4.5311036 -8.2889643 -1.8031313
5.1311622 -7.9585547 -1.8074667
5.3258691 -7.8385167 -1.8088763
6.0748339 -7.3105764 -1.8143139
6.4296484 -7.0189338 -1.8168997
6.9346189 -6.5487113 -1.8205926
7.0952344 -6.3835831 -1.8217709
7.2517872 -6.2144175 -1.8229212
7.6710935 -5.9565873 -1.8538285
8.4580469 -5.9364085 -1.9724079
8.6554003 -5.7682886 -1.9853894
8.7967672 -5.5606785 -1.9864407
9.0639353 -5.1348991 -1.9884356
9.3097658 -4.6959352 -1.9902825
9.8267574 -3.5480771 -1.9942182
9.9128323 -3.3110096 -1.9948843
9.9929686 -3.0717885 -1.9955087
10.067129 -2.8305674 -1.9960912
10.135263 -2.5874808 -1.9966311
10.253164 -2.0964327 -1.9975821
10.30291 -1.8487688 -1.9979926
10.457812 -0.5954718 -1.9993838
10.475644 -0.090195313 -1.9996279
10.475039 0.16263977 -1.9996824
10.468115 0.41537902 -1.9996921
10.454863 0.66786557 -1.9996568
10.435283 0.91993648 -1.9995766
10.409404 1.1714227 -1.9994514
10.294063 1.920758 -1.9988073
10.243155 2.1682873 -1.9985037
9.9781933 3.14291 -1.9968504
9.8968649 3.3819084 -1.9963289
9.3405075 4.5113797 -1.9799496
8.8207417 4.5260258 -1.8923782
8.4396677 4.5910883 -1.8338656
8.3228512 4.7913775 -1.8330835
8.2011423 4.9886041 -1.8322656
7.9433298 5.3733931 -1.8305258
7.8074217 5.5607171 -1.8296047
7.3727441 6.1010709 -1.8266461
6.8996482 6.606535 -1.8233604
6.7342868 6.7672038 -1.8223056
6.1707711 6.5077848 -1.7118261
5.8790135 6.5076823 -1.6739813
5.5997167 6.5075846 -1.6387092
4.8262892 6.5073113 -1.5464287
4.2983985 6.4214482 -1.474955
3.8710644 6.4343839 -1.4333024
3.702744 6.5050068 -1.4287096
3.4976072 6.5049286 -1.4097371
3.1027148 6.5047784 -1.3756176
2.9121289 6.504704 -1.3603399
2.725625 6.5046306 -1.3461728
2.3635254 6.5044866 -1.3209736
2.1873047 6.5044155 -1.3098538
2.013916 6.5043449 -1.2996716
1.843125 6.5042744 -1.2903916
1.5082226 6.5041351 -1.2744241
1.3436816 6.5040665 -1.2676839
0.85905272 6.5038567 -1.25221
0.069257811 6.5035062 -1.2414308
-0.087705076 6.5034342 -1.2414598
-0.40211913 6.5032878 -1.2436892
-0.55994141 6.5032134 -1.2458972
-0.71839839 6.503139 -1.2488416
-1.0244141 6.4174824 -1.240448
-1.5269433 6.5010114 -1.2746537
-1.8620605 6.500845 -1.2907529
-2.2065723 6.5006704 -1.3103539
-2.3829784 6.5005803 -1.3215454
-2.745537 6.5003934 -1.346899
-2.9323144 6.5002947 -1.3611488
-3.1231639 6.5001931 -1.376514
-3.3185253 6.5000906 -1.3930516
-3.5187402 6.4999833 -1.4108202
-3.9355175 6.4997587 -1.4503443
-4.3773828 6.4995184 -1.4957305
-4.8489161 6.4992571 -1.5477706
-5.9394922 6.863018 -1.7324504
-6.700459 6.0781097 -1.726773
-6.841084 5.9110894 -1.7257364
-7.110127 5.5676947 -1.7237473
-7.2384081 5.3915153 -1.722796
-7.4822264 5.0306706 -1.7209817
-7.5976562 4.8462138 -1.7201196
-7.7242966 4.6687236 -1.7228024
-8.3101263 4.4901948 -1.8029561
-8.7037201 4.4349136 -1.8645788
-8.9004297 4.0065718 -1.8630831
-9.23248 3.1257122 -1.8605219
-9.3024607 2.9011493 -1.8599731
-9.4265919 2.4476244 -1.8589865
-9.4806929 2.2189031 -1.8585494
-9.5294237 1.989035 -1.85815
-9.572793 1.7581512 -1.8577887
-9.6921387 0.82677853 -1.8567249
-9.7191601 0.35810852 -1.8564239
-9.7243557 -0.1112561 -1.8562778
-9.71875 -0.34589598 -1.856263
-9.707715 -0.58033937 -1.8562868
-9.6912012 -0.81446713 -1.8563495
-9.6692677 -1.0481579 -1.8564508
-9.6418552 -1.281311 -1.8565909
-9.570859 -1.7454224 -1.8569868
-9.5272455 -1.9761519 -1.8572427
-9.4239941 -2.4343657 -1.8578686
-9.3643551 -2.661608 -1.8582389
-9.2994337 -2.8874536 -1.8586471
-9.2292671 -3.1117709 -1.8590927
-9.0732813 -3.5553844 -1.8600966
-8.9875097 -3.7744365 -1.8606541
-8.8966694 -3.9915016 -1.8612481
-8.6997747 -4.4191999 -1.8625461
-8.4829588 -4.8375692 -1.8639871
-8.2466602 -5.2456903 -1.865569
-7.9913182 -5.6426744 -1.8672886
-6.9409666 -5.9822459 -1.7490436
-6.6971874 -6.0598717 -1.7239712
-6.5527344 -6.2232847 -1.7249582
-6.2522755 -6.5400071 -1.7270166
-5.9368944 -6.842649 -1.7291843
-5.7737694 -6.9884672 -1.7303079
-5.6071582 -7.130496 -1.7314572
-5.4371581 -7.2686577 -1.7326313
-5.2637892 -7.4028678 -1.7338303
-4.9074411 -7.6591177 -1.7362994
-4.7246189 -7.7810082 -1.7375685
-4.3501563 -8.0119009 -1.740172
-3.964658 -8.2251434 -1.7428579
-3.7679589 -8.324975 -1.7442306
-3.5688183 -8.4201918 -1.7456216
-3.3672948 -8.510725 -1.7470306
-2.749619 -8.7536402 -1.7513572
-2.5396972 -8.8248663 -1.7528305
-2.3279395 -8.8911238 -1.7543176
-2.1145411 -8.9523573 -1.7558179
-1.4651464 -9.1055231 -1.7603903
-1.2460546 -9.1462479 -1.7619357
-1.0258985 -9.1817427 -1.7634896
-0.58273435 -9.2369337 -1.7666217
0.08724609 -9.2797413 -1.7713659
0.31143555 -9.2832575 -1.772956
0.53584957 -9.2813759 -1.774549
0.76037109 -9.274065 -1.776144
1.2091309 -9.2431545 -1.7793356
1.4331347 -9.2195425 -1.7809309
1.6566894 -9.190486 -1.7825241
1.8796484 -9.1559963 -1.7841142
2.3233886 -9.070715 -1.7872829
2.5438378 -9.0199566 -1.7888592
3.1980371 -8.8353758 -1.7935445
3.4132617 -8.7631721 -1.7950884
4.8662891 -8.1115055 -1.8055514
5.4531446 -7.7564268 -1.8097986
5.829834 -7.495584 -1.8125324
6.0134568 -7.3581305 -1.8138674
6.1937399 -7.2160821 -1.8151797
6.5438962 -6.9185538 -1.8177338
6.7135253 -6.763226 -1.8189738
6.8793845 -6.6036472 -1.8201878
7.1992478 -6.2720966 -1.8225349
7.3530955 -6.1003222 -1.8236667
7.5470409 -5.9596982 -1.8355535
8.3179293 -5.940053 -1.9509825
8.6064453 -5.8377032 -1.9850256
8.8874702 -5.4213495 -1.9871168
9.020195 -5.2078876 -1.9881085
9.1476564 -4.9910903 -1.9890634
9.6027145 -4.0931845 -1.9925015
9.7024021 -3.8617332 -1.9932629
9.7963085 -3.6277621 -1.9939837
9.8843651 -3.3914547 -1.9946636
10.042715 -2.9123831 -1.9958988
10.176982 -2.4257207 -1.9969648
10.234951 -2.1799288 -1.9974334
10.371778 -1.4346319 -1.9985778
10.452285 -0.68083191 -1.9993246
10.418877 1.0864031 -1.9994988
10.388818 1.3374151 -1.9993439
10.309873 1.8367144 -1.9989001
10.261084 2.0846808 -1.9986116
10.077676 2.8199158 -1.997481
10.004355 3.0615764 -1.997017
9.8397655 3.5388517 -1.9959604
8.117939 5.1173711 -1.8317051
7.9882712 5.3092484 -1.8308297
7.8538961 5.4977398 -1.8299202
7.7149801 5.6827397 -1.8289773
7.2716308 6.215673 -1.8259552
7.1153612 6.3856058 -1.8248858
6.9549899 6.5514994 -1.8237863
6.6227927 6.8711638 -1.8215911
5.4212303 6.5075235 -1.6166852
4.9091892 6.5073428 -1.5559103
4.3747654 6.4214749 -1.483121
4.1514354 6.4213943 -1.4595288
3.9361229 6.4232097 -1.4379263
3.7734179 6.5050321 -1.435437
3.566416 6.5049539 -1.4160085
3.3648143 6.5048785 -1.3979021
3.1681933 6.5048027 -1.3810484
2.9761424 6.5047283 -1.3653822
2.6043162 6.5045819 -1.3373839
1.2357422 6.5040202 -1.2636685
0.75358397 6.5038128 -1.2497244
0.59491211 6.5037417 -1.2465885
0.27949217 6.5036016 -1.242524
0.12237304 6.5035281 -1.2415847
-0.50647461 6.5032392 -1.2450687
-0.66469723 6.5031643 -1.2477624
-1.4710351 6.5010395 -1.2722611
-1.8047656 6.5008731 -1.2877885
-2.501416 6.5005178 -1.3294848
-2.8686621 6.5003276 -1.3562058
-3.2518945 6.5001264 -1.3873204
-3.6540916 6.4999104 -1.4232887
-3.8633494 6.4997978 -1.4432647
-4.300674 6.4995599 -1.4876095
-4.7668262 6.4993024 -1.5384598
-5.2671876 6.4990225 -1.5967611
-5.884697 6.9129839 -1.7328763
-6.0454688 6.7640567 -1.7316257
-6.2025585 6.6115179 -1.7303985
-6.5060544 6.2965446 -1.7282037
-6.7939258 5.9679546 -1.7260842
-7.065752 5.6266422 -1.7240759
-7.1954684 5.451447 -1.7231146
-7.4421973 5.0924897 -1.7212802
-8.617178 4.4798284 -1.8538121
-8.7710257 4.2941914 -1.8640683
-8.8685837 4.079649 -1.8633264
-8.9610443 3.8629851 -1.8626196
-9.2075777 3.2013385 -1.8607162
-9.2793646 2.9773095 -1.8601546
-9.4629974 2.2964287 -1.8586929
-9.5135345 2.0669391 -1.8582809
-9.5985155 1.6048815 -1.8575704
-9.7034864 0.67187196 -1.8566083
-9.7161131 0.43747497 -1.8564641
-9.7212696 -0.2665399 -1.8562636
-9.71206 -0.50106198 -1.8562744
-9.697402 -0.73531002 -1.8563238
-9.6517382 -1.2025006 -1.8565392
-9.6207514 -1.4351971 -1.856705
-9.5843945 -1.6671319 -1.856909
-9.5426073 -1.8981924 -1.8571517
-9.4954586 -2.1282408 -1.8574328
-9.3851366 -2.5848706 -1.8581094
-9.3220015 -2.8111963 -1.8585047
-9.253623 -3.0360477 -1.8589376
-9.1799707 -3.2592969 -1.8594083
-8.927969 -3.9182818 -1.8610431
-8.8337593 -4.1339688 -1.8616617
-8.2879877 -5.1774011 -1.8652917
-8.1642771 -5.3782897 -1.8661227
-8.0358295 -5.5763373 -1.8669882
-7.9027147 -5.77141 -1.8678873
-7.3988867 -5.9715476 -1.8148675
-7.0536132 -5.9796424 -1.7650666
-6.3041697 -6.4873924 -1.7266607
-6.1495605 -6.6417127 -1.7277218
-5.147285 -7.4894691 -1.7346369
-4.6020117 -7.8593073 -1.7384204
-4.2238379 -8.084424 -1.7410516
-4.0306053 -8.1903238 -1.742398
-3.8348045 -8.2917051 -1.743764
-2.399785 -8.8692598 -1.7538128
-2.1869531 -8.9321957 -1.7553085
-1.9724315 -8.9900885 -1.7568173
-1.7564453 -9.0428944 -1.7583379
-1.5390136 -9.0905609 -1.7598697
-1.3203321 -9.1330481 -1.7614115
-1.1005371 -9.1703176 -1.7629626
-0.87969726 -9.202343 -1.7645223
-0.65795898 -9.229084 -1.7660898
-0.43540037 -9.2505159 -1.767664
-0.21223633 -9.2666025 -1.7692438
0.011445312 -9.2773304 -1.7708285
0.23552734 -9.2826738 -1.7724175
0.45989257 -9.2826166 -1.7740097
0.90885741 -9.2662468 -1.7771994
1.5810742 -9.2009315 -1.7819849
1.8042284 -9.1682758 -1.7835761
2.0267968 -9.1301937 -1.7851645
2.248584 -9.086668 -1.7867483
2.469326 -9.0377302 -1.788326
3.1248729 -8.8586092 -1.79302
3.3406055 -8.7881927 -1.7945672
3.5547459 -8.7124786 -1.7961044
3.3367772 -7.6453686 -1.592257
4.3926854 -8.3572369 -1.8021334
4.7986035 -8.1487713 -1.8050624
4.9978318 -8.0370045 -1.8065023
5.1944237 -7.9202828 -1.8079245
5.3882127 -7.7986741 -1.809328
6.1331153 -7.2646527 -1.8147383
6.6565428 -6.8162613 -1.8185571
6.8237009 -6.6581135 -1.8197801
7.3015137 -6.1588864 -1.823287
7.4523926 -5.9845414 -1.8243983
7.791914 -5.9535375 -1.8717434
8.18083 -5.9435992 -1.9301422
8.7016792 -5.7015686 -1.9857333
9.4603615 -4.3987818 -1.9914203
9.6693068 -3.9403343 -1.9930096
10.017607 -2.994019 -1.9957016
10.269902 -2.0165331 -1.9977195
10.317636 -1.76846 -1.9981159
10.462382 -0.51389647 -1.9994351
10.472441 -0.26128235 -1.9995654
10.473495 0.24433838 -1.9996905
10.449219 0.74938476 -1.9996357
10.427588 1.0012817 -1.9995409
10.399668 1.2525457 -1.9994012
10.365458 1.5030138 -1.9992169
10.325 1.7525171 -1.9989877
10.166318 2.4936504 -1.9980344
10.101113 2.7377014 -1.9976285
10.029853 2.979995 -1.9971789
9.9525681 3.2203789 -1.9966865
9.7801361 3.6947773 -1.9955734
8.6623335 4.5304461 -1.8659197
8.1607809 5.0516715 -1.8319939
8.0326948 5.2446585 -1.83113
7.8999219 5.4343119 -1.8302318
7.6205955 5.8031378 -1.8283355
7.3235936 6.1572514 -1.8263104
7.0097165 6.4957952 -1.8241619
5.7874608 6.5076518 -1.6623148
5.5119042 6.5075555 -1.6278219
5.2474608 6.5074615 -1.5956471
4.2262111 6.4214215 -1.4673338
4.0086718 6.4232354 -1.445213
3.6358299 6.5049796 -1.4224306
3.432451 6.5049038 -1.4038861
3.234199 6.5048285 -1.386616
2.666162 6.5046072 -1.3418224
2.4845312 6.5045352 -1.3290482
2.3062208 6.5044632 -1.317274
2.1309471 6.5043926 -1.3064631
1.9584277 6.504323 -1.2965741
1.7884082 6.504252 -1.2875794
1.6206152 6.5041828 -1.2794479
0.49034178 6.5036955 -1.2449199
0.17553711 6.5035539 -1.2418207
-0.13845703 6.5034099 -1.241624
-0.29558593 6.5033379 -1.2426091
-0.61106443 6.50319 -1.2467678
-0.91718745 6.4175348 -1.2373981
-1.4153222 6.5010672 -1.2699625
-1.5805371 6.5009856 -1.2770269
-1.7476953 6.5009012 -1.2849233
-2.6212792 6.5004568 -1.3378618
-2.8054688 6.5003619 -1.3513867
-2.9935253 6.5002627 -1.365991
-3.1858106 6.5001602 -1.3817272
-3.7918847 6.4998355 -1.4363471
-4.0051074 6.4997211 -1.4572624
-4.9282517 6.4992118 -1.5568662
-5.1798339 6.4990716 -1.5863241
-6.3046579 6.5089679 -1.7296823
-6.6030273 6.1893301 -1.7274905
-7.0209079 5.6852727 -1.7244078
-7.278955 5.3339701 -1.7224947
-7.52 4.9713602 -1.7206998
-7.7435446 4.598249 -1.7190268
-8.9303217 3.9365277 -1.8628548
-9.1033592 3.4985528 -1.8615249
-9.3239746 2.8282287 -1.8598034
-9.4446678 2.3738184 -1.8588411
-9.4970407 2.1447179 -1.8584161
-9.5856543 1.6833123 -1.85768
-9.6218548 1.4512554 -1.8573691
-9.6780567 0.98503232 -1.8568615
-9.6979685 0.75111204 -1.856666
-9.712451 0.51681393 -1.8565086
-9.7231541 -0.18712462 -1.8562688
-9.6846972 -0.89006531 -1.8563781
-9.6609955 -1.1235913 -1.8564919
-9.631855 -1.3565173 -1.8566445
-9.4052925 -2.5079503 -1.8579843
-9.3439646 -2.7347531 -1.8583666
-9.2773237 -2.960119 -1.8587871
-9.0461226 -3.6263866 -1.8602728
-8.6660643 -4.4874635 -1.8627691
-8.5585346 -4.6970901 -1.8634835
-8.4460936 -4.9042363 -1.8642333
-8.3287792 -5.1087775 -1.8650181
-8.2066698 -5.3106155 -1.8658377
-7.9483008 -5.7057223 -1.8675791
-7.8121676 -5.8987784 -1.8685001
-7.1683493 -5.9769711 -1.7815012
-6.8352342 -5.9846716 -1.734111
-6.6509275 -6.1130462 -1.724287
-6.2023239 -6.5898786 -1.7273595
-6.0452442 -6.7418499 -1.7284389
-5.8845606 -6.8901744 -1.7295446
-5.381484 -7.3124633 -1.7330161
-4.6649122 -7.8194766 -1.7379833
-4.0963182 -8.1549788 -1.74194
-3.9013867 -8.2579021 -1.7432992
-3.7038867 -8.3562412 -1.744678
-3.3016992 -8.5389662 -1.7474895
-2.8905566 -8.7026596 -1.750369
-2.2591016 -8.9114704 -1.7548013
-2.045166 -8.9710789 -1.7563058
-1.8296484 -9.0256033 -1.7578224
-1.3944433 -9.1192532 -1.7608889
-0.95452148 -9.1921015 -1.7639937
-0.73307616 -9.2206278 -1.7655586
-0.51080078 -9.2438536 -1.7671304
-0.064296871 -9.2743092 -1.7702918
-5.7693653 5.6673074 -1.7332848
-5.9011521 5.523344 -1.7323163
-6.0294237 5.3763919 -1.7313718
-6.1541405 5.2265396 -1.7304518
-6.2752247 5.0738773 -1.7295572
-6.3926463 4.918488 -1.7286878
-6.6159863 4.5998955 -1.7270286
-6.8240528 4.5041156 -1.7524045
-7.1758785 4.4915471 -1.814381
-7.5174217 4.4565482 -1.8730022
-7.6196775 4.2720819 -1.8722335
-7.7175388 4.0853424 -1.8714956
-7.9842086 3.512536 -1.86947
-8.0639839 3.3177545 -1.8688585
-8.1391897 3.1212163 -1.8682791
-8.4448538 2.1159961 -1.8658761
-8.5337982 1.7053943 -1.8651494
-8.6309566 1.0830994 -1.864315
-8.653594 0.87439698 -1.8641058
-8.6922169 0.24604248 -1.8636853
-8.6952925 0.036202393 -1.8636148
-8.6867476 -0.38338196 -1.8635777
-8.675107 -0.59291381 -1.8636115
-8.637207 -1.0108978 -1.8637832
-8.610918 -1.2191284 -1.8639213
-8.5797853 -1.4267107 -1.8640939
-8.4069824 -2.2483122 -1.8651289
-8.2919235 -2.6523633 -1.8658514
-8.227314 -2.8523235 -1.8662633
-8.0841208 -3.247582 -1.8671875
-8.0055761 -3.4426639 -1.8676995
-7.8348336 -3.8272264 -1.8688216
-7.7427244 -4.0165009 -1.8694311
-7.6461716 -4.2036276 -1.8700728
-7.4399219 -4.5710273 -1.8714509
-7.3302927 -4.751102 -1.8721869
-7.0984764 -5.1035228 -1.87375
-6.9762988 -5.2756662 -1.8745767
-6.8500681 -5.4449668 -1.8754332
-5.6199608 -5.9798803 -1.7587897
-5.3945408 -6.0248947 -1.7332232
-5.1033301 -6.2854252 -1.735229
-4.799912 -6.5322247 -1.7373248
-4.6437597 -6.6502895 -1.7384055
-4.4847751 -6.7646971 -1.7395071
-4.3230076 -6.8753891 -1.7406291
-3.6499608 -7.2795982 -1.7453113
-3.4756444 -7.3706946 -1.7465271
-3.2990723 -7.4576831 -1.7477598
-2.7569041 -7.6934533 -1.7515522
-2.5723436 -7.7634778 -1.7528458
-2.3860157 -7.8291235 -1.7541527
-2.1980567 -7.8903589 -1.7554724
-2.0085156 -7.9471288 -1.756804
-1.2369629 -8.1287804 -1.762237
-0.84462887 -8.1918535 -1.7650064
-0.64720702 -8.2163429 -1.7664016
-0.44909179 -8.2360992 -1.767803
-0.051269531 -8.2613192 -1.7706201
0.14826171 -8.2667408 -1.7720349
0.54783201 -8.2631721 -1.774871
1.1469042 -8.2215815 -1.7791319
1.7428125 -8.1364613 -1.7833804
1.9401855 -8.098423 -1.78479
2.1367383 -8.0555792 -1.7861947
2.3323438 -8.0079365 -1.787594
2.5268555 -7.9555173 -1.7889864
2.7202344 -7.8983321 -1.790372
3.1028905 -7.7697744 -1.7931173
3.6650779 -7.5419226 -1.7971598
3.8488672 -7.4567657 -1.7984838
4.735332 -6.9639225 -1.8048893
5.0726852 -6.7364521 -1.8073361
5.2372556 -6.6164489 -1.8085318
5.3989158 -6.4923539 -1.8097079
5.5575485 -6.3642306 -1.8108636
5.8654199 -6.0962248 -1.8131106
6.311914 -5.9563217 -1.8600156
6.6163082 -5.9483562 -1.9068489
6.9364157 -5.9397941 -1.9572103
7.8091893 -4.932426 -1.9795789
8.1562204 -4.3602815 -1.9821746
8.3637104 -3.9647872 -1.9837391
8.7188282 -3.1444533 -1.9864502
8.9909468 -2.2918754 -1.9885795
9.0456448 -2.0746899 -1.9890182
9.0949116 -1.8561707 -1.9894186
9.1387014 -1.6364465 -1.9897805
9.1770315 -1.4156616 -1.9901041
9.2588081 -0.74835205 -1.9908398
9.2749605 -0.52474183 -1.9910061
9.2855072 -0.30078247 -1.9911333
9.2717772 0.5956744 -1.9912444
9.1687794 1.4862041 -1.9907207
9.1291695 1.7068353 -1.9904913
9.0841017 1.9263873 -1.9902225
8.9162893 2.5771446 -1.9891829
8.7776661 3.0030186 -1.9882984
8.530508 3.6271942 -1.98669
8.4379005 3.8308246 -1.9860799
8.2377443 4.2306733 -1.9847528
6.2669625 5.721468 -1.8187109
6.1237693 5.8678594 -1.8177285
5.8269629 6.1495929 -1.8156881
5.5169239 6.4160199 -1.8135499
5.1944823 6.6664872 -1.8113058
4.5833693 6.5070634 -1.7058319
4.2949119 6.4212909 -1.6556839
3.4944823 6.504777 -1.5825518
3.0997558 6.5046306 -1.5442842
2.9092286 6.5045571 -1.5271497
2.0112793 6.5042057 -1.4591163
1.8405273 6.5041361 -1.4487115
1.6720605 6.5040679 -1.4392864
1.3411914 6.5039301 -1.4232587
1.1783105 6.5038614 -1.4166074
1.0168653 6.5037918 -1.4108348
0.85662109 6.5037236 -1.4059243
0.69741207 6.503654 -1.4018618
0.53900391 6.5035844 -1.3986346
0.38124022 6.5035138 -1.3962332
0.2239453 6.5034428 -1.3946513
0.066904299 6.5033722 -1.3938836
-0.090058595 6.5033011 -1.3939276
-0.24711913 6.5032282 -1.3947848
-0.86851561 6.4174261 -1.3879288
-1.86458 6.5007071 -1.4494174
-2.2091503 6.5005302 -1.4714551
-2.3856053 6.5004387 -1.4840387
-2.5652051 6.5003448 -1.4977175
-2.9350781 6.5001493 -1.5285577
-3.5217187 6.4998322 -1.5843887
-3.9386523 6.4996023 -1.6288116
-4.3826075 6.853405 -1.7434902
-4.5435252 6.7409039 -1.7422652
-4.8570313 6.505187 -1.739954
-5.5876074 5.855175 -1.7346182
-6.1123533 5.2775617 -1.7307601
-6.2346778 5.1258416 -1.7298568
-6.4682713 4.8142276 -1.7281266
-7.4225974 4.4826264 -1.8584274
-7.5856152 4.3347526 -1.8724899
-7.7798142 3.9605865 -1.8710247
-7.870244 3.7703056 -1.8703387
-7.956152 3.5780268 -1.8696845
-8.0374994 3.3838603 -1.8690618
-8.1863966 2.9902704 -1.8679137
-8.253828 2.7910576 -1.8673887
-8.3166018 2.5903771 -1.8668966
-8.3746185 2.3883417 -1.8664378
-8.4279003 2.1850445 -1.8660126
-8.4764061 1.9806097 -1.8656207
-8.5589743 1.5687335 -1.864939
-8.593008 1.3615173 -1.8646491
-8.6221676 1.1535962 -1.8643938
-8.6659079 0.73605466 -1.8639861
-8.6895599 -0.31243712 -1.8635741
-8.6795893 -0.5220508 -1.8635963
-8.64499 -0.9403137 -1.8637445
-8.6203518 -1.1487408 -1.8638709
-8.5565329 -1.5636419 -1.8642271
-8.4733591 -1.9752017 -1.8647217
-8.4245796 -2.1794589 -1.8650202
-8.3710155 -2.3825502 -1.865353
-8.2496967 -2.7848251 -1.8661201
-8.1819916 -2.9838052 -1.8665544
-8.1096287 -3.1811776 -1.8670219
-7.9511132 -3.5707445 -1.8680563
-7.8649802 -3.7627199 -1.8686227
-7.679316 -4.1405573 -1.8698523
-7.5798535 -4.3262076 -1.8705148
-7.3678708 -4.6904588 -1.8719343
-7.1388574 -5.0446482 -1.8734771
-7.0181055 -5.2177267 -1.8742938
-6.6315331 -5.7197595 -1.8769201
-6.275332 -5.9641562 -1.855481
-5.9865136 -5.9712005 -1.8121824
-5.7106051 -5.9777627 -1.7718225
-5.0042968 -6.3686209 -1.7359124
-4.8520899 -6.4914651 -1.7369641
-4.6969137 -6.6107473 -1.7380373
-4.5388865 -6.7264018 -1.7391319
-4.378047 -6.8383627 -1.7402472
-4.0483203 -7.0509076 -1.7425375
-3.0010059 -7.5929966 -1.7498436
-2.0728126 -7.928422 -1.7563522
-1.6904297 -8.0314817 -1.7590417
-1.4972851 -8.0761814 -1.7604018
-0.51620114 -8.2299433 -1.7673281
-0.31768554 -8.2465515 -1.768733
-0.11868164 -8.2583971 -1.7701424
0.48019531 -8.2651339 -1.7743906
0.68006837 -8.25774 -1.7758108
1.0794336 -8.2284479 -1.7786516
1.278711 -8.2065496 -1.7800708
1.8734863 -8.1118298 -1.7843137
2.4611621 -7.9737864 -1.7885159
2.6549511 -7.9182177 -1.7899041
3.0385644 -7.7928519 -1.7926556
3.2281933 -7.7231164 -1.7940173
3.7869041 -7.4860888 -1.7980374
3.9693651 -7.3979273 -1.7993526
4.1497459 -7.3052607 -1.8006543
4.5037889 -7.1066098 -1.8032129
4.848115 -6.8905392 -1.8057067
5.016377 -6.7761188 -1.8069272
5.1818848 -6.6575122 -1.8081294
5.3445606 -6.5347953 -1.8093122
5.66083 -6.277288 -1.8116164
6.2122264 -5.9588914 -1.8449148
6.5116501 -5.9511151 -1.8906233
6.8262501 -5.9427609 -1.9397534
7.3748336 -5.535892 -1.9763561
7.8893261 -4.8085446 -1.9801763
8.0066214 -4.6187992 -1.9810528
8.1192083 -4.4261179 -1.9818968
8.2270117 -4.2306266 -1.9827071
8.3299704 -4.032434 -1.9834838
8.6090622 -3.4229343 -1.9856063
8.7696486 -3.0054295 -1.9868431
8.9093361 -2.5802047 -1.9879333
9.0277243 -2.1483276 -1.9888738
9.0788374 -1.9302423 -1.9892874
9.1993456 -1.2690594 -1.9902966
9.2701168 -0.60044557 -1.9909543
9.2894039 -0.15247741 -1.9911954
9.2906637 0.071745604 -1.9912567
9.2764158 0.51994264 -1.9912597
9.2131348 1.1894659 -1.9909666
9.1809273 1.4113287 -1.9907898
9.1432028 1.6323071 -1.9905734
8.9376364 2.504425 -1.9893175
8.802597 2.9314849 -1.9884589
8.7271481 3.1422863 -1.9879724
8.5607033 3.5577741 -1.9868881
8.4698143 3.7621918 -1.9862906
8.3738766 3.9642265 -1.9856569
8.1672068 4.3606377 -1.9842825
7.5676169 4.5227265 -1.8894873
6.7184863 5.2073407 -1.8217953
6.5876465 5.3653278 -1.8209035
6.4529781 5.519959 -1.8199838
6.3145995 5.6711211 -1.8190371
5.8780956 6.1029925 -1.81604
5.7258105 6.2394609 -1.8149911
5.5702829 6.3720512 -1.8139185
5.4116111 6.5006914 -1.8128222
4.9180956 6.8624945 -1.8094891
4.3712497 6.4213161 -1.6648401
4.1480274 6.421237 -1.6383816
3.932832 6.4230547 -1.6141512
3.7701757 6.5048785 -1.6113747
3.563252 6.5048027 -1.5895845
3.3617382 6.5047283 -1.5692766
3.1651855 6.5046549 -1.5503752
2.9732127 6.5045819 -1.5328043
2.7854395 6.5045109 -1.5165011
2.4210839 6.5043683 -1.4874656
2.2438965 6.5042987 -1.4746329
1.8980175 6.5041604 -1.4521215
1.2332519 6.5038848 -1.4187589
1.0713476 6.5038166 -1.4126908
0.75117189 6.5036774 -1.4031421
0.5925293 6.5036087 -1.3996334
-0.19396484 6.5032525 -1.3944039
-0.35120118 6.5031791 -1.3957993
-1.6393652 6.5008221 -1.436882
-1.8072656 6.5007343 -1.4460846
-1.9774317 6.5006485 -1.4562591
-2.1501172 6.5005608 -1.46744
-2.5040722 6.5003762 -1.4929632
-2.6859276 6.5002813 -1.5073941
-2.8714256 6.5001836 -1.5230017
-3.0609374 6.500082 -1.5398402
-3.2547851 6.4999771 -1.557976
-3.4533789 6.4998684 -1.5774713
-3.8664746 6.4996428 -1.6208566
-4.3275294 6.8906131 -1.7439084
-4.648447 6.6644316 -1.7414646
-5.1085448 6.2985859 -1.7381213
-5.2558203 6.1696463 -1.7370461
-5.3998828 6.037354 -1.735993
-5.5407128 5.9017768 -1.7349621
-5.6782126 5.7629972 -1.7339538
-5.8123436 5.6210966 -1.732969
-6.0701466 5.3282499 -1.7310715
-6.3136034 5.023931 -1.7292731
-6.6508398 4.5474443 -1.7267691
-7.2949705 4.4872513 -1.835585
-7.5509863 4.3971601 -1.8727502
-7.8401561 3.8349199 -1.8705673
-7.9276071 3.6433063 -1.869902
-8.0104885 3.4497662 -1.8692688
-8.0888081 3.2544036 -1.8686676
-8.2315426 2.858634 -1.8675625
-8.4104099 2.253958 -1.8661526
-8.460537 2.0498939 -1.8657495
-8.5463572 1.6386578 -1.8650447
-8.5820217 1.4317077 -1.8647434
-8.6387987 1.0156811 -1.8642437
-8.6598635 0.80682433 -1.8640454
-8.6873436 0.38798094 -1.863753
-8.6937399 0.17821471 -1.8636589
-8.6952248 -0.031642456 -1.8635995
-8.6918259 -0.24146423 -1.8635747
-8.683506 -0.45114806 -1.8635849
-8.6292286 -1.0782923 -1.8638241
-8.5686817 -1.4936676 -1.8641571
-8.4416113 -2.1104779 -1.8649153
-8.3896875 -2.3139784 -1.8652365
-8.3329687 -2.5162444 -1.8655916
-8.2715521 -2.7171702 -1.8659807
-8.2054396 -2.9166522 -1.8664036
-7.9791989 -3.5053451 -1.867872
-7.7119823 -4.0772343 -1.8696352
-7.6140137 -4.2636456 -1.8702869
-7.5116405 -4.4477677 -1.8709707
-7.4049606 -4.6295266 -1.8716854
-7.2939649 -4.8087907 -1.8724313
-7.1787891 -4.9854765 -1.8732077
-7.0594234 -5.1594834 -1.8740139
-6.376152 -5.9616575 -1.8708373
-5.802588 -5.9755936 -1.7851657
-5.3482323 -6.0679116 -1.7335418
-5.2032518 -6.198781 -1.7345403
-4.9039354 -6.4502954 -1.7366058
-4.7497559 -6.5707874 -1.7376717
-4.5926661 -6.6876774 -1.7387593
-4.1048145 -7.0160346 -1.7421447
-3.9369531 -7.1178184 -1.7433124
-3.7666016 -7.2156591 -1.7444986
-3.4187987 -7.3992724 -1.7469238
-3.2415233 -7.4849176 -1.7481619
-3.0621679 -7.56638 -1.7494155
-2.8807616 -7.6436234 -1.7506851
-2.6974316 -7.7165666 -1.751969
-2.5122948 -7.7851758 -1.7532667
-1.7554981 -8.0153236 -1.7585837
-1.5627831 -8.0615625 -1.7599405
-0.78086913 -8.200285 -1.7654568
-0.3849121 -8.2414656 -1.7682571
-0.18605468 -8.2549229 -1.7696652
0.013222656 -8.2635984 -1.7710773
0.21280272 -8.2674732 -1.7724926
0.41257811 -8.2665377 -1.7739105
0.61245114 -8.2607861 -1.7753302
0.81225586 -8.2501955 -1.7767504
1.2113281 -8.2144995 -1.7795907
1.410332 -8.189394 -1.7810088
1.6088476 -8.1594601 -1.7824244
1.8066992 -8.1246901 -1.7838365
2.0038183 -8.0851011 -1.7852446
2.3953416 -7.9915152 -1.7880448
3.1642089 -7.7472382 -1.7935576
3.3332422 -7.6297088 -1.7844583
3.7247264 -7.5148911 -1.7975894
4.0889454 -7.3371181 -1.8002154
4.444541 -7.1414566 -1.8027844
4.790586 -6.9283056 -1.8052896
4.9597459 -6.8153119 -1.8065162
5.1262012 -6.6981177 -1.8077247
5.4504981 -6.4513721 -1.8100836
5.6081834 -6.3219743 -1.8112326
5.7626953 -6.1886444 -1.8123602
6.114121 -5.9614 -1.8301742
6.7180076 -5.9456553 -1.9227295
7.042119 -5.9356809 -1.973902
7.1872168 -5.7671313 -1.9749708
7.3281736 -5.5949545 -1.9760113
7.9674511 -4.6833363 -1.98076
8.0816307 -4.4916358 -1.9816148
8.2956934 -4.0997901 -1.9832251
8.3954096 -3.8998833 -1.9839791
8.8182125 -2.8655605 -1.9872202
8.9508982 -2.4380183 -1.9882613
9.0621576 -2.004189 -1.9891518
9.1516895 -1.5651819 -1.9898895
9.1882324 -1.3440851 -1.9902002
9.2447166 -0.89941037 -1.9907047
9.2789545 -0.45237792 -1.9910516
9.2908592 -0.0041369628 -1.9912404
9.2884274 0.22007874 -1.9912752
9.2475491 0.89139217 -1.9911413
9.2227535 1.1142285 -1.9910175
9.1924505 1.3363622 -1.9908541
9.1152143 1.7779461 -1.9904088
9.0160837 2.2150202 -1.9898069
8.9583788 2.4315112 -1.989448
8.8953218 2.646461 -1.9890504
8.6743841 3.2806714 -1.9876302
8.5903025 3.4880853 -1.9870819
8.501133 3.6932855 -1.9864968
8.3076658 4.096529 -1.9852178
7.3127537 4.5304413 -1.8436871
7.1266208 4.6567888 -1.8245633
7.0091014 4.8253069 -1.8237686
6.7618942 5.1531315 -1.8220907
6.4989548 5.4680109 -1.8202981
6.361836 5.6203618 -1.8193606
5.9288864 6.055944 -1.8163896
5.7777147 6.1937089 -1.8153487
5.6232715 6.3276162 -1.814284
5.1413379 6.7055206 -1.8109576
4.4484277 6.4213433 -1.6742101
4.222744 6.4212651 -1.6471323
4.005322 6.4230814 -1.6223238
3.8414843 6.5049038 -1.6190972
3.4293456 6.5047541 -1.5759869
3.2311718 6.5046792 -1.5566183
3.0376854 6.5046072 -1.5386052
2.4817576 6.5043926 -1.4920558
2.3035059 6.504323 -1.4788535
2.1282811 6.5042534 -1.4667298
1.9558008 6.5041828 -1.4556438
1.7858202 6.5041142 -1.4455594
1.6180663 6.504046 -1.436445
1.2883788 6.5039091 -1.4210114
0.96494138 6.5037699 -1.4091542
0.80503905 6.5037003 -1.4045182
0.64611328 6.5036321 -1.4007279
0.33036131 6.5034919 -1.3956323
-0.14082031 6.5032783 -1.3941165
-0.45544919 6.5031314 -1.397171
-0.91957027 6.4174004 -1.3894329
-1.0782031 6.4173236 -1.3946459
-1.4177831 6.5009317 -1.4260364
-1.5830274 6.5008502 -1.4339828
-1.7502148 6.5007648 -1.4428637
-2.0913866 6.5005913 -1.4635434
-2.9963477 6.5001154 -1.5340015
-3.1886816 6.5000129 -1.5516913
-4.0082908 6.4995632 -1.6365896
-4.7520995 6.5863605 -1.7406716
-5.3515038 6.0824881 -1.7363467
-5.4934278 5.9480109 -1.7353083
-5.7673435 5.669456 -1.7332995
-5.8991895 5.5255389 -1.7323306
-6.5046191 4.7628546 -1.7278568
-6.6144042 4.6023211 -1.7270404
-6.8189449 4.5042963 -1.7515124
-7.1704102 4.4917459 -1.8134109
-7.5159082 4.4592986 -1.8730136
-7.6182127 4.2748628 -1.8722445
-7.8985348 3.7083549 -1.8701235
-7.9829783 3.5154521 -1.8694793
-8.0628319 3.3206902 -1.8688674
-8.1380854 3.1241839 -1.8682876
-8.2087107 2.9260302 -1.8677404
-8.3923731 2.3227453 -1.8662966
-8.4441109 2.1190691 -1.865882
-8.4910545 1.9142859 -1.8655014
-8.570508 1.5018262 -1.8648415
-8.6029587 1.2943689 -1.864563
-8.6533003 0.87754697 -1.8641086
-8.6840725 0.45891905 -1.8637928
-8.6921387 0.24920349 -1.8636868
-8.6952829 0.039366454 -1.8636155
-8.6935158 -0.17047545 -1.8635794
-8.6753321 -0.58975583 -1.8636106
-8.6588764 -0.79897034 -1.8636787
-8.6113672 -1.2159925 -1.8639189
-8.5802927 -1.423584 -1.8640912
-8.544385 -1.630412 -1.8642977
-8.5036526 -1.8363708 -1.8645388
-8.407773 -2.245261 -1.865124
-8.3526754 -2.4479568 -1.8654678
-8.2283201 -2.8493319 -1.8662568
-8.159111 -3.0477965 -1.8667017
-7.9237595 -3.6330287 -1.8682357
-7.7441306 -4.0136685 -1.8694218
-7.6476464 -4.2008243 -1.8700629
-7.5467577 -4.3857403 -1.8707358
-7.3319821 -4.7484159 -1.8721756
-7.1002731 -5.100915 -1.8737377
-6.8520117 -5.4424396 -1.8754199
-6.7218652 -5.6088629 -1.8763049
-6.4497557 -5.9325218 -1.8781605
-6.1804686 -5.9664893 -1.8411456
-5.8959765 -5.973372 -1.7988266
-5.1055861 -6.283515 -1.7352136
-4.9554296 -6.4087167 -1.7362499
-4.8022556 -6.5304174 -1.7373086
-4.4871974 -6.7630024 -1.7394902
-4.3254685 -6.873754 -1.7406121
-4.1610546 -6.9807076 -1.7417538
-3.9940233 -7.0838099 -1.7429152
-3.8245018 -7.1829963 -1.7440951
-3.6525488 -7.278193 -1.7452933
-3.4782617 -7.3693533 -1.7465087
-3.3017285 -7.4564018 -1.7477413
-2.9423339 -7.617969 -1.7502539
-2.5751367 -7.7624578 -1.7528262
-2.3888378 -7.8281698 -1.754133
-2.2008984 -7.8894706 -1.7554523
-2.0113671 -7.9463058 -1.756784
-1.8204199 -7.9986382 -1.7581267
-1.6281054 -8.0464344 -1.7594806
-1.4345703 -8.0896454 -1.7608438
-1.2398926 -8.1282377 -1.7622161
-0.84758788 -8.1914511 -1.7649853
-0.25338867 -8.2509041 -1.7691882
0.3449707 -8.2673998 -1.7734305
0.54480469 -8.2632704 -1.7748495
0.94439453 -8.2405243 -1.7776904
1.5417383 -8.1701317 -1.7819457
1.7398144 -8.1369934 -1.7833591
2.1337695 -8.056262 -1.7861737
2.3293946 -8.0086966 -1.7875727
2.5239453 -7.9563427 -1.7889657
2.9094043 -7.8373814 -1.7917286
3.1000488 -7.7708225 -1.7930969
3.2659373 -7.6452651 -1.781798
3.6623242 -7.5431609 -1.79714
3.8461132 -7.4580784 -1.7984641
4.0279198 -7.3684573 -1.799775
4.3850489 -7.1757951 -1.8023541
4.5601172 -7.0728488 -1.8036206
4.902832 -6.8540092 -1.8061033
5.0701952 -6.7382278 -1.8073181
5.2347946 -6.6182799 -1.8085139
5.5551853 -6.366188 -1.8108462
6.017529 -5.96385 -1.8157798
7.2809567 -5.6536136 -1.9756625
7.4190621 -5.4790959 -1.9766831
7.5528903 -5.3011193 -1.9776742
7.9277439 -4.7475328 -1.9804633
8.1545801 -4.3632226 -1.9821625
8.2608395 -4.1668458 -1.982962
8.3622065 -3.9678082 -1.9837277
8.5500784 -3.5622692 -1.9851553
8.636426 -3.356019 -1.985816
8.7936716 -2.9371917 -1.9870294
8.8644428 -2.7248831 -1.9875811
9.0448627 -2.0779598 -1.989012
9.2367182 -0.9748193 -1.9906301
9.2747555 -0.52810729 -1.991004
9.2904291 -0.079990231 -1.9912196
9.28374 0.36838439 -1.9912765
9.2719917 0.5923053 -1.9912453
9.20333 1.261286 -1.9909136
9.1693258 1.4828753 -1.9907241
9.1298237 1.7035247 -1.9904951
9.0848436 1.9230908 -1.9902269
9.0343943 2.1414404 -1.9899197
8.9172554 2.5739136 -1.9891891
8.7016506 3.2100122 -1.9878073
8.6193161 3.4181476 -1.9872714
8.5318651 3.6241083 -1.9866989
8.4393263 3.8277729 -1.9860895
8.3417969 4.0290103 -1.9854443
8.1319427 4.4236994 -1.9840469
7.4415426 4.5265546 -1.8667723
7.1654196 4.5990925 -1.8248254
7.0493164 4.7686234 -1.8240408
6.9291015 4.9351468 -1.8232266
6.8048143 5.098577 -1.8223825
6.676621 5.2587872 -1.82151
6.2690916 5.7192402 -1.8187252
5.9792871 6.0084882 -1.8167361
5.8292284 6.147532 -1.8157034
5.675869 6.2827554 -1.8146468
5.5193162 6.4140787 -1.8135666
5.0316114 6.7840643 -1.8102368
4.8634372 6.8992815 -1.8091284
4.2982907 6.4212918 -1.6560868
3.1026464 6.5046306 -1.5445529
2.7255664 6.5044866 -1.5114907
2.5428026 6.5044155 -1.496775
2.1872559 6.5042753 -1.4707141
2.0138769 6.5042071 -1.4592819
1.5082031 6.5040007 -1.4309328
1.343662 6.503931 -1.4233667
1.1807617 6.5038629 -1.4167013
0.85903317 6.5037236 -1.4059919
0.38361326 6.5035162 -1.3962628
-0.24476562 6.5032291 -1.3947656
-0.40210935 6.5031562 -1.3964252
-0.55992186 6.5030828 -1.3989037
-0.71838868 6.5030069 -1.4022094
-1.0243945 6.4173503 -1.3927853
-1.1838477 6.4172711 -1.398564
-1.3450879 6.4189262 -1.4055926
-1.5269042 6.5008755 -1.4311913
-1.8620312 6.5007086 -1.4492673
-2.0329688 6.5006204 -1.4597617
-2.5624804 6.5003457 -1.497503
-3.7241697 6.4997196 -1.6054912
-3.9354296 6.4996037 -1.6284542
-4.3801661 6.8550749 -1.7435087
-4.5411034 6.7426286 -1.7422837
-4.6992478 6.6264873 -1.741076
-4.8547168 6.5070171 -1.7399709
-5.1564941 6.2572794 -1.7377713
-5.3027439 6.1272416 -1.7367033
-5.4457617 5.9938798 -1.7356572
-5.5855174 5.8572659 -1.7346338
-5.7219725 5.717464 -1.7336328
-5.8549609 5.5745707 -1.7326559
-5.9845018 5.4286528 -1.7317026
-6.110498 5.2798176 -1.7307739
-6.2328711 5.1281352 -1.7298703
-6.3515821 4.9737029 -1.728992
-6.5775976 4.6569219 -1.7273142
-7.5840917 4.3375297 -1.8725014
-7.6834273 4.1515851 -1.8717529
-7.7784276 3.9634356 -1.8710352
-8.0363178 3.3867924 -1.8690709
-8.2528515 2.7940631 -1.8673965
-8.4271584 2.1881127 -1.8660187
-8.4757128 1.9836913 -1.8656262
-8.5194721 1.7782331 -1.8652679
-8.5584173 1.5718488 -1.8649435
-8.6217775 1.1567303 -1.8643973
-8.6899605 0.32018432 -1.8637186
-8.6947756 0.1103717 -1.8636357
-8.6896677 -0.3092694 -1.8635741
-8.6797752 -0.51888913 -1.8635955
-8.6649904 -0.72822267 -1.8636519
-8.6453218 -0.93716305 -1.8637428
-8.6207619 -1.1456176 -1.8638687
-8.4740524 -1.9721285 -1.8647174
-8.3136225 -2.581357 -1.865714
-8.2506933 -2.7818322 -1.8661139
-8.0338478 -3.3739281 -1.867515
-7.8663378 -3.7598498 -1.8686137
-7.4776268 -4.5067945 -1.8711981
-7.3695507 -4.6877527 -1.8719229
-7.2571774 -4.8661866 -1.8726791
-7.0199609 -5.2151456 -1.8742809
-6.8951755 -5.3854637 -1.875127
-6.7663474 -5.5528808 -1.8760022
-5.7146778 -5.9776673 -1.7724111
-5.4502931 -5.9837933 -1.7347124
-5.1556931 -6.2403636 -1.7348682
-4.854404 -6.4896383 -1.736948
-4.3804979 -6.8366981 -1.7402303
-4.0508299 -7.0493646 -1.7425201
-3.8821385 -7.1498857 -1.7436938
-3.7109764 -7.2464404 -1.7448859
-3.5374901 -7.3389673 -1.7460955
-3.0037205 -7.5918207 -1.7498245
-2.4520605 -7.8064303 -1.7536893
-2.264668 -7.869226 -1.7550045
-2.0756738 -7.9275765 -1.756332
-1.3058984 -8.1156969 -1.7617507
-0.12168945 -8.2582521 -1.7701211
0.07769531 -8.2653751 -1.7715344
0.67705077 -8.2578917 -1.7757893
0.87683594 -8.2457314 -1.7772098
1.076416 -8.2287445 -1.77863
1.2756933 -8.2069139 -1.7800494
1.4745605 -8.1802435 -1.7814666
1.6728711 -8.1487455 -1.7828813
2.0673535 -8.0712748 -1.7856987
2.2633104 -8.0253267 -1.7870998
2.652041 -7.9190826 -1.7898833
2.8445702 -7.8588343 -1.7912633
3.0357127 -7.793859 -1.7926352
3.4133983 -7.6498752 -1.7953486
3.5997069 -7.5709195 -1.7966892
3.7841504 -7.4873772 -1.7980175
3.9666209 -7.3992901 -1.7993329
4.3252439 -7.2096348 -1.801922
4.8455763 -6.8922324 -1.8056881
5.0138669 -6.7778683 -1.8069091
5.1794138 -6.6593266 -1.8081115
5.3421288 -6.5366759 -1.8092946
5.9620895 -6.0062962 -1.8138175
6.2078223 -5.9590044 -1.8442514
6.5070214 -5.9512362 -1.8899118
6.8214059 -5.9428916 -1.9389877
7.0894337 -5.8815951 -1.9742504
7.2331934 -5.7118688 -1.97531
7.5081053 -5.3617182 -1.9773421
7.7655563 -4.998035 -1.979254
8.0048923 -4.6216855 -1.98104
8.1175385 -4.4290485 -1.9818841
8.5197067 -3.6315486 -1.9849237
8.6077833 -3.4260526 -1.9855965
8.6907415 -3.2183456 -1.9862335
8.7685347 -3.0085921 -1.9868344
8.9703217 -2.3682754 -1.9884155
9.0269232 -2.1516006 -1.9888674
9.1988668 -1.272398 -1.9902924
9.2280855 -1.0501752 -1.9905514
9.2517767 -0.82726502 -1.9907714
9.2864447 0.2925598 -1.9912781
9.2766018 0.51657224 -1.9912603
9.2611618 0.74026608 -1.9912028
9.2135639 1.1861206 -1.9909689
9.1438084 1.6289783 -1.9905771
9.1006832 1.8489294 -1.9903221
8.7283392 3.1391211 -1.98798
8.5620308 3.5546672 -1.9868966
8.4712009 3.7591264 -1.9862998
8.3753614 3.9611981 -1.9856666
8.2745314 4.1607609 -1.9849979
8.168828 4.3576822 -1.9842932
7.9840817 4.5099468 -1.9652933
7.573535 4.5225492 -1.8905587
7.2089062 4.5446076 -1.8264964
6.8473239 5.0436311 -1.8226713
6.7204199 5.204937 -1.8218085
6.5896287 5.362978 -1.820917
6.1747751 5.8165383 -1.8180785
5.8803711 6.1009097 -1.8160557
5.5726461 6.3700895 -1.8139346
5.4139938 6.4987836 -1.8128387
3.9360352 6.4230556 -1.6145115
3.5663378 6.5048041 -1.589902
3.1681249 6.5046563 -1.5506495
2.9760742 6.5045829 -1.5330603
2.7882421 6.5045109 -1.5167385
2.2465429 6.5042987 -1.4748193
1.7313671 6.5040922 -1.4425081
1.2357129 6.5038857 -1.4188567
1.0737695 6.5038176 -1.4127747
0.91312498 6.5037479 -1.4075618
0.59490234 6.5036101 -1.3996795
0.43694335 6.5035391 -1.396988
0.12237304 6.5033975 -1.3940626
-0.03459961 6.5033269 -1.3938195
-0.19160156 6.5032549 -1.3943893
-0.34882811 6.5031805 -1.3957717
-0.50646484 6.5031071 -1.3979727
-1.1297363 6.4172978 -1.396513
-1.6368555 6.5008221 -1.4367512
-1.8047265 6.5007367 -1.4459387
-1.9748535 6.5006499 -1.4560989
-2.1474903 6.5005622 -1.467262
-2.3229003 6.5004716 -1.4794689
-2.6831543 6.5002837 -1.5071675
-3.058037 6.5000834 -1.539577
-3.251826 6.4999785 -1.5576921
-3.4503515 6.4998713 -1.5771666
-3.6540039 6.4997602 -1.5980766
-3.8632617 6.4996438 -1.6205057
-4.4869723 6.7810941 -1.7426963
-4.8024511 6.5478764 -1.7403513
-4.9558887 6.4259491 -1.7392343
-5.1063085 6.3005071 -1.7381375
-5.2535934 6.171618 -1.7370623
-5.5386329 5.9038358 -1.7349774
-5.6761718 5.7650981 -1.7339691
-6.0682812 5.330502 -1.7310853
-6.191865 5.1797724 -1.7301731
-6.3118162 5.0262604 -1.7292862
-6.4280953 4.8700542 -1.7284247
-6.5405664 4.7112322 -1.7275897
-6.6492481 4.5498943 -1.726781
-6.9299412 4.500351 -1.7709506
-7.6503415 4.2147589 -1.8720027
-7.9263282 3.6462066 -1.8699118
-8.0092773 3.4526947 -1.8692782
-8.2305365 2.8616357 -1.8675704
-8.3546581 2.4598901 -1.866596
-8.5052147 1.8478656 -1.8653854
-8.612422 1.2271521 -1.8644801
-8.6384468 1.0188293 -1.8642467
-8.6595898 0.80997986 -1.8640481
-8.6758595 0.60071838 -1.8638841
-8.6937008 0.18138245 -1.86366
-8.6919136 -0.23831725 -1.8635747
-8.683672 -0.44800657 -1.8635845
-8.6296186 -1.0751538 -1.8638221
-8.6018457 -1.2831939 -1.8639708
-8.5317478 -1.6971148 -1.8643719
-8.4894533 -1.9027673 -1.864624
-8.2064743 -2.9136605 -1.866397
-8.0603905 -3.307905 -1.8673419
-7.9804492 -3.5024338 -1.8678639
-7.895947 -3.6950996 -1.8684187
-7.8069334 -3.8857908 -1.869006
-7.6155176 -4.2608542 -1.870277
-6.9378223 -5.3281531 -1.8748376
-5.538496 -5.9817677 -1.7471783
-5.35042 -6.0659113 -1.7335268
-5.2054491 -6.1968298 -1.7345251
-4.7520995 -6.5690026 -1.7376556
-4.5950489 -6.6859508 -1.7387428
-4.4351854 -6.7992225 -1.7398509
-4.2725878 -6.9087501 -1.7409793
-4.1073241 -7.0144711 -1.7421273
-3.9395018 -7.1163144 -1.7432945
-3.7691796 -7.2142105 -1.7444806
-2.8835156 -7.6424813 -1.7506657
-2.5151172 -7.7841759 -1.753247
-2.3282812 -7.8484597 -1.7545577
-1.758418 -8.0145845 -1.7585632
-1.565703 -8.0608978 -1.75992
-1.176748 -8.1397219 -1.7626617
-0.98076171 -8.1721525 -1.7640451
-0.78386718 -8.1999006 -1.7654357
-0.58622068 -8.2229385 -1.7668328
-0.18908203 -8.2547598 -1.7696437
0.010185546 -8.2635002 -1.7710557
0.40954101 -8.266593 -1.7738889
1.6058203 -8.1599483 -1.7824029
2.3924217 -7.9922876 -1.7880239
2.5866113 -7.9383969 -1.7894143
2.9712012 -7.8163705 -1.792172
3.5368555 -7.5981522 -1.7962369
4.0862207 -7.3385191 -1.8001957
4.2652049 -7.2429709 -1.801488
4.4418945 -7.1429901 -1.8027651
4.6162205 -7.0386372 -1.8040265
4.7880077 -6.9299669 -1.8052709
5.2873926 -6.5786338 -1.8088964
5.4481249 -6.4532886 -1.8100662
6.40415 -5.953927 -1.8740939
6.7132421 -5.9457836 -1.9219778
7.1849804 -5.7697034 -1.9749545
7.4627929 -5.4219346 -1.9770068
7.7232518 -5.0604792 -1.9789392
7.8467674 -4.8748922 -1.979859
7.965693 -4.6862073 -1.9807467
8.0799608 -4.4945521 -1.9816023
8.1894627 -4.3000383 -1.9824246
8.3939257 -3.9029195 -1.9839679
8.7427931 -3.0798078 -1.9866351
8.8171091 -2.8687618 -1.9872116
9.008379 -2.2250957 -1.9887189
9.0613766 -2.0074883 -1.9891455
9.1510935 -1.5685114 -1.9898843
9.1877241 -1.3474292 -1.9901958
9.2188177 -1.1254693 -1.9904681
9.2443848 -0.90277648 -1.9907014
9.2788086 -0.45575804 -1.9910498
9.2876272 -0.23172058 -1.9911646
9.2805567 0.44078368 -1.9912707
9.2670116 0.66460204 -1.9912268
9.2478809 0.88800472 -1.9911431
9.2231836 1.1108496 -1.9910196
9.1158791 1.7746093 -1.9904126
9.0691404 1.9938 -1.990132
9.0169239 2.2117193 -1.9898121
8.9592962 2.4282379 -1.9894537
8.8963184 2.6432092 -1.9890567
