# .PCD v0.7 - Point Cloud Data file format
VERSION 0.7
FIELDS x y z
SIZE 4 4 4
TYPE F F F
COUNT 1 1 1
WIDTH 1523
HEIGHT 1
VIEWPOINT 0 0 0 1 0 0 0
POINTS 1523
DATA ascii
2.4560547 22.918142 2.935549
0.78896481 22.940134 2.9233658
-3.0905957 22.838484 2.9352031
-2.2200682 12.011804 1.5557218
-2.4433594 10.387878 1.3590945
-3.1295702 10.913584 1.4459651
-5.7358398 12.706562 1.7755368
-6.5146775 12.752997 1.823861
-6.5511227 12.094899 1.7518423
-15.453066 21.781857 3.4013376
-16.26498 21.792593 3.4632959
-17.167118 21.879665 3.541934
-18.162861 22.032726 3.6366088
-19.21792 22.199038 3.7395113
-16.090136 14.592317 2.7664466
-16.187559 -7.2571316 2.2593334
-14.666689 -8.833271 2.1805513
-18.714785 -21.551388 3.6352179
-17.83292 -21.565451 3.5639615
-16.974257 -21.566006 3.4953487
-15.350126 -21.56706 3.3714421
-13.821748 -21.54911 3.2605035
-13.09833 -21.547976 3.2115779
-12.395859 -21.546871 3.1659036
-10.400615 -21.548727 3.0473709
-7.9422164 -21.545458 2.9245059
-6.7802148 -21.54266 2.8763356
-6.2127829 -21.54129 2.8553059
-5.1031737 -21.548626 2.8203249
-4.5569239 -21.547602 2.8049822
-2.421494 -21.54858 2.7616811
-1.8962694 -21.547499 2.7548752
-0.85204101 -21.545353 2.7461433
-0.33180663 -21.544285 2.7441897
0.60323238 -7.4214935 0.94831252
0.82778317 -7.837388 1.0037152
1.0590234 -8.1410904 1.0455785
1.5603417 -7.6292124 0.99176341
1.9042675 -7.4579873 0.98031598
2.0519238 -7.29702 0.96538711
7.1896386 -21.524134 2.8901806
7.8332911 -21.694771 2.9376178
9.8845501 -7.8212075 1.6053097
17.854364 -8.6742802 2.5280752
17.858789 -8.1499329 2.5001264
18.351767 -7.8456659 2.5418987
18.663857 -7.4517531 2.5594699
17.905821 -6.6529174 2.4327929
20.756826 20.460363 3.7119696
17.500761 19.945131 3.3794219
17.550917 21.003469 3.4859657
15.910878 21.024103 3.3579583
15.237422 21.177145 3.322706
15.253301 22.31567 3.4425881
15.270391 23.540207 3.5736098
4.3993068 22.945469 2.975544
3.2340136 22.755026 2.927186
2.6945508 22.914995 2.9385445
-0.08160156 22.798771 2.9036517
-0.63201171 22.806034 2.9056733
-1.1835155 22.813313 2.9093928
-1.7367382 22.820614 2.9148183
-2.2924511 22.827946 2.9219735
-2.8511522 22.835321 2.9308703
-3.4135742 22.842749 2.9415402
-2.1019628 12.066582 1.5599322
-2.5009179 11.146223 1.4548669
-2.6316698 10.532529 1.3826518
-4.0021482 11.265417 1.522604
-4.2084665 10.997615 1.4996973
-6.5410547 12.378963 1.7831362
-6.5639062 11.728181 1.7117132
-6.951582 11.746682 1.7383893
-7.1485543 11.44051 1.7181088
-7.3409081 11.140965 1.6992303
-16.758877 21.818083 3.5038507
-16.257772 -6.6264853 2.2359619
-15.664873 -7.2846527 2.2002358
-15.159072 -8.4328957 2.2092705
-14.927285 -8.7821426 2.2057395
-16.496552 -21.566315 3.4580779
-14.893847 -21.550785 3.3363757
-14.137256 -21.549604 3.2824244
-13.404325 -21.548456 3.232044
-12.693144 -21.547338 3.1850064
-12.001845 -21.546251 3.1411302
-10.675439 -21.548717 3.0627468
-8.7966013 -21.547512 2.9641488
-7.6051269 -21.544645 2.9098396
-7.0249414 -21.543249 2.8859191
-5.8911133 -21.540514 2.8441336
-5.3381443 -21.549065 2.8274257
-4.7892771 -21.548037 2.8113101
-4.2463474 -21.547022 2.7969911
-3.7085741 -21.546013 2.7844326
-3.1753223 -21.545013 2.7735958
-2.1200683 -21.54796 2.7575791
-0.03370117 -21.543674 2.7437887
0.48612303 -21.542936 2.7443881
0.53468746 -7.5380301 0.96244979
0.71294922 -7.4869413 0.95784408
0.94466794 -7.8964715 1.012859
1.123955 -7.7955713 1.0031019
1.3053223 -7.7284765 0.99823207
1.6641992 -7.600029 0.99086791
1.9894726 -7.3650537 0.97162563
2.5232811 -8.5192823 1.1316001
8.2273731 -21.835955 2.9718609
9.0091209 -22.267237 3.0592558
17.175663 -9.0879278 2.4748123
17.648281 -8.7997684 2.5115848
17.945616 -7.3800693 2.4712605
18.764101 -7.1925049 2.5593278
18.799824 -6.6906619 2.5414407
-3.9446189 -21.546255 2.2897763
-1.3037597 -21.54583 2.2564156
-0.78265625 -21.54476 2.2536681
-0.26249999 -21.543694 2.2522409
0.77734375 -21.542446 2.2534051
0.63179684 -7.4749856 0.7841844
0.84677732 -7.7775259 0.81782818
1.2630956 -7.9944611 0.84606808
1.5964843 -7.6801019 0.82000256
1.7516112 -7.5119987 0.80633116
1.9018164 -7.3497019 0.793607
2.3850877 -8.3784409 0.91063672
6.6685643 -21.446621 2.3478005
7.2709274 -21.537001 2.3762188
7.9245801 -21.728794 2.4177637
8.6558104 -22.064966 2.4776917
17.67955 -7.999495 2.0285158
17.878378 -7.575335 2.0297654
18.300303 20.992083 2.9111969
17.436571 21.003445 2.8535919
16.605869 21.014374 2.7998183
15.235166 21.31823 2.7390933
15.29999 22.539204 2.8477037
1.6995312 6.4250665 0.69474059
1.6103418 6.7417693 0.72457272
1.0639746 6.506669 0.68920469
0.90339839 6.5065961 0.68668699
0.74387693 6.5065203 0.68458635
0.58525389 6.5064483 0.68289429
0.11275391 6.5062323 0.68022686
-0.20125976 6.5060883 0.6804353
-0.35851562 6.5060196 0.68113464
-0.99360347 6.5057378 0.68795925
-1.3174609 6.5055962 0.69386333
-1.8157421 6.5053811 0.7060284
-1.986084 6.5053082 0.71101469
-4.0425587 11.264287 1.251047
-3.4183397 6.4191775 0.76023865
-3.6206932 6.4208307 0.770558
-7.4221969 11.185801 1.4033052
-16.996523 21.980816 2.9045672
-17.86957 21.992357 2.9622118
-18.778545 22.004375 3.0239828
-19.726807 22.016911 3.09023
-15.946455 14.669067 2.2649906
-15.818954 -6.9578071 1.8065213
-16.004551 -7.5053134 1.8478637
-15.875615 -7.9175339 1.8544918
-14.991875 -7.9340615 1.7731088
-15.235947 -8.539959 1.8258163
-14.677461 -8.6987524 1.7835281
-8.239707 -7.7091589 1.1795512
-19.930185 -21.554071 3.0687554
-17.222265 -21.565285 2.8849926
-14.038671 -21.550158 2.6885922
-9.9515724 -21.549326 2.4812653
-8.1162014 -21.546232 2.4068344
-7.5273633 -21.544811 2.3856883
-6.3784862 -21.54204 2.3485394
-5.8167481 -21.54068 2.3324106
-5.2646384 -21.548725 2.3188522
-4.7165918 -21.547699 2.3058188
-3.6372364 -21.545679 2.2841475
-3.1045313 -21.544685 2.2754369
-2.5760937 -21.548449 2.268609
-1.5265331 -21.546289 2.2579892
-0.48433593 -21.544149 2.2526886
0.035517577 -21.543083 2.2520103
0.55537111 -21.542715 2.2527153
1.0758886 -21.542088 2.25471
0.55121094 -7.4324021 0.77908063
0.75407225 -7.6578989 0.80439085
1.38375 -8.0354033 0.85234571
1.5287012 -7.7536888 0.82613647
1.6860352 -7.5829601 0.81204313
6.4259863 -21.442461 2.339978
7.6357226 -21.625723 2.3974252
8.3289156 -21.891842 2.4484935
9.1301365 -22.359325 2.5246842
17.490038 -8.6507616 2.0397382
18.275537 -7.9664855 2.0840533
20.553398 20.962439 3.068893
19.595938 20.975037 3.0006342
18.679619 20.987087 2.9370177
17.800869 20.998652 2.8776848
16.956434 21.00976 2.8223114
16.143408 21.02046 2.7706079
15.359219 21.030779 2.7223275
2.1082518 6.4233661 0.70670593
1.9378809 6.4232855 0.70134854
1.770498 6.4250994 0.69667709
1.6102636 6.4470291 0.69464016
1.132871 6.5067019 0.6904071
0.97175777 6.5066266 0.68771023
0.81181639 6.5065517 0.68543196
0.49461913 6.5064054 0.68210614
0.33699217 6.5063348 0.6810472
0.17976563 6.5062604 0.68038803
-0.44885743 6.5059795 0.68171489
-0.76557618 6.5058379 0.68477613
-1.9131249 6.5053396 0.70882905
-2.084873 6.5052667 0.71409452
-4.6951365 11.669409 1.3148974
-4.9140916 11.410681 1.298726
-2.9981835 6.5240078 0.75055599
-6.7877245 11.657219 1.4101166
-7.3405466 11.31384 1.4098147
-15.009121 21.954546 2.780071
-15.807158 21.965092 2.8288839
-17.492842 21.987377 2.937124
-16.025976 -7.3150764 1.841543
-14.912432 -8.6318445 1.8011889
-14.368936 -8.7867384 1.7606415
-20.346249 -21.554638 3.0984936
-18.461494 -21.552057 2.9665058
-17.588671 -21.565044 2.9090319
-16.739286 -21.565603 2.8537862
-13.617421 -21.549492 2.6647491
-12.203076 -21.547253 2.5885997
-8.3706932 -21.546844 2.4163983
-6.620615 -21.542624 2.3559084
-5.500371 -21.549168 2.3248682
-4.4050584 -21.547113 2.2990177
-3.3313086 -21.545107 2.2789834
-2.8008397 -21.544115 2.2710681
-1.2272069 -21.545673 2.2559295
-0.70628905 -21.544603 2.253377
-0.18624023 -21.543537 2.2521396
0.8536914 -21.542355 2.2536991
0.66249996 -7.5208893 0.78923994
0.87629879 -7.7922921 0.81970185
1.4598827 -7.8284554 0.83245558
1.6195703 -7.6550541 0.81793547
1.7739356 -7.4878483 0.8044101
1.9234668 -7.3263431 0.79181379
6.1861715 -21.44248 2.3329086
7.3605661 -21.550449 2.3805559
8.0250292 -21.764639 2.4248986
8.77001 -22.125444 2.4879513
17.763691 -8.4823256 2.0577724
18.490995 -7.2383356 2.0757782
19.710253 -7.1722455 2.1925828
19.999218 20.96973 3.0291677
19.065752 20.982012 2.9636137
18.171387 20.993774 2.9024963
17.312685 21.005074 2.8454697
15.690439 21.026423 2.7425237
15.302422 22.715345 2.8631008
15.316982 23.965004 2.97316
15.289424 25.244032 3.0851614
2.0102637 6.4233193 0.70357418
1.8413184 6.4232388 0.69849533
1.6103711 6.8490653 0.73548782
1.3651172 6.5068107 0.69499403
1.2020117 6.5067339 0.69168687
1.040332 6.5066581 0.68880844
0.56205076 6.5064373 0.68267959
0.24682617 6.5062919 0.68062162
-0.38163084 6.5060086 0.68127137
-0.69776368 6.505867 0.68398696
-0.85696286 6.5057974 0.68595487
-1.0171679 6.5057278 0.68833435
-1.3414356 6.5055852 0.69436353
-1.5059081 6.5055141 0.69803172
-1.672207 6.5054421 0.70215011
-2.0112891 6.5052981 0.71178818
-4.2859082 10.977275 1.2318722
-3.0583105 6.4193254 0.74330521
-3.4475584 6.4191656 0.76167721
-7.0615821 11.750695 1.433103
-18.000557 21.994089 2.9710023
-18.915068 22.006178 3.0334115
-19.869345 22.018795 3.1003351
-16.016317 14.628989 2.2675426
-15.997168 -7.5710559 1.8500928
-15.216816 -8.1221743 1.8031027
-15.152236 -8.5636463 1.8194088
-14.597763 -8.721467 1.7775817
-17.950039 -21.551355 2.9319253
-14.67998 -21.551172 2.7258499
-13.930185 -21.549988 2.6824014
-13.203496 -21.548838 2.6418319
-12.498047 -21.54772 2.6039596
-11.813583 -21.549282 2.568949
-11.146064 -21.549299 2.5361476
-10.495078 -21.549316 2.5056145
-9.8592091 -21.549328 2.4772308
-8.0291405 -21.546024 2.40362
-7.4418163 -21.544607 2.3827357
-6.8642673 -21.543213 2.3635728
-5.7374215 -21.549612 2.3311648
-3.0267284 -21.544538 2.2742827
-2.4987597 -21.548288 2.2676444
-1.9731054 -21.547207 2.2618613
-0.92840821 -21.545061 2.2543032
-0.40806639 -21.543991 2.2525084
0.11174805 -21.542927 2.2520201
0.78638673 -7.7062607 0.80975753
0.99301755 -7.8507037 0.82721281
1.1820117 -7.8238025 0.82714248
1.4149121 -8.0459919 0.85399443
1.8602246 -7.3946023 0.79707974
2.3175488 -8.355114 0.9063803
6.508779 -21.442453 2.3424771
7.1008496 -21.511482 2.3680468
8.4404202 -21.950901 2.458425
9.2629299 -22.457104 2.5394111
17.55958 -8.6079578 2.0442855
17.271132 -7.9556808 1.9877756
18.056963 -7.7952828 2.0559676
18.475567 -7.4525275 2.0825489
26.89451 -7.9350729 2.9312236
17.674931 21.000307 2.869323
16.026611 21.021997 2.7633202
15.246435 21.032263 2.7155166
1.9130957 6.4232731 0.7006036
1.2714257 6.5067668 0.69304425
0.94824219 6.5066156 0.68735015
0.78842771 6.5065422 0.68513274
0.47146484 6.5063944 0.68192548
0.313916 6.5063224 0.68092573
-0.00029296873 6.5061798 0.68011963
-0.15728515 6.5061088 0.68030989
-0.63008785 6.5058975 0.68327236
-0.78893554 6.505827 0.68506563
-0.94869137 6.5057573 0.6872682
-1.1095703 6.5056863 0.68988842
-1.9381542 6.5053287 0.70957088
-2.1102734 6.5052557 0.7149083
-2.2851171 6.5051813 0.72075039
-4.2046971 11.105381 1.2413238
-4.7265821 11.628537 1.3121673
-2.998203 6.4636526 0.74482358
-3.1679785 6.4192815 0.74830353
-3.3628905 6.4192009 0.7575351
-3.5637791 6.4208536 0.76765561
-6.7895117 11.565947 1.4019722
-7.1748438 11.57346 1.4234576
-7.368711 11.269697 1.4075536
-20.268047 21.845314 3.115092
-15.813594 14.74529 2.2602136
-17.30537 -6.9821696 1.9507107
-15.969853 -7.8302789 1.8592849
-15.100126 -7.8612313 1.7795913
-15.420185 -8.5068769 1.8409694
-16.617353 -21.565683 2.8459921
-15.803495 -21.566223 2.7949252
-14.247197 -21.550488 2.7005758
-13.51081 -21.549324 2.6588037
-12.796523 -21.548193 2.6197994
-11.428789 -21.549292 2.5498581
-9.500967 -21.549334 2.4618874
-6.5371776 -21.542421 2.3533418
-5.4191895 -21.549015 2.3227692
-4.8694139 -21.547985 2.3093202
-4.3256345 -21.546967 2.2973554
-3.2532518 -21.544964 2.2777345
-2.1970508 -21.547665 2.2641647
-1.6728905 -21.546589 2.25915
-1.1507422 -21.545515 2.2554724
-0.6299414 -21.544447 2.2531118
0.9300586 -21.542263 2.2540205
0.49515623 -7.3493662 0.77000839
0.69360352 -7.5674033 0.79437423
0.90596676 -7.8071342 0.82159561
1.1093652 -7.8919926 0.83309996
1.3246191 -8.0153246 0.84924757
1.4836621 -7.8026209 0.83026183
1.6425292 -7.6301408 0.81588864
6.2684665 -21.442472 2.3353066
6.8437891 -21.47291 2.355921
7.450449 -21.563932 2.3849444
8.126133 -21.800713 2.4321065
17.358164 -8.7319832 2.0311935
18.341074 -8.1429014 2.0977495
20.829346 20.958809 3.0888896
15.576006 21.027927 2.7355144
15.239697 21.64682 2.76738
15.273388 24.084291 2.9812245
15.292304 25.451612 3.1038983
2.1564355 6.423389 0.70829433
1.9853222 6.4233084 0.70279676
1.6509472 6.4250431 0.69345731
1.1782031 6.5067229 0.69123781
0.69725585 6.5064993 0.6840474
0.53883785 6.5064263 0.68247449
0.38106444 6.5063529 0.68130291
0.066699214 6.5062103 0.68015885
-0.090292968 6.5061393 0.68018037
-0.40473631 6.5059991 0.68141431
-0.56256837 6.505928 0.6826309
-0.88039058 6.5057864 0.68627763
-1.2024024 6.5056462 0.69158173
-1.365459 6.5055752 0.694875
-1.5301758 6.5055032 0.69860792
-1.6967676 6.5054312 0.70279247
-1.8654687 6.5053606 0.70744169
-2.0365331 6.5052872 0.71257031
-2.2101758 6.5052128 0.71819562
-4.3250976 10.962961 1.2319766
-3.4778223 6.4208879 0.76333785
-6.7842088 11.834299 1.4259599
-7.090703 11.705141 1.4305969
-7.2865524 11.398477 1.4141972
-8.1995897 12.169521 1.5339617
-15.580917 21.962101 2.8148837
-16.399549 21.972925 2.8661566
-17.249083 21.984156 2.9210651
-18.132421 21.995834 2.9798939
-16.249393 -6.8189359 1.8421328
-16.019325 -7.1817083 1.8351642
-15.551455 -7.8938284 1.8231094
-15.998252 -8.6121635 1.8993002
-18.715683 -21.552406 2.9838901
-17.832441 -21.564884 2.9251904
-16.973837 -21.565449 2.8688724
-16.147186 -21.565996 2.8162875
-15.349755 -21.566523 2.7671785
-14.568477 -21.550995 2.7192872
-13.09875 -21.548672 2.636111
-12.39625 -21.547558 2.5986207
-11.71454 -21.549284 2.5639904
-11.049589 -21.549301 2.5315289
-9.767148 -21.54933 2.4732418
-9.1470995 -21.549341 2.4472022
-6.7803221 -21.543011 2.3609042
-5.6557908 -21.549458 2.328968
-5.1031251 -21.548422 2.3148732
-4.5568848 -21.5474 2.3022783
-4.0162401 -21.546389 2.2911501
-2.4214454 -21.54813 2.2667122
-0.33179685 -21.543835 2.2523532
0.18797851 -21.54277 2.2520597
0.70796871 -21.542528 2.253166
0.41219726 -7.2265429 0.7566545
1.4462011 -8.0566235 0.8556602
1.5754297 -7.7029662 0.82189786
1.7312207 -7.5340438 0.80809706
1.8820605 -7.3710275 0.79525161
2.3529003 -8.3673182 0.90860337
7.1898632 -21.524836 2.3723056
7.8338866 -21.696432 2.4113517
8.5529194 -22.010475 2.4684756
9.3973532 -22.556076 2.554352
9.8831835 -7.8201323 1.3174405
17.629414 -8.5649862 2.0488739
18.480829 -7.3786831 2.0801847
19.61668 -7.2885895 2.1875989
20.2679 20.966194 3.0483539
19.322948 20.978624 2.9815013
18.418016 20.990532 2.9191809
17.549658 21.001955 2.8610382
16.714735 21.012941 2.8067694
15.297792 22.380768 2.8338833
2.0580077 6.4233441 0.70508331
1.8883593 6.4232621 0.69986695
1.2475097 6.5067573 0.69256878
1.0854688 6.50668 0.68957168
0.6063379 6.5064569 0.68309599
0.4483203 6.5063848 0.6817537
0.29083985 6.5063114 0.68081236
-0.023291016 6.5061698 0.68012267
-0.18032226 6.5060992 0.68037212
-0.49513671 6.5059586 0.6820628
-0.65334958 6.5058866 0.68350995
-0.97220701 6.5057473 0.68762618
-1.1332812 6.5056767 0.69030839
-1.2956933 6.5056057 0.69341534
-1.4596777 6.5055337 0.69696045
-1.6254785 6.5054617 0.70095092
-2.9981151 6.8283072 0.77956861
-3.0053124 6.4193487 0.74093992
-3.3918943 6.4191885 0.75894576
-7.005703 11.83811 1.4379582
-7.3967481 11.225713 1.4053211
-16.04669 21.968258 2.8438537
-16.882715 21.979311 2.897182
-17.751211 21.990793 2.9542944
-17.272383 -7.040031 1.9497861
-15.968007 -7.8995876 1.8623098
-18.198271 -21.551697 2.9486709
-17.336044 -21.565212 2.8924248
-16.496113 -21.565763 2.838284
-15.686552 -21.566298 2.7877223
-14.894365 -21.55151 2.7385571
-14.137744 -21.550314 2.6942694
-10.035771 -21.549324 2.484966
-8.7967577 -21.547873 2.4329822
-8.195488 -21.546425 2.4097879
-7.6052442 -21.545 2.3884041
-6.4539938 -21.542221 2.3508108
-5.891211 -21.540861 2.334476
-4.2462988 -21.546818 2.2957234
-3.708535 -21.545813 2.2854133
-3.175293 -21.544817 2.276521
-2.1200292 -21.54751 2.263344
-1.0742871 -21.545359 2.2550428
0.48611328 -21.542797 2.2525485
0.52437496 -7.3926373 0.77473176
0.93576169 -7.8220434 0.82350874
1.123623 -7.7932754 0.82309479
1.3555371 -8.0258226 0.85086149
6.3509569 -21.442469 2.3377411
8.2283783 -21.8386 2.4395664
10.190273 -23.536938 2.6811273
17.427137 -8.6895008 2.0356503
18.485577 -8.1288671 2.1109762
18.465527 -7.5938835 2.0871522
-4.4845309 -21.547062 1.8007214
-3.9445703 -21.546057 1.7921618
-2.8784082 -21.544062 1.7783602
-2.3512597 -21.547533 1.7734485
-1.3037305 -21.545383 1.7660278
0.25730467 -21.542936 1.7627313
0.77734375 -21.542309 1.7637014
1.2982714 -21.541681 1.7656994
1.3226563 -8.3715057 0.69343764
1.4186914 -7.7598128 0.64541793
1.5775976 -7.5891867 0.6342079
1.7312304 -7.4246349 0.62376571
2.1216407 -8.1992369 0.6929428
6.1040916 -21.442604 1.8240957
7.2711716 -21.537704 1.8599023
7.9251852 -21.730459 1.8924981
8.6568747 -22.067675 1.9394934
9.5225973 -22.651337 2.0104022
17.95085 -8.1222486 1.6120557
21.122217 20.954737 2.4343457
20.139423 20.967665 2.3787005
19.200029 20.980034 2.3268638
18.300137 20.991877 2.2785323
16.605722 21.014181 2.1913631
4.4190917 6.5100431 0.64376205
4.1932225 6.509932 0.63356107
3.3536816 6.5095234 0.59912258
3.1573045 6.509428 0.59192932
2.9654589 6.5093341 0.58524305
2.4136815 6.509069 0.56799394
2.2070997 6.4232817 0.5556981
1.8659179 6.4231195 0.54724973
1.3891602 6.506691 0.54436123
1.0639648 6.5065398 0.53942108
0.58524412 6.506319 0.53448087
0.42729491 6.5062466 0.53347272
0.11274414 6.5061026 0.53239483
-0.83352536 6.5056791 0.53663021
-1.1548145 6.5055375 0.54058945
-1.3174316 6.5054669 0.54306734
-1.9860449 6.5051751 0.55649137
-2.5132518 6.5049481 0.5705626
-3.0304394 6.4191971 0.58078706
-3.418252 6.419035 0.59501511
-3.6206152 6.4206853 0.60309327
-3.8764844 6.5026383 0.61939698
-5.0277243 6.5021648 0.67248231
-5.5487499 6.5019512 0.69935912
-6.1144919 6.5017228 0.73024201
-15.859736 -7.4374018 1.4332124
-8.2377052 -7.7072887 0.92299634
-19.931152 -21.555111 2.4019923
-18.080605 -21.552528 2.3017571
-17.221827 -21.564728 2.2579885
-16.386112 -21.56529 2.2159972
-14.792548 -21.552067 2.1387463
-13.30915 -21.5497 2.0723145
-12.600664 -21.548569 2.0423729
-10.589863 -21.549902 1.9645633
-9.9518356 -21.549908 1.9421054
-8.7161131 -21.548037 1.9017901
-8.1163473 -21.546589 1.883829
-7.5274801 -21.545166 1.8672781
-5.2645798 -21.548523 1.8149179
-4.1743064 -21.546486 1.7956747
-3.6371973 -21.545481 1.7877557
-2.5760252 -21.547998 1.7755728
-2.0500293 -21.546917 1.7708914
-1.0047852 -21.544767 1.7646707
0.035517577 -21.542633 1.7625815
0.55537111 -21.542576 1.7631586
1.0758789 -21.541948 1.7647214
0.74315429 -7.5469193 0.62046248
0.95398438 -7.7626581 0.63990402
1.1510156 -7.8054795 0.64553726
1.5104687 -7.6612272 0.63889569
1.6662987 -7.4941196 0.62812924
2.2554979 -8.2445736 0.69934416
6.4260154 -21.442579 1.83148
7.6362987 -21.627365 1.8765774
8.3299313 -21.894499 1.9166381
9.1318846 -22.363598 1.9764172
17.745098 -8.2502441 1.6011208
18.199522 -7.9333477 1.6243783
19.595741 20.974823 2.3485315
18.679443 20.986881 2.2987432
17.800703 20.998449 2.2523055
4.517705 6.5100908 0.64833069
3.8516698 6.5097647 0.61886078
3.4389551 6.5095634 0.60235292
3.2404981 6.5094671 0.5949353
2.6719725 6.5091934 0.57569289
2.311748 6.5090213 0.56514496
0.81180662 6.506424 0.53646833
0.65283203 6.5063496 0.53500777
0.33698243 6.5062051 0.53303635
0.17976563 6.5061331 0.53252059
0.02274414 6.5060611 0.53231508
-0.60684568 6.5057793 0.53459883
-0.76555663 6.5057096 0.53595501
-0.92516601 6.5056376 0.53763211
-1.0858593 6.5055671 0.53963441
-1.2478613 6.505496 0.54196882
-1.4113574 6.505424 0.54464203
-1.5766015 6.505352 0.5476616
-1.9130762 6.5052066 0.55477935
-2.6172168 6.5049028 0.5736801
-2.8013279 6.5048246 0.57946533
-2.9893358 6.5047464 0.5857138
-3.1397264 6.4191508 0.58465862
-3.3339355 6.4190702 0.59180707
-3.5340233 6.4207206 0.59964693
-3.9993944 6.5025883 0.6246019
-4.6793551 6.5023074 0.65544373
-4.9216504 6.5022073 0.66721129
-5.4341111 6.5019989 0.6933102
-5.705996 6.5018878 0.70777434
-6.2861524 6.5016532 0.73993146
-15.763808 -7.1954184 1.4177743
-15.983671 -7.7670202 1.4539806
-16.234022 -8.3786907 1.4947125
-15.26915 -8.3531942 1.4240185
-14.711611 -8.5156059 1.390782
-19.384306 -21.55435 2.3717983
-13.61787 -21.550192 2.0857337
-12.203457 -21.547932 2.0261016
-11.526973 -21.549887 1.999563
-10.866699 -21.549896 1.9746581
-9.5924807 -21.549911 1.9299624
-8.3708296 -21.547205 1.8913146
-7.777451 -21.545769 1.874172
-7.1944041 -21.544359 1.8584082
-6.6207128 -21.542973 1.843967
-6.0555563 -21.541603 1.8308196
-4.4050097 -21.546917 1.7993954
-3.8657811 -21.545908 1.7909991
-2.8008204 -21.543919 1.7775228
0.85368162 -21.542217 1.7639307
1.3747948 -21.54159 1.7660806
0.65332031 -7.4167795 0.60917783
1.0871191 -7.9374719 0.65549237
1.4423339 -7.7343979 0.64372528
1.7533495 -7.4009695 0.62229508
6.1862011 -21.442596 1.8259463
6.7562594 -21.46044 1.8408148
8.7711029 -22.12817 1.9475296
9.6932611 -22.830824 2.0293648
18.198994 -7.6353064 1.6147485
20.975155 20.956669 2.425931
19.999023 20.969517 2.3708632
17.312529 21.004875 2.2270911
16.486464 21.015747 2.185425
4.8580761 6.5102592 0.66461259
4.3855076 6.510026 0.64222199
3.7310545 6.5097065 0.61389065
3.3245604 6.5095086 0.59803468
3.1288671 6.5094147 0.59091705
2.9376855 6.5093207 0.58430314
2.7506151 6.5092316 0.57816863
2.5673339 6.5091434 0.57249111
2.3875098 6.509057 0.56725144
1.5298828 6.5067573 0.54688549
1.3650976 6.50668 0.54395187
0.72054684 6.5063825 0.5355925
0.24682617 6.506165 0.53270203
0.089716792 6.506093 0.53236467
-0.067255855 6.506022 0.53233612
-0.38162109 6.5058804 0.53321135
-0.53936523 6.5058112 0.53411698
-0.69775391 6.5057392 0.53533798
-0.85694337 6.5056682 0.53687745
-1.0171582 6.5055976 0.53873974
-1.3414062 6.505456 0.5434581
-1.8405566 6.5052361 0.55313766
-2.01125 6.5051641 0.55709594
-2.1845019 6.5050898 0.561441
-2.7223241 6.5048575 0.57694149
-2.908623 6.5047808 0.58299023
-3.2504785 6.4191055 0.58869183
-3.6972558 6.5027127 0.61202192
-4.3478222 6.5024433 0.63998836
-4.8172069 6.5022516 0.66209245
-5.0645704 6.5021491 0.67433
-5.3214254 6.5020452 0.68743622
-5.5886035 6.5019364 0.70147949
-5.8670897 6.5018229 0.71653348
-16.092138 -7.1460309 1.4406091
-14.946172 -8.4471731 1.4046572
-19.789873 -21.554914 2.3941498
-17.097256 -21.564812 2.2516458
-16.266123 -21.565371 2.2100801
-15.464589 -21.56591 2.1712532
-13.930654 -21.550694 2.0995517
-13.203916 -21.549534 2.0677948
-12.498447 -21.548405 2.0381529
-10.495361 -21.549902 1.9611666
-9.2374897 -21.549913 1.9183282
-8.6274214 -21.547821 1.899068
-7.4419236 -21.544958 1.8649673
-6.8643847 -21.543562 1.8499701
-6.2957129 -21.542185 1.8362744
-4.6366405 -21.547348 1.803323
-1.4498438 -21.545681 1.7668152
-0.92838866 -21.544611 1.7643771
-0.40804687 -21.543545 1.762973
0.11175781 -21.542477 1.7625899
0.56669921 -7.2913408 0.59836411
1.3731934 -7.8087063 0.64869827
1.5336523 -7.6363363 0.63726789
6.5088282 -21.44257 1.8334363
7.1010742 -21.51218 1.8534896
9.8461819 -7.8477025 1.0301336
17.815508 -8.2064352 1.6048443
18.220419 -7.3496056 1.6074731
26.888847 -7.9334025 2.2938077
16.835127 21.011156 2.2028594
16.026455 21.021803 2.1627908
4.4836426 6.5100751 0.64674455
4.0349317 6.5098529 0.62663573
3.6123145 6.5096478 0.60911405
3.4095213 6.5095501 0.60123074
3.0187402 6.5093608 0.58706558
2.8299608 6.5092692 0.58072799
2.6450782 6.5091801 0.57485867
2.0830567 6.4232206 0.55247694
1.9130664 6.4231415 0.54834151
1.6007421 6.5067911 0.54824388
1.2713964 6.5066361 0.54242659
1.1091406 6.5065603 0.54003155
0.94822264 6.5064859 0.53796917
0.62957031 6.5063396 0.53482085
0.31390625 6.5061955 0.5329414
0.15672851 6.5061221 0.53247082
-0.00029296873 6.5060515 0.53231031
-0.15727539 6.5059819 0.53246063
-0.47199216 6.5058403 0.53369218
-0.78891599 6.5057001 0.53618085
-0.94867188 6.5056267 0.5379051
-1.1095409 6.5055561 0.53995633
-1.4354784 6.5054145 0.54506165
-2.2850683 6.5050454 0.56411022
-2.4628906 6.5049686 0.5690915
-2.8286717 6.5048137 0.5803532
-2.9993455 6.4661198 0.58318788
-3.1679101 6.4191413 0.58567458
-3.3628125 6.4190578 0.5929001
-3.5636914 6.4207087 0.60082042
-3.8172264 6.5026627 0.61692989
-4.0311718 6.5025735 0.62596846
-4.714365 6.5022917 0.65712017
-4.9579492 6.502193 0.66900724
-6.3308301 6.5016351 0.74247587
-24.453417 -7.8631163 2.1016283
-17.000645 -7.3409271 1.5150977
-15.185556 -8.3774414 1.4189792
-20.203281 -21.55549 2.4171877
-19.246601 -21.554157 2.3642678
-17.461523 -21.564568 2.2702684
-15.803096 -21.565681 2.1874955
-14.247665 -21.551199 2.1137786
-13.51125 -21.550022 2.0810735
-12.796933 -21.548882 2.0505502
-11.429091 -21.549891 1.9957956
-10.77124 -21.5499 1.9711556
-10.129052 -21.549904 1.9482278
-9.5012207 -21.549911 1.9269382
-8.2831154 -21.546991 1.8887112
-4.8693552 -21.547785 1.8074588
-3.78708 -21.545761 1.7898587
-0.62993163 -21.543999 1.7634436
-0.1099707 -21.542934 1.7626284
0.40980467 -21.542751 1.762907
1.4513574 -21.541496 1.7664862
0.68384767 -7.4609866 0.61300385
0.89755857 -7.7347269 0.63708818
1.1231347 -7.9900022 0.66015518
1.4658788 -7.709116 0.6420477
1.6231933 -7.5402684 0.63106322
2.1898437 -8.2223263 0.69618726
6.268486 -21.442593 1.8278244
6.8440137 -21.473608 1.844009
8.1267576 -21.802389 1.9037255
17.61165 -8.3333149 1.5941205
17.770908 -7.8897662 1.5908401
18.038105 -6.9875259 1.5827081
18.932011 20.983559 2.3123336
18.043104 20.995258 2.2649825
17.189375 21.006496 2.2207992
16.36787 21.017309 2.1795506
3.9113085 6.5097942 0.62136167
3.7004979 6.5096917 0.61265075
3.49541 6.5095916 0.60452622
3.1005566 6.5094013 0.58991563
2.7235057 6.5092182 0.57730848
2.5407422 6.5091314 0.57169569
2.3613963 6.5090446 0.56651855
2.1563866 6.4232574 0.55436063
1.9852831 6.4231753 0.55006057
1.8167089 6.4230962 0.54613799
1.3410645 6.506669 0.54355115
1.1781836 6.5065937 0.54101241
1.0167285 6.5065179 0.53880948
0.85648435 6.5064445 0.5369339
0.69724607 6.5063701 0.53538454
0.53881836 6.5062966 0.53415251
0.066699214 6.5060821 0.53234082
-0.0902832 6.5060124 0.53235793
-0.40472656 6.5058694 0.53332382
-0.56254882 6.5058002 0.53427613
-0.72103512 6.5057292 0.5355432
-1.0407519 6.5055866 0.5390408
-1.6967382 6.5052996 0.55005568
-1.8654296 6.5052261 0.55369431
-2.2101269 6.5050774 0.5621109
-2.3866503 6.5050015 0.56691605
-2.5662987 6.5049262 0.57213914
-3.0861719 6.4191742 0.58274978
-3.2790821 6.4190922 0.58975416
-3.4777441 6.4207449 0.59744167
-3.7277637 6.5027008 0.61325943
-3.9391112 6.5026116 0.62203431
-4.1567578 6.502521 0.63143784
-4.3811817 6.5024295 0.64150876
-4.8529391 6.5022354 0.66383529
-5.1016407 6.5021343 0.6761961
-5.359961 6.5020294 0.68943739
-5.9089842 6.5018048 0.71883225
-6.2017579 6.5016861 0.7351498
-16.08247 14.585368 1.7763778
-17.099062 -7.1754918 1.5172049
-15.844746 -7.5676537 1.4366627
-15.247656 -7.7396288 1.3990483
-8.1809864 -7.763536 0.9227739
-20.624678 -21.556076 2.4409268
-19.64958 -21.554718 2.3863895
-18.716572 -21.553417 2.3355596
-16.973389 -21.564898 2.2453742
-16.146776 -21.565451 2.204217
-15.349365 -21.565989 2.1657834
-14.568954 -21.55171 2.1284218
-13.822646 -21.55052 2.0947568
-13.09916 -21.549364 2.0633168
-12.39663 -21.548243 2.033977
-11.714863 -21.549885 2.0068545
-11.049883 -21.549894 1.9814508
-8.5389252 -21.547609 1.8963708
-7.9424901 -21.546169 1.8788294
-7.3566208 -21.544752 1.862684
-6.2129784 -21.541985 1.8343741
-5.103076 -21.54822 1.8118014
-4.016201 -21.546188 1.7932348
-1.8961914 -21.546598 1.7697204
-0.85200191 -21.544455 1.7641076
-0.33178711 -21.543388 1.762853
1.0197656 -7.8393235 0.64680374
1.2125098 -7.8376141 0.64888763
1.3970898 -7.7830224 0.64697021
2.090879 -8.1888227 0.69148999
6.591836 -21.442566 1.8354211
8.5539742 -22.01317 1.932276
17.908144 -8.7004061 1.6289806
18.598007 -7.9509435 1.6548818
18.226044 -7.2769504 1.6056867
19.550322 -7.2639313 1.7064123
21.256573 20.952967 2.4420605
19.322754 20.978415 2.3335571
18.417841 20.990326 2.2847803
16.71459 21.012743 2.1968036
15.910302 21.023333 2.1571462
4.4497461 6.5100579 0.64517516
4.0031052 6.5098395 0.62526578
3.7897167 6.5097332 0.61629319
3.5822461 6.5096331 0.60792357
3.1832225 6.5094399 0.59285915
2.6182714 6.5091681 0.57403576
2.2302344 6.4232917 0.55631608
2.0579686 6.4232082 0.55184644
1.8883203 6.4231305 0.54776579
1.7216113 6.4249454 0.54421979
0.76506835 6.506403 0.53600675
-0.33751953 6.5058999 0.53301358
-0.49512693 6.5058293 0.53383195
-0.97218746 6.5056171 0.53818524
-1.2956738 6.5054755 0.54271698
-1.7932129 6.5052567 0.55209702
-3.0052342 6.4192095 0.57991135
-3.1962011 6.4191289 0.58670348
-3.3918164 6.4190459 0.59400356
-4.063086 6.5025616 0.62734556
-4.5131345 6.5023746 0.64759839
-4.7495508 6.5022783 0.6588136
-4.9944139 6.5021768 0.67082059
-5.2485156 6.5020742 0.6836769
-5.5127149 6.501966 0.6974501
-6.3758106 6.5016179 0.74504757
-15.879414 14.701892 1.7705683
-17.194296 -7.0081987 1.5191749
-16.959599 -7.394527 1.5137613
-15.931826 -7.8816991 1.4543037
-15.802197 -8.2979431 1.4603238
-15.102715 -8.401535 1.414004
-20.060194 -21.55529 2.4091854
-16.495684 -21.565216 2.2214305
-15.686191 -21.565762 2.1818621
-14.894843 -21.552231 2.1435058
-12.693954 -21.548717 2.0462487
-10.036035 -21.549908 1.9450048
-8.7968941 -21.548231 1.9042944
-5.8913083 -21.541208 1.8271921
-5.338037 -21.548658 1.8163632
-4.7891989 -21.547634 1.806011
-4.2462597 -21.546618 1.7968142
-3.1752539 -21.544617 1.7817849
1.527998 -21.541403 1.7669079
0.71473628 -7.505753 0.61688554
0.92706054 -7.7493296 0.63855755
1.1233008 -7.7909951 0.64403683
1.4892968 -7.68397 0.64038891
1.6458105 -7.516048 0.62952012
2.2241895 -8.233963 0.69783401
6.9321384 -21.48683 1.8472406
9.012558 -22.275724 1.9660809
18.209961 -7.4887791 1.6109762
17.871153 -6.8502269 1.5659258
-3.4094141 -21.544857 1.2910011
-1.8263476 -21.546007 1.2797711
0.25729492 -21.542797 1.2751015
1.2982714 -21.541542 1.2772459
1.8206738 -21.540913 1.2794435
0.81510741 -7.486671 0.44571745
1.2388574 -7.8410254 0.46982756
1.559209 -7.5007467 0.45342192
1.8724512 -8.0302677 0.4880203
2.0972168 -8.1048536 0.49548566
6.1041207 -21.442722 1.3195076
6.6689939 -21.448002 1.3293474
7.2714157 -21.538404 1.3454454
8.657939 -22.07037 1.4031482
9.5244236 -22.655718 1.4545484
18.574366 -7.8702326 1.1939369
19.111347 -7.5592785 1.2163731
8.3829489 6.5166583 0.62842053
7.5959082 6.5162702 0.59232116
6.5629101 6.5109296 0.547144
6.2535448 6.510777 0.53429562
5.6756153 6.5104971 0.51118344
3.9742088 6.5096745 0.45139831
3.5549316 6.5094757 0.43896881
3.1572266 6.5092864 0.42817459
2.7777441 6.5091057 0.41885254
2.035166 6.4230671 0.39877379
1.8658788 6.4229889 0.39585739
1.5541601 6.5066385 0.39592606
1.2257812 6.506485 0.39185789
0.74384767 6.5062637 0.38757902
0.58523434 6.5061917 0.38662153
0.2698535 6.5060477 0.38538894
0.11274414 6.5059757 0.38511184
-0.20125 6.5058341 0.38522917
-0.35850585 6.5057635 0.385625
-0.67445314 6.5056205 0.38709626
-0.99356443 6.5054789 0.38948807
-1.4816113 6.5052643 0.39487076
-1.8156738 6.505115 0.39971861
-1.985996 6.5050421 0.40254134
-3.620537 6.4205413 0.43624938
-4.0921388 6.502399 0.45470947
-4.5441012 6.5022063 0.46949354
-5.0276074 6.5020037 0.48644301
-5.2829881 6.5018964 0.49582794
-6.114326 6.5015459 0.5282231
-6.4167285 6.50142 0.54063523
-6.7338376 6.5012894 0.55397367
-7.4185543 6.5010052 0.58379835
-7.7897558 6.5008512 0.60048997
-10.046572 6.5080218 0.70846069
-16.704697 -7.3473816 1.0800738
-15.630781 -7.3300338 1.0217755
-15.998837 -7.9789872 1.0581137
-8.2376757 -7.7072587 0.66766602
-19.932089 -21.556149 1.7376165
-18.081446 -21.553524 1.6650817
-17.221386 -21.564175 1.6333224
-14.039599 -21.551571 1.5223083
-12.601064 -21.54925 1.477442
-11.243554 -21.550486 1.438622
-10.590156 -21.550486 1.4211456
-9.3281441 -21.550486 1.3898245
-8.7162495 -21.548395 1.3757226
-8.1164846 -21.546944 1.3627288
-6.3787012 -21.542732 1.3297223
-3.6371777 -21.545282 1.293201
-3.1044824 -21.544289 1.2882712
-2.0499804 -21.546467 1.2809857
-1.526455 -21.545393 1.2783614
-1.0047559 -21.544321 1.2764829
-0.48430663 -21.543255 1.2753599
1.0758789 -21.541811 1.2765399
0.72458982 -7.3584518 0.43761641
1.1506737 -7.8031936 0.4668251
1.4927441 -7.5712738 0.45673171
1.6470801 -7.4076843 0.44913009
2.0004687 -8.0726862 0.4922328
5.8661914 -21.442741 1.3157232
6.4260449 -21.442696 1.3248489
7.0126071 -21.499567 1.3384336
7.6368747 -21.629004 1.3575637
8.3309469 -21.897146 1.3866076
9.8466406 -7.9052081 0.74734801
18.125547 -7.3860307 1.1584114
19.330126 -7.3382621 1.2237178
8.5635643 6.5167475 0.63689804
8.1476564 6.5165424 0.61748201
7.7561426 6.5163507 0.59955394
6.6995311 6.5109963 0.55291688
6.3837399 6.5108428 0.53966337
6.0825782 6.510695 0.52733231
5.7946973 6.5105548 0.51584518
4.9996676 6.510169 0.48581633
4.5175977 6.5099368 0.46897322
3.642451 6.5095172 0.44147766
3.4388769 6.5094194 0.43571487
2.6719239 6.5090556 0.41642988
2.1081641 6.4231009 0.4001013
1.7704296 6.4248381 0.39442411
1.4593359 6.5065937 0.39465714
1.1328321 6.5064435 0.39087492
0.81178707 6.5062943 0.38805845
0.65280271 6.5062222 0.38700211
0.49459961 6.5061493 0.38617522
0.17975585 6.5060062 0.38520262
-0.29137695 6.505794 0.38542983
-0.44884765 6.505722 0.38595381
-0.76553708 6.5055804 0.38768661
-1.2478417 6.5053654 0.39203703
-1.4113281 6.5052948 0.39396942
-1.9130468 6.5050726 0.40130356
-2.4365625 6.5048442 0.4111087
-2.6171582 6.504766 0.41497466
-2.8012891 6.5046878 0.41915938
-2.9892774 6.5046062 0.42367965
-3.1396484 6.4190116 0.42291808
-3.3338475 6.4189286 0.42808518
-3.5339551 6.4205766 0.43375808
-3.7862499 6.5025287 0.44533691
-3.9993064 6.5024381 0.45180967
-4.4452147 6.5022478 0.4661673
-4.6792383 6.5021491 0.47411817
-4.9215331 6.5020475 0.48263031
-5.7058496 6.501718 0.51197082
-5.9894724 6.5015984 0.52318937
-6.5966501 6.5013471 0.54816526
-6.9229102 6.5012112 0.56207561
-7.2663574 6.5010686 0.57705551
-7.628828 6.5009184 0.59321088
-8.0124216 6.5007586 0.61066145
-8.3214846 6.4249382 0.62222195
-9.3271484 6.508317 0.67313063
-9.8236227 6.5081143 0.6974237
-10.357617 6.5078945 0.72397625
-10.934228 6.5076604 0.75308394
-11.559492 6.5074039 0.78510481
-16.361034 -7.46802 1.0644331
-15.06206 -8.2398996 1.0161225
-20.348232 -21.556738 1.7544574
-17.587763 -21.563923 1.646929
-16.738428 -21.564505 1.6156552
-15.920254 -21.565065 1.5864532
-12.203857 -21.548613 1.4656755
-10.867002 -21.550486 1.4284507
-10.222558 -21.550486 1.4116849
-8.9762793 -21.550486 1.3816965
-8.3709669 -21.54756 1.3681448
-7.1945214 -21.544708 1.3443377
-6.62082 -21.543318 1.3338944
-4.9495606 -21.547733 1.3085138
-4.4049706 -21.546717 1.3016194
-3.3312597 -21.544712 1.2902775
-1.7495703 -21.545851 1.2793874
1.8974999 -21.540819 1.2798294
1.0760449 -7.8565097 0.46932814
1.2631347 -7.8152022 0.46854523
1.4252832 -7.6429043 0.46014267
6.1862402 -21.442717 1.3208449
6.7564645 -21.46113 1.331634
17.613789 -8.4107418 1.1552237
18.394922 -8.2448568 1.1930566
18.577246 -7.7939954 1.1923356
19.16707 -7.5029812 1.2182211
8.3219624 6.5166287 0.62557369
7.9203806 6.5164313 0.6070314
7.0858884 6.427392 0.56620252
6.5166016 6.5109062 0.54520094
6.2093749 6.5107574 0.53248596
5.915957 6.5106144 0.52064604
5.6351657 6.5104775 0.50961226
5.3658786 6.5103474 0.4993228
5.1070995 6.5102201 0.48971802
4.8579588 6.5101004 0.48075026
4.6176267 6.5099845 0.47237563
3.1288085 6.5092716 0.42744291
2.9376268 6.5091815 0.42265868
2.5672753 6.509007 0.41411576
2.3874609 6.5089211 0.41032499
2.0101757 6.4230547 0.39832947
1.8412402 6.4229765 0.39545211
1.6751465 6.4247942 0.39296171
1.2019628 6.506474 0.39159864
0.72052735 6.5062528 0.38742414
-0.067255855 6.5058942 0.38506895
-0.22430664 6.5058231 0.38527387
-0.38161132 6.5057535 0.38570252
-1.1785547 6.5053959 0.39128691
-1.5058398 6.5052533 0.39519119
-1.6721387 6.5051799 0.39752197
-1.8405175 6.5051041 0.40011534
-2.3605175 6.5048785 0.40955397
-2.9085643 6.5046406 0.42170823
-3.2504101 6.4189639 0.42583433
-3.6971776 6.5025678 0.44271025
-4.1243262 6.5023847 0.45572662
-4.5784278 6.5021915 0.47065979
-4.8170896 6.5020914 0.47892746
-5.0644727 6.5019879 0.4877786
-5.3212891 6.5018792 0.49725845
-6.1578221 6.5015287 0.52998745
-6.462285 6.5014005 0.54253203
-7.1176171 6.5011296 0.57052827
-7.4717383 6.5009832 0.58616716
-7.846035 6.5008283 0.60304916
-8.2426758 6.5005999 0.62129837
-8.5528803 6.4167438 0.63282424
-9.1256247 6.5084014 0.66338867
-10.124892 6.5079899 0.71235442
-11.286328 6.507515 0.77106094
-16.664532 -7.4002066 1.0791627
-15.71 -7.435142 1.0286698
-15.979424 -8.0400705 1.0587072
-14.746327 -8.33424 1.0025048
-8.1976948 -7.7244391 0.66665131
-20.772587 -21.557339 1.7718146
-18.851807 -21.554619 1.6947879
-17.096815 -21.56426 1.6287365
-16.265732 -21.564827 1.5986655
-14.680947 -21.552603 1.5434031
-13.931093 -21.551395 1.5188035
-13.204346 -21.550224 1.495831
-12.498837 -21.549086 1.4743861
-11.14668 -21.550484 1.4359759
-9.859746 -21.550486 1.4026182
-9.2377338 -21.550484 1.3877047
-8.0294237 -21.54673 1.3609114
-7.4420505 -21.545309 1.3490856
-6.2958202 -21.542532 1.3283263
-5.7373242 -21.549206 1.3198209
-5.1837597 -21.54817 1.3117112
-4.6366115 -21.547148 1.3044605
-4.0951853 -21.546139 1.2980376
-3.5587792 -21.545135 1.2924273
-3.0266697 -21.544146 1.2876117
-2.4986424 -21.547388 1.2838254
-1.9730371 -21.546309 1.2805547
-0.40804687 -21.543098 1.2752541
0.11174805 -21.542034 1.2749827
0.97577149 -7.7143536 0.46021178
2.0335839 -8.0836945 0.49334013
6.5088573 -21.44269 1.3262602
7.1013083 -21.512878 1.3408252
7.7356544 -21.664259 1.3614858
8.4424801 -21.956234 1.3922333
9.2664642 -22.465698 1.4382964
18.116055 -8.3448801 1.180482
19.386562 -7.281271 1.2256486
8.0887594 6.5165129 0.61476225
6.0395408 6.510673 0.52559602
4.4835353 6.5099211 0.46782514
4.0348434 6.5097036 0.45327926
3.2117283 6.5093122 0.4295935
3.0186718 6.5092192 0.42465729
2.4637694 6.5089569 0.41190428
2.0830078 6.423089 0.39963913
1.9130273 6.4230094 0.39664641
1.6007031 6.5066595 0.39657593
1.2713672 6.5065069 0.39236784
1.1091211 6.5064325 0.3906363
0.94819331 6.5063567 0.38914475
0.78839844 6.5062833 0.38788816
0.47145507 6.5061393 0.38607299
0.31389648 6.5060673 0.38550797
-0.00028320312 6.5059247 0.38505036
-0.15728515 6.5058537 0.38515869
-0.31444335 6.505784 0.38549149
-0.47198242 6.505712 0.38604966
-0.78890622 6.5055704 0.38784957
-0.94865233 6.5054998 0.3890979
-1.2717285 6.5053558 0.39230484
-1.4354492 6.5052838 0.39427459
-1.6009473 6.5052104 0.39649642
-2.462832 6.5048332 0.41165587
-2.6439452 6.5047541 0.41556793
-3.0004883 6.4685736 0.42202285
-3.1678417 6.4189997 0.42365354
-3.3627441 6.4189153 0.42887557
-4.4790525 6.502233 0.46730071
-4.9578319 6.5020328 0.48392943
-5.2105079 6.5019269 0.49313521
-5.7466893 6.5017009 0.51356781
-6.0321093 6.5015812 0.52490354
-6.9721775 6.5011907 0.56420392
-7.683701 6.500895 0.59568524
-8.0705957 6.5007353 0.61333936
-8.8038673 6.4166398 0.64476424
-9.3977928 6.5082889 0.67656404
-9.8994818 6.5080829 0.7011705
-24.453417 -7.8631186 1.5202558
-16.485821 -7.5955791 1.0742909
-15.54919 -8.0950165 1.0375204
-14.980439 -8.2642813 1.012586
-19.247528 -21.55518 1.7103229
-18.331249 -21.553879 1.6746328
-17.461084 -21.564011 1.6422049
-16.616493 -21.564587 1.6112411
-15.017178 -21.565681 1.5553237
-14.248125 -21.551907 1.5290962
-13.511689 -21.55072 1.5054388
-12.797334 -21.549568 1.4833577
-12.103261 -21.548449 1.4627508
-11.429414 -21.550486 1.4437413
-10.771533 -21.550486 1.4259131
-8.8869143 -21.550484 1.3796654
-8.2832518 -21.547346 1.366261
-7.6914549 -21.545916 1.3540117
-7.1098046 -21.544504 1.3427495
-5.4190917 -21.548613 1.3150648
-4.3255568 -21.546566 1.3006762
-3.2532032 -21.544565 1.2895753
-2.1969628 -21.54677 1.281855
-0.62993163 -21.543552 1.2756006
0.40980467 -21.542614 1.2752272
0.93004882 -21.541986 1.2761494
0.66696286 -7.2768474 0.43248475
1.1114258 -7.9066806 0.47255707
1.2872851 -7.789526 0.46727538
5.7119236 -21.446865 1.3135774
6.2685251 -21.442709 1.3222035
6.8442383 -21.4743 1.3339469
8.8873825 -22.191921 1.4148363
9.8736229 -23.028711 1.4829545
17.740204 -8.3941488 1.1615591
18.355127 -8.1491451 1.1886019
18.580137 -7.7180023 1.1907634
8.2615328 6.5165997 0.62276107
7.8634667 6.5164018 0.60443145
7.0356541 6.4273686 0.56400204
6.7907419 6.5110407 0.55680299
6.4706149 6.5108843 0.54327697
6.1655078 6.5107365 0.53069687
5.8740134 6.5105939 0.51898009
5.5949707 6.510458 0.50805849
5.0699801 6.5102043 0.48836425
4.8221679 6.5100822 0.47948653
4.583086 6.5099673 0.47119522
4.3519626 6.5098562 0.46344969
4.1282129 6.5097489 0.45621702
3.911201 6.509644 0.44946426
3.7004199 6.5095439 0.44316313
3.2954979 6.5093513 0.43181229
3.1004882 6.5092583 0.42671889
2.5406933 6.5089931 0.41353989
2.3613477 6.5089078 0.40979552
2.1563475 6.4231243 0.40100098
0.6972363 6.5062418 0.38727522
0.38105467 6.5060978 0.38572097
0.22374023 6.5060272 0.38528442
-0.56254882 6.5056705 0.38647231
-0.72102535 6.5056009 0.38738891
-1.2023535 6.5053849 0.3915399
-1.3654003 6.5053144 0.39340332
-1.5301172 6.5052423 0.39551711
-1.6966991 6.5051675 0.39788574
-1.8653905 6.5050931 0.40051877
-2.0364454 6.5050201 0.40342224
-2.2100878 6.5049429 0.40660566
-2.3865917 6.5048661 0.41008255
-2.5662498 6.5047879 0.41386122
-2.7493553 6.5047097 0.41795486
-3.2790136 6.418952 0.42660248
-3.4776659 6.4206009 0.43216261
-4.1566696 6.5023708 0.45675382
-5.3598337 6.5018635 0.49870667
-5.9088278 6.5016327 0.51996964
-6.2015915 6.5015106 0.53177273
-7.9027734 6.5008049 0.60563904
-8.2426662 6.4534159 0.61957061
-8.6162014 6.4167166 0.63582611
-9.1942768 6.5083733 0.66669875
-16.497803 -7.396214 1.0700543
-15.790254 -7.5416331 1.0356673
-15.219561 -8.192975 1.0229918
-8.1816893 -7.7641978 0.66756529
-17.831533 -21.563757 1.6560754
-15.348994 -21.565456 1.5666254
-11.715176 -21.550484 1.451743
-7.942627 -21.546522 1.3591126
-7.3567576 -21.545101 1.3474333
-6.7805271 -21.543705 1.3367251
-6.2130957 -21.542332 1.3269501
-5.1030273 -21.548019 1.3105938
-4.0161719 -21.54599 1.2971661
-2.4213574 -21.547232 1.2832974
-1.8961425 -21.546152 1.2801391
-1.3732324 -21.545078 1.2777287
0.18797851 -21.541878 1.2750045
1.5385449 -7.5226512 0.45444456
1.842998 -8.0205297 0.48706526
6.5918751 -21.442682 1.327698
7.1903415 -21.526239 1.3432362
9.4009762 -22.564783 1.4467627
9.8804884 -7.817996 0.74569607
18.248251 -8.3276672 1.1871675
17.788837 -7.1023908 1.1336453
19.443163 -7.2241211 1.2276061
8.438838 6.5166864 0.63103759
8.0303907 6.5164838 0.61207563
7.6455564 6.5162945 0.59455472
6.8530273 6.4366813 0.55644333
6.2938962 6.5107975 0.53595394
5.440156 6.5103812 0.50213253
4.4496384 6.5099039 0.46668959
3.7896385 6.5095868 0.44579893
3.5821679 6.5094876 0.43974411
2.8025196 6.5091166 0.41942993
2.6182227 6.5090299 0.41523314
2.4374609 6.5089445 0.41135558
2.2301953 6.4231596 0.40241531
1.8882812 6.4229999 0.39622968
1.7215723 6.4248147 0.39366424
1.4110059 6.5065713 0.39404005
0.92467773 6.5063467 0.38894469
0.76505858 6.5062737 0.38772446
0.1336914 6.5059857 0.38513517
-0.02330078 6.5059147 0.38505247
-0.18030272 6.5058427 0.38519347
-0.65332031 6.5056305 0.3869696
-1.2956445 6.5053449 0.39257827
-1.4596192 6.5052729 0.3945848
-1.6254003 6.5051994 0.39684403
-1.9631737 6.5050516 0.40215009
-2.3109276 6.5049005 0.40856308
-2.6708007 6.5047417 0.41616911
-2.8560252 6.5046625 0.42045075
-3.0051758 6.4190702 0.41948149
-3.1961424 6.4189873 0.42439392
-3.3917382 6.4189029 0.42967695
-4.0629883 6.5024114 0.45379347
-4.2844238 6.5023174 0.46086761
-4.7494431 6.5021195 0.47655487
-4.9942966 6.502017 0.48524061
-5.2483888 6.5019097 0.49453858
-5.5125685 6.5017996 0.50450212
-5.7877831 6.5016828 0.51518083
-6.0751171 6.5015631 0.52663463
-7.0218258 6.5011697 0.56635666
-7.3706641 6.5010257 0.58166915
-7.7391014 6.5008731 0.59819227
-8.1292963 6.500711 0.6160475
-8.433691 6.4167924 0.62719786
-9.4691696 6.5082583 0.68003964
-10.52207 6.5078278 0.73223388
-11.112266 6.507587 0.76215529
-15.997773 -7.9143186 1.0563531
-15.463964 -8.1203346 1.0337455
-17.335155 -21.564096 1.6375256
-15.685791 -21.565224 1.5782541
-14.895342 -21.552948 1.5505989
-14.138661 -21.551731 1.5255252
-12.002969 -21.548288 1.4598337
-10.036308 -21.550488 1.4069955
-9.4105368 -21.550486 1.3917705
-7.6055079 -21.545706 1.3522965
-4.7891698 -21.547434 1.3064049
-4.2462306 -21.546421 1.2997556
-2.1199415 -21.546612 1.281394
-1.0742577 -21.544464 1.276691
0.91208005 -7.6240788 0.45444855
5.7922168 -21.442745 1.3145735
6.3510251 -21.442701 1.3235798
7.5476365 -21.597153 1.354035
10.317245 -23.830202 1.5369002
19.279022 -7.3898787 1.2219805
-4.4844532 -21.546667 0.80576992
-2.8783495 -21.543669 0.79576445
1.2982714 -21.541407 0.79010421
1.8206738 -21.540775 0.79146194
2.3452051 -21.540144 0.79328579
1.0142089 -7.6052222 0.28090698
1.2399023 -7.8476958 0.29088378
1.3854687 -7.5781426 0.28204879
1.8515136 -7.9405136 0.29851669
7.2716403 -21.539104 0.83231705
7.9263964 -21.733774 0.84698242
18.044415 -7.6456761 0.71749723
18.915009 -7.4816175 0.74471861
14.608721 6.5154986 0.5856384
13.708789 6.5150652 0.55570281
12.895947 6.5146747 0.52896988
12.09625 6.4816022 0.50243926
11.489365 6.5179386 0.48362151
10.869208 6.5176411 0.46400404
10.297099 6.5173664 0.44616455
8.8138084 6.5166569 0.40131453
7.9775586 6.5162578 0.37712586
7.1362791 6.4272294 0.35161802
6.2533789 6.5106025 0.33050734
5.9580469 6.5104609 0.32310775
5.1443162 6.5100775 0.30377975
4.8938184 6.5099587 0.29817718
4.4188867 6.5097356 0.28805694
4.193027 6.5096292 0.28349257
3.9741211 6.5095258 0.27922881
3.7615526 6.5094266 0.27525178
3.3535254 6.5092363 0.2680831
3.1571581 6.5091434 0.26486418
2.9653418 6.5090556 0.26187345
2.5938866 6.5088835 0.2565271
2.4135742 6.5087991 0.25415519
2.2070215 6.4230156 0.2486531
1.5541406 6.5065069 0.24491645
1.2257714 6.5063567 0.24240044
0.74383789 6.5061359 0.23975189
0.58522457 6.5060649 0.23915939
0.26986328 6.5059209 0.23839782
-0.044228513 6.5057778 0.23819312
-0.20124023 6.5057058 0.23829894
-0.35850585 6.5056353 0.2385443
-0.5161621 6.5055656 0.23892897
-0.99353516 6.5053506 0.2409336
-1.1547558 6.5052776 0.24189346
-1.985957 6.5049076 0.24900879
-2.1588085 6.5048332 0.25092688
-2.3344531 6.504755 0.25302321
-2.5131543 6.5046744 0.25530434
-2.695205 6.5045962 0.25777861
-3.2218652 6.4188371 0.26294801
-3.8763084 6.5023417 0.27715576
-4.092031 6.5022488 0.28127792
-4.3143945 6.5021515 0.28569412
-4.781445 6.5019488 0.29548597
-5.0274706 6.5018425 0.30090666
-5.2828612 6.5017328 0.30671281
-5.8252048 6.5014982 0.31960005
-6.4165525 6.5012431 0.33442932
-6.7336521 6.5011063 0.34268081
-8.1828127 6.5004849 0.38261551
-9.0573921 6.5082097 0.40833679
-9.5343361 6.508007 0.42263883
-11.842363 6.5070243 0.49471313
-12.55001 6.5067229 0.51756394
-13.32664 6.5063944 0.5429582
-16.196171 6.5028496 0.6389842
-15.17873 -8.032958 0.62874782
-8.2376461 -7.7072287 0.41301879
-18.98794 -21.555822 1.0517251
-18.082266 -21.554516 1.0300546
-17.220928 -21.56362 1.010347
-16.385273 -21.564201 0.99156415
-14.793535 -21.553497 0.95710874
-14.040049 -21.552273 0.94173336
-11.912724 -21.548813 0.90148312
-10.590439 -21.551069 0.87914747
-9.9523726 -21.551064 0.86910033
-8.7163868 -21.548752 0.8510406
-8.1166115 -21.547297 0.84300244
-7.5277343 -21.545866 0.83559567
-6.3787889 -21.543076 0.82258195
-5.8180761 -21.545639 0.81708252
-4.716455 -21.5471 0.80756134
-4.1742382 -21.546085 0.80351317
-3.6371288 -21.545086 0.79996979
-2.5759277 -21.5471 0.79449952
-2.0499413 -21.546021 0.79240429
-1.5264159 -21.544949 0.7907809
-0.48430663 -21.54281 0.78892559
0.55537111 -21.542301 0.78896832
1.1503417 -7.8009214 0.28869566
5.8662205 -21.442858 0.81391495
7.6374512 -21.630636 0.83985382
8.331933 -21.899776 0.85786206
9.8427343 -7.9020705 0.46212646
18.288809 -7.9722705 0.73044187
13.232998 6.5148368 0.54001802
10.535723 6.5174809 0.45357314
9.4801464 6.5169754 0.42118698
9.0064154 6.5167499 0.40700743
7.2858005 6.4273005 0.35570601
6.383574 6.5106645 0.33382905
5.7945409 6.510386 0.31909391
5.5187988 6.5102544 0.31246993
4.9995508 6.5100088 0.30052078
4.2885156 6.5096731 0.28540099
3.6423535 6.5093708 0.27309197
