# .PCD v0.7 - Point Cloud Data file format
VERSION 0.7
FIELDS x y z
SIZE 4 4 4
TYPE F F F
COUNT 1 1 1
WIDTH 1459
HEIGHT 1
VIEWPOINT 0 0 0 1 0 0 0
POINTS 1459
DATA ascii
12.083427 6.5152936 0.19323806
9.5829487 6.4303217 0.16244407
8.3392773 6.5174661 0.14898178
7.9367089 6.5172758 0.14455695
7.1983299 6.5169277 0.13668075
6.8581052 6.516768 0.1331678
6.5347948 6.5166154 0.12990555
5.6510935 6.5162005 0.12141068
5.3811326 6.5160732 0.1189534
5.1217284 6.5159512 0.11666282
4.3418455 6.4317951 0.10923187
4.1700778 6.5106707 0.10883094
3.5337694 6.5103726 0.10427017
3.3330078 6.5102787 0.10295036
2.5750389 6.5099249 0.098542705
2.0443652 6.5096784 0.096044004
1.537334 6.5094414 0.094148256
1.3724414 6.5093656 0.093640439
1.2091992 6.5092902 0.093193129
1.0474218 6.5092144 0.092802428
0.88692379 6.509141 0.092470087
-0.83958983 6.424551 0.091201626
-1.0104785 6.5063701 0.092682034
-1.3346192 6.5062213 0.093489379
-1.4990234 6.5061469 0.093980022
-2.0041308 6.5059137 0.095824733
-2.3532128 6.5057535 0.097382583
-2.5322657 6.5056729 0.098267056
-3.0910351 6.5054178 0.10138183
-3.2856543 6.5053277 0.1025869
-3.4850585 6.5052361 0.1038813
-3.6896484 6.5051446 0.10527008
-4.1163964 6.5049505 0.10835792
-4.8083982 6.5046353 0.11386001
-5.055449 6.5045218 0.11596023
-5.7797556 6.4186687 0.12158142
-6.449316 6.5021548 0.12891097
-7.4564257 6.5016985 0.13925438
-8.2255268 6.5013518 0.14758316
-8.6460543 6.5011601 0.15226944
-9.094512 6.5009589 0.15735893
-11.913047 6.5077848 0.19108017
-12.627158 6.5074625 0.19995849
-13.411465 6.5071096 0.20982926
-14.277793 6.5067191 0.22086318
-15.240664 6.5062847 0.23325965
-20.5096 6.5015836 0.3028563
-26.798281 6.4049945 0.38783216
-20.819912 -21.555893 0.42182723
-17.130117 -21.553936 0.38754532
-14.71664 -21.549957 0.3673085
-13.240468 -21.551769 0.35604247
-12.53456 -21.55175 0.35094419
-11.84833 -21.551731 0.346192
-11.178486 -21.548885 0.34171158
-9.8888178 -21.54574 0.33369857
-8.0594921 -21.548361 0.32384247
-7.471777 -21.54726 0.32102141
-6.8938084 -21.546177 0.31843293
-6.3247361 -21.545109 0.31606811
-5.7638278 -21.54406 0.31392699
-5.2109179 -21.546766 0.31204116
-1.6021875 -7.4021292 0.10660622
-1.3095019 -7.8683996 0.11227981
-3.0530565 -21.542324 0.30626434
-2.5244532 -21.541235 0.30529252
-0.43438476 -21.540222 0.30326584
23.620117 6.5207415 -0.20694351
21.57375 6.5198112 -0.19033684
19.828817 6.5184598 -0.17627494
13.073066 6.5154767 -0.12335808
12.31876 6.5151324 -0.11768959
11.630322 6.5148187 -0.11258255
10.998837 6.5145307 -0.10795929
9.7509565 6.4301739 -0.098642729
8.4784565 6.5173221 -0.090312496
7.6807909 6.5169597 -0.085069962
7.3153124 6.5167923 -0.082738109
6.9691405 6.516634 -0.080578916
6.6403613 6.5164838 -0.07857246
6.3274121 6.5163422 -0.076708063
6.028789 6.5162039 -0.074971005
5.7432323 6.5160747 -0.073354036
4.8865528 6.4270587 -0.068186566
4.6461425 6.4269485 -0.066974945
3.8096483 6.5103555 -0.063703306
3.2016699 6.510076 -0.061268385
2.8202538 6.509903 -0.059914932
2.4545116 6.5097332 -0.058754727
2.2766991 6.5096526 -0.058240127
2.1018653 6.509572 -0.057769928
1.9297265 6.5094914 -0.057338562
1.7600487 6.5094147 -0.056947019
1.5925781 6.5093374 -0.056594159
0.62151366 6.5088906 -0.055219345
0.14857422 6.5086713 -0.054981306
-0.16551757 6.5085282 -0.054983977
-0.94499999 6.4243765 -0.054838561
-1.117998 6.5061932 -0.055751722
-1.6097168 6.5059648 -0.056600265
-1.7772949 6.5058866 -0.056957245
-1.94708 6.5058074 -0.057351071
-2.1193457 6.5057278 -0.057784423
-3.8292577 6.5049334 -0.06374786
-4.2644434 6.5047321 -0.065686874
-4.7280564 6.5045156 -0.067910686
-5.2253613 6.5042825 -0.070461348
-5.4886131 6.5041604 -0.071873166
-6.3465037 6.5020242 -0.076733015
-6.9895802 6.5017252 -0.080618665
-7.3366013 6.5015631 -0.082787782
-8.5029783 6.5010171 -0.090393752
-9.4106541 6.5005927 -0.096594311
-9.9134474 6.5003581 -0.10011513
-10.911025 6.4241996 -0.10693298
-11.688788 6.5076251 -0.11298317
-13.141552 6.5069451 -0.12384399
-13.979004 6.5065532 -0.13021751
-14.90792 6.5061188 -0.13736884
-17.106953 6.502758 -0.15456054
-18.432276 6.5021367 -0.16506675
-19.951885 6.5014262 -0.17722045
-23.811104 6.5068011 -0.20846343
-26.284697 6.50564 -0.22868164
-29.214706 6.4871159 -0.25273749
-10.791035 -7.7997775 -0.11244675
-20.165478 -21.562408 -0.24932609
-17.415068 -21.555159 -0.23402748
-14.214853 -21.552423 -0.21803871
-13.480264 -21.552395 -0.21468444
-12.7675 -21.552362 -0.21155494
-12.074863 -21.552336 -0.20863396
-11.399306 -21.549797 -0.20588692
-10.741426 -21.548187 -0.20333748
-6.5130367 -21.545261 -0.19008629
-5.9494724 -21.544207 -0.18875152
-5.394248 -21.546688 -0.18758681
-4.8448439 -21.545559 -0.1865007
-2.6998632 -21.541149 -0.18334457
-2.1736524 -21.5422 -0.18285461
-1.1278515 -21.540928 -0.18217239
-0.60729492 -21.540295 -0.18198791
-0.087470703 -21.539663 -0.18191032
0.4321875 -21.53903 -0.18193832
0.95237303 -21.539265 -0.18208213
1.9928417 -21.497227 -0.18232933
2.5150292 -21.478712 -0.18263198
3.0379393 -21.450897 -0.18296807
3.5664549 -21.443031 -0.18358214
4.1023927 -21.453964 -0.18446609
5.2471581 -21.70598 -0.1885926
6.5737205 -22.401436 -0.19716552
27.261074 6.512785 -0.23670432
22.441494 6.5202045 -0.19736359
20.306055 6.4348855 -0.17989655
18.96711 6.5180669 -0.16937843
17.574022 6.5174346 -0.1582972
16.351366 6.5168781 -0.14865401
14.301826 6.5160356 -0.1327298
13.432363 6.5156403 -0.12608123
11.273046 6.5146561 -0.10995948
10.669853 6.5143814 -0.10557808
9.1196871 6.5176163 -0.094665907
8.6694336 6.5174088 -0.091596521
7.4752731 6.5168657 -0.083752818
6.4646778 6.5164032 -0.077519991
5.5898242 6.5160041 -0.072504275
5.0651755 6.5157647 -0.069699399
4.7519627 6.4269962 -0.067503966
4.5162206 6.4268875 -0.06633842
4.2915721 6.4316201 -0.065299608
4.1207809 6.5104971 -0.065070949
3.693408 6.5103021 -0.063212886
3.4885156 6.5102081 -0.062376555
3.2888575 6.5101166 -0.061596982
3.0940137 6.5100274 -0.060872421
2.3553612 6.5096879 -0.058463972
2.1792188 6.5096073 -0.057974394
2.0059373 6.5095267 -0.057525482
1.8351953 6.5094485 -0.057116698
1.6667676 6.5093718 -0.056746367
1.5004199 6.509295 -0.0564151
1.3358984 6.5092192 -0.056118086
1.0115429 6.509069 -0.055630263
0.85127926 6.508996 -0.055437773
0.69203126 6.5089226 -0.055279084
0.061337888 6.5086308 -0.054969404
-0.095693357 6.5085578 -0.054971922
-0.40485349 6.4227314 -0.054349747
-0.56068361 6.4226589 -0.05444641
-0.7171582 6.4225883 -0.054576874
-1.0463085 6.5062261 -0.05565254
-1.2079687 6.5061517 -0.055884551
-1.7025293 6.5059209 -0.056794204
-2.3928027 6.5056009 -0.058539275
-2.5725684 6.505518 -0.059080657
-3.133955 6.5052567 -0.060981672
-4.1654201 6.504776 -0.065231703
-4.3901463 6.5046721 -0.066274412
-4.8625293 6.5044522 -0.068583757
-6.5188084 6.501945 -0.077756576
-7.1800389 6.501636 -0.081803508
-8.3166695 6.5011039 -0.089148484
-8.7431936 6.500905 -0.092012934
-10.208994 6.5002189 -0.10221084
-10.77374 6.4999552 -0.10626572
-12.794961 6.5071073 -0.12122986
-13.596298 6.5067325 -0.12729537
-16.35708 6.4193192 -0.14839958
-17.821543 6.5024238 -0.16021171
-20.897129 6.5009818 -0.18482262
-25.128231 6.5061831 -0.21920989
-27.805067 6.4877763 -0.24113044
-20.59787 -21.556614 -0.2518115
-14.547597 -21.550385 -0.21957427
-13.081787 -21.552378 -0.21292281
-12.38041 -21.552349 -0.20990998
-11.698164 -21.55232 -0.20708977
-11.031875 -21.548899 -0.20444648
-9.7488966 -21.545757 -0.1997216
-8.5211134 -21.542753 -0.19563827
-7.9275875 -21.547907 -0.19390334
-7.3420701 -21.54681 -0.19224265
-6.1990037 -21.544672 -0.18932869
-4.5422754 -21.544935 -0.18595229
-2.9349315 -21.541634 -0.18360229
-0.31850585 -21.539944 -0.18193145
0.20115234 -21.53931 -0.181912
0.72103512 -21.5399 -0.18201019
1.2416894 -21.538471 -0.18219894
1.7610742 -21.503635 -0.1822142
3.8623827 -21.443005 -0.18400779
4.4106836 -21.500238 -0.18535766
4.9793458 -21.610365 -0.18729049
6.2497263 -22.174885 -0.19457038
28.618202 6.5134015 -0.24786918
25.396122 6.4281473 -0.22124168
23.37583 6.5206304 -0.20495293
21.366846 6.5197163 -0.18866463
14.718613 6.5162249 -0.13593963
13.80792 6.51581 -0.12894332
12.98584 6.5154362 -0.1226992
11.557617 6.5147843 -0.11204582
8.8659277 6.5174994 -0.092929229
8.4316502 6.5173016 -0.089999616
7.6392479 6.5169401 -0.084801786
7.2760153 6.5167742 -0.08249069
6.9318357 6.5166178 -0.080349118
6.293623 6.516326 -0.076508485
5.9965038 6.5161896 -0.074786678
5.1782618 6.5158172 -0.070288926
4.8594627 6.4270463 -0.068047941
4.2192674 6.5105424 -0.065520324
3.786289 6.5103445 -0.063604049
3.5789354 6.5102496 -0.062740475
3.3770018 6.5101557 -0.061936874
2.6153514 6.5098076 -0.059247971
2.4346483 6.5097246 -0.058695983
2.257158 6.509644 -0.058186185
2.0826366 6.5095634 -0.057719342
1.7413769 6.5094061 -0.05690689
1.4088281 6.5092521 -0.056244809
1.2452441 6.5091777 -0.055967558
1.0831543 6.5091033 -0.055726241
0.7627148 6.5089569 -0.055345535
0.60393554 6.5088811 -0.055205915
0.2883496 6.5087371 -0.055022199
-0.025888672 6.5085917 -0.054967649
-0.18294922 6.5085196 -0.054988172
-0.49133787 6.4226923 -0.054398954
-0.64750975 6.4226203 -0.054515302
-0.80443358 6.4225483 -0.054664228
-0.96256834 6.4243679 -0.054860611
-1.1359277 6.5061831 -0.055776976
-1.4623926 6.506032 -0.056315381
-1.6281934 6.5059562 -0.056638181
-1.7959961 6.505878 -0.056998212
-1.9660449 6.5057974 -0.057396773
-2.6738963 6.5054717 -0.05940048
-2.8591797 6.505384 -0.060011443
-3.0484569 6.5052958 -0.060672071
-3.6437304 6.5050201 -0.062967755
-3.852705 6.5049224 -0.063848034
-4.2893553 6.5047183 -0.065802455
-4.7546778 6.5045023 -0.068043366
-5.2540526 6.5042706 -0.070612945
-5.7177439 6.4185295 -0.072600245
-6.0014939 6.4183965 -0.074210353
-6.3805466 6.5020084 -0.076933898
-6.6958299 6.501862 -0.078820877
-7.0271482 6.5017071 -0.080850139
-8.1354589 6.5011892 -0.087948985
-8.5502539 6.5009942 -0.090711594
-8.992197 6.5007892 -0.093707882
-9.4646578 6.5005679 -0.096970364
-10.517256 6.5000749 -0.10441665
-10.978037 6.4241691 -0.10742225
-12.462646 6.5072637 -0.11873344
-13.230361 6.5069036 -0.12451561
-14.077246 6.5065079 -0.13097176
-15.017236 6.5060673 -0.13821578
-16.068066 6.5055752 -0.14639869
-17.245615 6.5026946 -0.15565383
-20.134403 6.5013394 -0.17868561
-21.64496 6.4168425 -0.19066077
-26.573709 6.5017595 -0.23104355
-19.109081 -21.563162 -0.24332245
-16.479101 -21.5536 -0.22913307
-15.669003 -21.552254 -0.2250331
-14.132256 -21.552422 -0.21765839
-11.99918 -21.552334 -0.2083261
-11.325585 -21.549618 -0.20559555
-10.669453 -21.54801 -0.20306587
-10.028975 -21.546442 -0.20071395
-9.4027538 -21.544912 -0.19852675
-8.7897072 -21.543409 -0.1964968
-8.1911621 -21.548401 -0.19468391
-7.0210447 -21.546211 -0.19138268
-6.4501171 -21.545143 -0.18993217
-5.8874607 -21.544092 -0.18860871
-5.3329978 -21.546562 -0.18745895
-2.1154101 -21.542126 -0.1828054
-1.0700488 -21.540857 -0.18214287
-0.54961914 -21.540224 -0.18197441
-0.029814452 -21.539593 -0.18190902
1.0101074 -21.539106 -0.1821035
2.5729492 -21.475632 -0.1826628
3.6254492 -21.443024 -0.18366416
4.1637111 -21.463169 -0.18464401
4.7220116 -21.54697 -0.18628845
5.9509959 -22.016565 -0.19260903
7.6481247 -23.693335 -0.21026389
7.2474217 -7.8346252 -0.09019348
26.941406 6.5126395 -0.23408149
18.803017 6.5179935 -0.1680674
17.430683 6.5173688 -0.15716277
14.960849 6.4324541 -0.13753319
14.200869 6.5159893 -0.13195266
13.34124 6.5155973 -0.12539016
12.562568 6.5152435 -0.11951362
11.203701 6.5146246 -0.10945198
9.4982319 6.4849834 -0.097129442
9.0682611 6.517592 -0.094312817
7.8074021 6.5170169 -0.085887372
7.0826073 6.516685 -0.081281967
6.7482419 6.5165339 -0.079225689
6.4301562 6.516387 -0.077315368
5.8371191 6.5161176 -0.073880769
5.5596094 6.5159903 -0.072337188
5.2933106 6.5158696 -0.070897289
5.0372362 6.5157514 -0.069553606
4.72541 6.4269853 -0.067370757
4.4905763 6.4268765 -0.066214219
3.8803418 6.5103874 -0.064007491
3.2670214 6.5101066 -0.061513975
2.8827343 6.5099297 -0.060126875
2.5145507 6.5097613 -0.058935471
2.159873 6.5095978 -0.057922285
1.9868652 6.5095181 -0.057478484
1.816416 6.5094414 -0.057074051
1.6482129 6.5093632 -0.056708142
1.4820801 6.5092864 -0.056379545
1.1550391 6.5091362 -0.055829544
0.99371094 6.5090618 -0.055606611
0.83356446 6.5089874 -0.055418242
0.20101562 6.5086966 -0.054993667
0.043916013 6.5086236 -0.054967955
-0.11311523 6.5085516 -0.054974135
-0.27027342 6.5084796 -0.055012129
-0.42210937 6.4227238 -0.054357987
-0.57800782 6.4226508 -0.054459531
-0.73457032 6.4225798 -0.05459404
-0.89223629 6.4244013 -0.054776609
-1.0641699 6.5062189 -0.055676877
-1.2259862 6.5061417 -0.055912398
-1.554248 6.5059905 -0.056490477
-1.721123 6.5059123 -0.056834105
-1.8901659 6.5058341 -0.057214584
-2.0615625 6.5057549 -0.057634961
-2.592705 6.5055084 -0.059143446
-3.3515723 6.5051565 -0.061800383
-3.5526366 6.5050616 -0.062595747
-3.9713671 6.5048676 -0.064364091
-4.6485448 6.5045514 -0.067518309
-5.3996191 6.5042019 -0.071390532
-6.5537791 6.5019279 -0.077964783
-6.8777928 6.5017776 -0.079930343
-7.578496 6.5014496 -0.084325634
-8.7921972 6.5008817 -0.092344508
-9.7416792 6.5004373 -0.098907314
-10.269502 6.5001907 -0.10264267
-10.839102 6.4999247 -0.10673568
-12.880058 6.5070682 -0.12186905
-14.586797 6.506269 -0.13488846
-16.486513 6.4192595 -0.14941825
-17.970556 6.5023541 -0.1613951
-28.14451 6.4876175 -0.24392197
-18.443369 -7.8127723 -0.16915879
-10.844746 -7.7064734 -0.11235657
-20.487637 -21.556448 -0.25115728
-19.525595 -21.562862 -0.24567345
-16.848925 -21.554216 -0.23104621
-16.025537 -21.552847 -0.22682174
-14.46372 -21.550245 -0.21920417
-13.002978 -21.552376 -0.21257393
-11.623593 -21.552319 -0.20679396
-9.6794434 -21.545588 -0.19947632
-9.0607128 -21.544075 -0.1973832
-8.454443 -21.542589 -0.19545418
-7.8621383 -21.547783 -0.19371216
-6.7028809 -21.545614 -0.19056159
-6.1366501 -21.544556 -0.18918419
-5.5781446 -21.54351 -0.18793464
-1.3018066 -21.541138 -0.18225372
-0.7808398 -21.540504 -0.18203422
0.25876951 -21.53924 -0.1819168
1.8188769 -21.502039 -0.182239
2.8632421 -21.46019 -0.18284409
3.9216504 -21.443001 -0.18409316
4.4726071 -21.509533 -0.18554108
5.658164 -21.861376 -0.1907119
6.3264551 -22.219204 -0.19510619
28.267694 6.5132427 -0.24498458
21.163496 6.5196247 -0.18702377
18.018036 6.5176349 -0.16181663
15.615878 6.5165424 -0.14290169
14.612754 6.5161772 -0.13512206
12.160723 6.515059 -0.1165123
11.485674 6.5147529 -0.11151634
10.865693 6.514472 -0.10699211
10.293808 6.5142107 -0.10287941
9.6382418 6.4301214 -0.09785293
8.8163576 6.5174761 -0.092592239
8.3851461 6.5172796 -0.089689024
7.9799314 6.5170965 -0.087012254
7.597949 6.516922 -0.08453735
7.2369432 6.5167561 -0.082245938
6.5696387 6.5164509 -0.07814651
6.2599998 6.5163102 -0.076311946
5.6815329 6.5160465 -0.073010556
5.4103513 6.5159221 -0.071524732
5.1498632 6.5158038 -0.070139542
4.5939646 6.4269242 -0.066716306
4.3668456 6.4316559 -0.065653987
4.1945801 6.5105314 -0.065406337
3.5562792 6.5102386 -0.062648162
2.5951269 6.509798 -0.059184875
2.2376659 6.509634 -0.058131788
2.063457 6.5095539 -0.057670821
1.555703 6.5093207 -0.056520462
1.2271875 6.5091691 -0.055940323
1.0652636 6.5090947 -0.055702057
0.7450586 6.5089469 -0.055328138
0.58637697 6.5088739 -0.055190887
0.42838866 6.5088005 -0.055087201
0.27089843 6.5087285 -0.055015258
0.11374023 6.5086565 -0.054975357
-0.043300781 6.5085831 -0.054967344
-0.35393554 6.440125 -0.054471359
-0.66486329 6.4226127 -0.054530255
-0.98015624 6.4243608 -0.05488243
-1.9850585 6.5057917 -0.05744293
-2.3335254 6.5056291 -0.058368836
-2.5122266 6.5055447 -0.058894575
-2.6942577 6.5054617 -0.059464872
-2.8799706 6.505374 -0.060082473
-3.2637889 6.5051956 -0.061464537
-3.6666307 6.5050092 -0.063062131
-3.87625 6.5049114 -0.063949279
-4.0919919 6.5048099 -0.064900815
-4.3143554 6.5047088 -0.065917969
-4.7814355 6.5044904 -0.068177715
-6.0337596 6.4183817 -0.074395597
-6.4147558 6.5019937 -0.077136688
-6.7317576 6.5018449 -0.079038695
-7.0649705 6.5016899 -0.08108528
-7.4161425 6.5015249 -0.083292082
-8.180234 6.5011687 -0.088245772
-8.5978708 6.5009747 -0.091031112
-9.5191307 6.5005426 -0.097347565
-10.5804 6.5000458 -0.10487083
-11.031757 6.4160428 -0.10777756
-12.544268 6.5072246 -0.11934555
-13.320147 6.5068622 -0.12519805
-14.17662 6.5064602 -0.13173431
-15.127978 6.5060139 -0.13907188
-16.085596 6.4626641 -0.14640212
-17.386221 6.5026274 -0.15676506
-18.751093 6.5019879 -0.16760863
-19.006357 -21.563234 -0.24275047
-18.101543 -21.563879 -0.23777251
-17.225019 -21.554844 -0.23302047
-16.387852 -21.55345 -0.22866523
-15.580889 -21.552107 -0.22459762
-14.801786 -21.55081 -0.22078742
-14.049941 -21.552416 -0.21727851
-11.251992 -21.549438 -0.20530456
-10.597675 -21.547834 -0.20279464
-9.3341303 -21.544743 -0.1982933
-7.5362988 -21.547174 -0.19277984
-5.271914 -21.546438 -0.18733436
-1.3290331 -7.8560967 -0.067289427
-3.111836 -21.541996 -0.18381706
-1.5338964 -21.54142 -0.18238312
-1.0123144 -21.540785 -0.18212074
0.54748046 -21.538889 -0.18196136
2.1085546 -21.494028 -0.18239684
2.63083 -21.472551 -0.1826973
4.2251172 -21.472385 -0.18481429
6.0248828 -22.055727 -0.19309425
6.7409763 -22.524694 -0.19856529
24.283504 -7.9131975 -0.21569763
19.985039 6.4509683 -0.17735565
16.10001 6.5167632 -0.14668594
14.851181 6.4324055 -0.13667701
14.101192 6.515944 -0.13118736
12.48081 6.5152068 -0.11890037
11.134971 6.5145926 -0.10894912
10.542587 6.5143228 -0.10466041
8.1570606 6.5171757 -0.088175349
7.7650485 6.5169973 -0.08561302
7.3950291 6.516829 -0.08324264
7.0446873 6.5166678 -0.08104568
6.3958201 6.5163713 -0.077111587
6.0941696 6.5162344 -0.075346678
5.8057714 6.5161028 -0.073704377
5.2644434 6.5158563 -0.070744626
4.6989551 6.4269733 -0.067239456
4.0721388 6.5104752 -0.064851455
3.4437988 6.5101871 -0.062198102
2.8619237 6.5099211 -0.060055617
2.4945703 6.5097513 -0.058875427
2.1405663 6.5095892 -0.057871018
1.9678417 6.5095096 -0.057430953
1.1370898 6.5091276 -0.055802688
0.81586909 6.5089812 -0.055400085
0.65682614 6.5089068 -0.055248719
0.026513672 6.508616 -0.054967191
-0.13053711 6.508543 -0.054977112
-0.43936524 6.4227166 -0.054368362
-0.59532225 6.4226446 -0.054473113
-0.90975583 6.4243927 -0.05479683
-1.2440234 6.5061345 -0.055941239
-1.5726563 6.5059819 -0.056526944
-1.7397753 6.5059052 -0.056874234
-1.9090332 6.5058255 -0.057260208
-2.0807323 6.5057464 -0.05768463
-2.2550879 6.5056658 -0.058148496
-2.4323926 6.5055814 -0.058656156
-2.7969334 6.5054131 -0.059802473
-2.9848437 6.5053263 -0.060446091
-3.1769238 6.5052361 -0.061139371
-3.3735936 6.505147 -0.061886061
-3.5752733 6.5050507 -0.062687606
-3.7823534 6.5049539 -0.063547134
-3.9952831 6.5048566 -0.064470135
-4.2146583 6.5047541 -0.06545753
-4.6748338 6.504539 -0.067648388
-5.1681247 6.5043097 -0.070159838
-5.9054294 6.4184418 -0.073657453
-6.5888963 6.5019107 -0.078175277
-8.8414841 6.5008588 -0.092679292
-10.330518 6.500164 -0.10307617
-10.841592 6.4620719 -0.10659004
-11.379639 6.4158816 -0.11033005
-18.121651 6.5022831 -0.16259697
-19.594385 6.5015922 -0.17435394
-25.693047 6.5059185 -0.22383492
-10.802109 -7.7197242 -0.11215385
-20.38377 -21.562252 -0.25059021
-19.421045 -21.562939 -0.24507606
-17.614756 -21.564226 -0.23516014
-16.75621 -21.554062 -0.23056456
-15.936123 -21.552694 -0.22637199
-8.9929295 -21.543905 -0.19716965
-7.213623 -21.546572 -0.19189361
-6.0743456 -21.544441 -0.18904395
-1.4084179 -7.8146605 -0.067061082
-3.3481445 -21.54248 -0.18411759
-1.7663085 -21.541704 -0.18253593
-1.2439941 -21.541069 -0.18222542
-0.72316402 -21.540434 -0.18201637
-0.20330077 -21.539804 -0.1819178
0.31639647 -21.539169 -0.18192367
0.83641601 -21.539585 -0.18204406
1.3572754 -21.538155 -0.18225776
1.8766016 -21.500441 -0.18226936
2.3987596 -21.484898 -0.18257499
2.9213085 -21.457102 -0.18288246
3.9809473 -21.442997 -0.18418816
5.1124315 -21.657881 -0.18793732
6.4080176 -22.279314 -0.19578491
22.90077 6.5204144 -0.20109145
19.30455 6.5182209 -0.17207611
17.86834 6.5175676 -0.16062874
16.61084 6.5169964 -0.15069534
15.299726 6.4326992 -0.14016303
12.08293 6.5150261 -0.11593155
11.414316 6.5147209 -0.11099204
9.5826073 6.4300957 -0.097457729
9.2242088 6.517663 -0.095385589
8.7672262 6.5174541 -0.092258759
8.3390131 6.5172601 -0.089381255
7.556982 6.5169024 -0.084274516
6.8579197 6.5165839 -0.079893798
6.2265625 6.5162954 -0.076117478
5.6509571 6.5160332 -0.072841339
5.1216111 6.5157914 -0.069991991
4.5680661 6.4269123 -0.066590883
4.3417478 6.4316425 -0.065536119
4.1699805 6.5105205 -0.065294109
3.9517674 6.5104194 -0.064318314
3.5336914 6.5102286 -0.062556989
3.1370409 6.510047 -0.061029203
2.7584081 6.5098734 -0.059709702
2.5749903 6.5097895 -0.059120938
2.3950195 6.5097065 -0.058578491
2.2182128 6.5096245 -0.058079071
1.7041016 6.5093889 -0.056825332
1.5372949 6.5093122 -0.056485213
1.3724121 6.5092349 -0.056181181
1.0473926 6.5090861 -0.055677641
0.72744137 6.5089397 -0.055311661
0.096318357 6.5086479 -0.054972839
-0.21779296 6.5085025 -0.054996338
-0.37020507 6.4227481 -0.054331131
-0.68220699 6.4226041 -0.05454544
-1.0104589 6.5062418 -0.055605695
-1.1718163 6.5061674 -0.055829696
-1.3345996 6.5060916 -0.056088865
-1.6652246 6.505939 -0.056715619
-2.0040917 6.5057817 -0.05749115
-2.353164 6.5056195 -0.058424681
-2.532207 6.5055366 -0.058956146
-2.7146583 6.5054522 -0.059532013
-2.9008203 6.5053654 -0.06015373
-3.0909765 6.5052776 -0.060825195
-4.5698829 6.5045877 -0.067135088
-4.8082714 6.504478 -0.068310924
-5.3117576 6.5042424 -0.070920259
-5.5785446 6.5041189 -0.072365724
-6.066123 6.4183674 -0.074584961
-6.7678514 6.5018277 -0.079258345
-7.1029296 6.5016718 -0.081321716
-7.8295703 6.5013323 -0.08594574
-8.645771 6.5009513 -0.09135437
-9.0942087 6.5007415 -0.094407879
-10.088916 6.5002766 -0.10135612
-10.644033 6.5000162 -0.10532783
-11.912559 6.5075212 -0.1146379
-13.410869 6.5068183 -0.12588692
-14.2771 6.506413 -0.1325051
-15.239912 6.5059638 -0.13994263
-18.913944 6.5019107 -0.16890839
-20.508282 6.501164 -0.18169205
-26.796005 6.4044595 -0.2326773
-20.820917 -21.556948 -0.25311828
-19.843769 -21.562635 -0.24747688
-18.904209 -21.563305 -0.24218391
-17.130722 -21.554684 -0.23252296
-16.296991 -21.553297 -0.22820167
-15.493232 -21.55196 -0.22416298
-14.717099 -21.550669 -0.22038604
-13.240829 -21.552385 -0.21362297
-11.848642 -21.552326 -0.20769034
-10.526114 -21.547661 -0.2025283
-9.8889837 -21.546101 -0.20021324
-6.3246775 -21.544907 -0.18963195
-5.7637596 -21.543859 -0.18833435
-4.6634178 -21.545185 -0.18617004
-1.3091699 -7.8664584 -0.067347869
-2.5243945 -21.540789 -0.18316597
-1.4759766 -21.541349 -0.18234985
-0.95456052 -21.540714 -0.18209663
-0.43438476 -21.540083 -0.18194801
28.974472 6.5129852 -0.91989225
25.683212 6.4277616 -0.82008231
23.618387 6.5202641 -0.75895351
21.572294 6.5193706 -0.69805586
18.323368 6.5173955 -0.6024068
17.010508 6.5168228 -0.56424916
15.853456 6.5163174 -0.53092998
13.903613 6.5155544 -0.47561264
13.07251 6.5151896 -0.45242828
12.318233 6.5148611 -0.43163833
10.416435 6.5140262 -0.38054812
9.382822 6.5175128 -0.35387224
8.9155464 6.5173078 -0.34208086
8.067461 6.516933 -0.32123938
7.6805663 6.5167632 -0.31200507
7.3151073 6.516602 -0.30345869
6.3272462 6.5161648 -0.28133735
6.0286231 6.5160317 -0.27497116
5.7430859 6.5159049 -0.26903906
5.4694138 6.5157843 -0.26350731
5.2066407 6.515667 -0.25834656
4.6460252 6.426795 -0.24564239
4.4172068 6.4315262 -0.24168189
4.0235252 6.5103045 -0.23706153
3.3990624 6.5100236 -0.22748138
3.2016015 6.5099359 -0.22471245
2.8201952 6.5097637 -0.21974975
2.6355567 6.5096793 -0.21753776
2.4544628 6.5095978 -0.21549217
2.1018164 6.5094376 -0.21188003
1.9296875 6.5093594 -0.21030182
1.7600098 6.5092826 -0.20886649
1.4270312 6.5091314 -0.20640999
0.94014645 6.5089092 -0.20370682
0.46336913 6.5086908 -0.20211685
0.14856444 6.5085468 -0.20165557
-0.16551757 6.5084 -0.20166336
-0.32275391 6.508328 -0.20184363
-0.47404295 6.422575 -0.1994815
-1.1179785 6.5060625 -0.20447966
-1.4440918 6.5059109 -0.2064254
-1.9470409 6.5056753 -0.21034554
-2.1192968 6.5055947 -0.21193397
-2.2942772 6.5055118 -0.21367286
-2.8383887 6.5052567 -0.21984649
-3.2202635 6.5050759 -0.22483367
-3.8291698 6.5047855 -0.23380654
-4.2643356 6.5045795 -0.24091858
-4.4922853 6.5044708 -0.24485824
-4.7279391 6.5043583 -0.24907555
-4.972002 6.504241 -0.2535913
-5.4884667 6.5039945 -0.26360825
-5.6868844 6.4183755 -0.26562607
-6.6599121 6.5016971 -0.28829741
-7.3363867 6.5013714 -0.30363709
-9.4103222 6.5003691 -0.35426891
-9.9130955 6.5001264 -0.36718681
-15.94458 6.5052972 -0.53341329
-18.431221 6.5017571 -0.60539323
-21.457226 6.4236774 -0.69379652
-10.792753 -7.8010254 -0.41249546
-20.16493 -21.561819 -0.91444653
-19.21167 -21.56251 -0.89455473
-14.972774 -21.551809 -0.81286305
-13.480644 -21.553013 -0.78744423
-12.767861 -21.552973 -0.77596253
-8.8572559 -21.54393 -0.72153074
-7.0848632 -21.546125 -0.70255375
-5.3941503 -21.54623 -0.68799955
-4.8447361 -21.545105 -0.68403041
-4.3012695 -21.543989 -0.68050218
-1.3673828 -7.8278661 -0.24614219
-2.6998241 -21.540701 -0.67245251
-2.1736329 -21.542061 -0.67066044
-0.60729492 -21.540155 -0.66747916
-0.087470703 -21.539524 -0.66719842
0.95236325 -21.538906 -0.66782707
1.9928417 -21.497244 -0.66873807
2.5150194 -21.47864 -0.66985333
3.0379198 -21.450825 -0.67107761
4.1025195 -21.454626 -0.67660415
5.2475195 -21.707512 -0.69176519
5.8780565 -21.979965 -0.70476317
6.5748043 -22.405119 -0.7232722
7.2334957 -7.8616533 -0.33100912
27.258789 6.512238 -0.8681078
24.647461 6.5207133 -0.78973067
17.573027 6.517067 -0.58055681
16.350508 6.5165339 -0.54520339
15.071239 6.4321842 -0.50757748
13.431767 6.5153484 -0.46241754
12.644824 6.5150042 -0.4406094
9.1193848 6.5173969 -0.34719962
8.6691504 6.517199 -0.33594793
7.4750586 6.5166717 -0.30717629
6.7842965 6.5163665 -0.29138145
6.4645019 6.5162249 -0.28431672
6.1596971 6.5160904 -0.2777442
5.8684764 6.5159612 -0.27162489
5.5896778 6.5158353 -0.26591966
5.3221874 6.5157185 -0.26059791
4.5161133 6.4267349 -0.24330834
4.2914844 6.4314704 -0.23949142
4.1206837 6.5103474 -0.2386592
3.69333 6.5101557 -0.23184471
3.4884374 6.5100651 -0.22877662
2.5345409 6.5096331 -0.21638176
2.3553123 6.5095525 -0.21442726
2.1791797 6.5094733 -0.21263076
1.6667383 6.5092402 -0.20812903
1.1729883 6.5090165 -0.20486504
1.0115136 6.5089421 -0.20403603
0.69201171 6.5087943 -0.20274734
0.533584 6.5087223 -0.20228462
0.21842773 6.5085773 -0.20171806
-0.25282225 6.5083599 -0.20174934
-0.40484375 6.4226079 -0.19933601
-0.71714842 6.4224625 -0.20017204
-1.0462891 6.5060968 -0.20411614
-1.2079394 6.506022 -0.20496811
-1.3710546 6.5059452 -0.20594817
-1.53583 6.505867 -0.2070597
-1.7024902 6.5057917 -0.20830306
-2.2161424 6.5055499 -0.21288146
-2.7557323 6.5052934 -0.21883652
-3.9474413 6.5047293 -0.23568366
-4.1653318 6.5046268 -0.23925216
-4.6221972 6.5044084 -0.24716613
-4.862412 6.5042934 -0.25154617
-5.1114645 6.5041752 -0.25623664
-5.3701563 6.5040493 -0.26126045
-5.8421969 6.4183025 -0.26883614
-6.1332712 6.4198956 -0.2750212
-6.8408494 6.5016108 -0.29233184
-7.1798434 6.5014482 -0.30002683
-7.9154782 6.5010929 -0.31727967
-8.3164062 6.5008988 -0.32696822
-9.1979294 6.500473 -0.34887844
-9.6851559 6.5002375 -0.36130407
-10.208623 6.4999847 -0.37487268
-10.773339 6.4997101 -0.38973707
-11.238359 6.4156952 -0.40084925
-14.482021 6.5060086 -0.49177232
-15.46872 6.5055289 -0.51979679
-16.356211 6.4189787 -0.54427594
-19.248398 6.501359 -0.62931806
-22.844639 6.5067911 -0.7357657
-18.472334 -7.7668219 -0.6207062
-19.630262 -21.562204 -0.90322483
-17.807373 -21.563528 -0.86626881
-16.942743 -21.555119 -0.84924424
-14.548085 -21.551094 -0.80542016
-13.082158 -21.55299 -0.78096688
-12.380752 -21.552952 -0.76991928
-11.698476 -21.552914 -0.75960571
-10.383018 -21.547676 -0.74089378
-9.7490625 -21.54612 -0.73253882
-7.9275098 -21.547699 -0.71118444
-7.3420019 -21.546606 -0.70509517
-6.198945 -21.544472 -0.69441986
-5.6396775 -21.543425 -0.68979859
-5.088203 -21.545603 -0.68574154
-4.5421677 -21.544481 -0.68202078
-2.9348633 -21.541183 -0.67340738
-1.8823436 -21.541708 -0.66980481
-1.3596485 -21.541071 -0.66856962
-0.83856446 -21.54044 -0.66772795
-0.31850585 -21.539806 -0.66727734
0.20114258 -21.539175 -0.66721177
1.2416601 -21.538113 -0.66825712
1.761084 -21.503654 -0.66831344
2.8052247 -21.463205 -0.67048478
3.8624022 -21.443119 -0.67489636
4.41082 -21.500902 -0.67986488
4.9797068 -21.611885 -0.68697441
28.615673 6.5128303 -0.90904683
25.394081 6.4276361 -0.81140065
23.374121 6.5201569 -0.75166291
18.169052 6.5173283 -0.5979048
14.71791 6.5159111 -0.49857235
12.238848 6.5148258 -0.42946666
11.557158 6.5145283 -0.41094175
10.931562 6.5142522 -0.39417166
10.354688 6.5139995 -0.37892765
9.3294134 6.5174894 -0.35251415
8.4313869 6.5170941 -0.33008766
7.6390233 6.5167446 -0.31102446
6.6047363 6.5162868 -0.28739309
6.293447 6.516149 -0.28060865
5.9963474 6.5160174 -0.27429137
5.7121778 6.5158916 -0.26840705
5.1781344 6.5156546 -0.25779709
4.3919239 6.4315152 -0.24123359
4.2191696 6.5103922 -0.24030593
3.9994922 6.5102935 -0.23667113
3.1799805 6.5099249 -0.22441833
2.9876561 6.5098381 -0.22186531
2.799541 6.5097551 -0.21949631
2.4345899 6.5095878 -0.2152755
2.2571192 6.5095096 -0.21341041
1.7413379 6.509274 -0.20871505
1.5741016 6.5091987 -0.20743553
1.4087988 6.5091228 -0.20628922
1.2452246 6.5090485 -0.20527495
1.083125 6.508975 -0.20438918
0.92236328 6.5089006 -0.20362854
0.76270509 6.5088263 -0.20299087
0.44587889 6.5086832 -0.20207953
0.2883496 6.5086088 -0.20180297
0.13115235 6.5085382 -0.20164292
-0.025888672 6.5084648 -0.20160216
-0.18293945 6.5083914 -0.20167816
-0.49132812 6.4225674 -0.1995208
-0.6474902 6.422493 -0.19994643
-0.96255857 6.4242425 -0.20121247
-1.1359081 6.5060554 -0.20457427
-1.7959667 6.5057464 -0.20905373
-2.1385643 6.5055852 -0.21212013
-2.3138573 6.5055032 -0.2138758
-3.0483789 6.5051565 -0.22252533
-3.4402537 6.504971 -0.2279364
-3.8526268 6.5047746 -0.23417518
-5.5183105 6.5039802 -0.26420495
-6.3803806 6.5018315 -0.28216887
-7.0269527 6.5015216 -0.29653496
-7.3760252 6.5013518 -0.30455673
-8.1352243 6.5009866 -0.32256567
-8.5499802 6.5007868 -0.33269599
-9.9711132 6.5000992 -0.36868891
-10.516865 6.4998345 -0.38295805
-10.977597 6.4239216 -0.39397982
-15.016503 6.5057487 -0.50691736
-21.643457 6.4164028 -0.69925284
-24.061934 6.5061979 -0.77209371
-19.108555 -21.562582 -0.89243603
-17.320448 -21.555754 -0.85653633
-15.669512 -21.552979 -0.82540143
-14.132675 -21.553047 -0.79833889
-12.690059 -21.552969 -0.77473485
-10.669639 -21.548378 -0.74481064
-10.02915 -21.546806 -0.73617691
-9.4028997 -21.545271 -0.72815919
-8.7898731 -21.543764 -0.72072464
-6.4500585 -21.544939 -0.69662482
-5.8874121 -21.543886 -0.69179487
-5.332881 -21.546103 -0.68753529
-4.7841797 -21.544979 -0.68361753
-1.5917578 -21.541355 -0.66907233
-0.54960936 -21.540085 -0.66742921
1.0100976 -21.538748 -0.66790175
2.0507128 -21.495644 -0.66885656
2.5729394 -21.475559 -0.6699717
5.3149314 -21.731579 -0.6929853
6.6581836 -22.466574 -0.72582942
7.6576071 -23.722744 -0.77215493
7.2458496 -7.8329253 -0.33051315
15.595107 -7.7739868 -0.53975558
26.939159 6.5120988 -0.85848415
24.382969 6.520596 -0.78181446
22.217508 6.5196524 -0.71721357
18.801893 6.5176053 -0.61639428
17.429716 6.517005 -0.57639617
14.960107 6.4321365 -0.50439173
14.200205 6.5156841 -0.48394999
13.340654 6.5153079 -0.45987868
11.852783 6.5146561 -0.41894466
11.203271 6.5143719 -0.40142593
9.9236126 6.4300213 -0.36627373
9.496377 6.4837222 -0.35617808
9.0679493 6.5173736 -0.34590456
8.2016993 6.5169926 -0.32448599
7.4347754 6.5166531 -0.3062371
7.0823922 6.5164981 -0.29811102
6.4299903 6.5162091 -0.28356498
6.1267481 6.5160761 -0.27704445
4.7252927 6.4268289 -0.24708861
4.4904685 6.426724 -0.24285148
4.2666502 6.4314594 -0.23906867
4.0963182 6.5103374 -0.23825607
3.8802538 6.5102396 -0.23475684
3.6703417 6.5101447 -0.23149276
3.4660351 6.5100555 -0.22844909
3.266953 6.5099649 -0.22561477
3.0726073 6.5098758 -0.22297706
2.6967382 6.5097075 -0.21825698
2.1598241 6.5094657 -0.21244057
1.9868262 6.5093851 -0.21081161
1.8163671 6.5093083 -0.20932968
1.6481738 6.5092325 -0.20798767
1.4820508 6.5091572 -0.2067823
0.67440426 6.5087857 -0.20268935
0.51605469 6.5087152 -0.20224097
-0.11310547 6.5084248 -0.20162947
-0.27027342 6.5083513 -0.2017704
-0.89222652 6.4242754 -0.20090324
-1.0641601 6.5060883 -0.20420517
-1.225957 6.5060139 -0.20507103
-1.5542188 6.5058599 -0.20719069
-1.7210937 6.5057817 -0.20845015
-2.4125097 6.505456 -0.21491691
-2.5926464 6.5053716 -0.21691765
-2.776289 6.5052838 -0.21908492
-2.9637303 6.505197 -0.22142631
-3.1553612 6.5051055 -0.22394951
-3.9712791 6.5047183 -0.23606788
-4.1899118 6.5046148 -0.23966347
-5.1396775 6.5041618 -0.25677764
-5.3994823 6.5040359 -0.26183975
-5.5991211 6.4227471 -0.26393279
-6.8775878 6.5015922 -0.29315719
-7.2185349 6.50143 -0.30091599
-7.5782714 6.5012555 -0.30928183
-8.791914 6.5006695 -0.3386898
-9.2503223 6.5004482 -0.35020432
-9.7413473 6.5002093 -0.36275017
-10.269131 6.4999552 -0.37645534
-10.838691 6.4996796 -0.39147028
-12.143184 6.507144 -0.42674056
-12.879512 6.5067878 -0.4469676
-15.585166 6.5054717 -0.5231235
-19.419434 6.5012751 -0.6343382
-23.078485 6.5066776 -0.74273121
-28.142069 6.4870563 -0.89456975
-20.488623 -21.557495 -0.92124814
-19.525068 -21.562281 -0.90103638
-18.598993 -21.562954 -0.88205177
-17.710585 -21.563595 -0.86434871
-13.723203 -21.553024 -0.79145432
-13.003359 -21.552986 -0.77970487
-11.623925 -21.552912 -0.75850964
-10.312002 -21.547503 -0.73993427
-9.0608692 -21.54443 -0.723961
-8.4545803 -21.542944 -0.71684843
-7.8620701 -21.547577 -0.71048504
-6.1365914 -21.544355 -0.6938867
-5.0273438 -21.545479 -0.68530667
-4.4819727 -21.544359 -0.68163085
-1.4267187 -7.7968431 -0.24552032
-2.8761621 -21.541061 -0.67316544
-2.3489451 -21.542273 -0.67123491
-1.3017871 -21.541 -0.6684587
-0.2608496 -21.539736 -0.66724926
0.77872068 -21.539381 -0.66762555
1.2994921 -21.537954 -0.66835791
3.9216697 -21.443115 -0.67522568
15.598173 -7.9855022 -0.54279619
23.134365 6.5200529 -0.74451053
21.16209 6.5191922 -0.68590069
16.741503 6.5167046 -0.55647331
15.615078 6.5162139 -0.52410805
13.712002 6.5154705 -0.47024524
12.898965 6.5151153 -0.44762373
12.160224 6.5147915 -0.4273183
11.485214 6.5144949 -0.40900218
10.865283 6.5142241 -0.39240953
10.293427 6.5139713 -0.37732261
9.2764063 6.5174661 -0.35116979
7.9796872 6.5168948 -0.31912842
7.2367282 6.5165653 -0.30164847
6.8945603 6.5164151 -0.29385445
6.5694628 6.5162711 -0.28661576
5.6813865 6.5158768 -0.2677803
5.4102244 6.5157571 -0.26233193
4.8323631 6.4268765 -0.24907218
3.7629492 6.5101871 -0.23291633
3.5561914 6.5100956 -0.2297769
3.1584277 6.5099149 -0.22412589
2.7789354 6.5097442 -0.21924491
2.2376075 6.5095 -0.21321265
2.0634081 6.5094204 -0.21151809
1.8918457 6.5093436 -0.20997047
1.7226855 6.5092669 -0.2085665
1.227168 6.5090399 -0.20517021
0.74504882 6.5088186 -0.20292869
0.58635741 6.5087466 -0.20242515
-0.043291014 6.5084577 -0.20160468
-0.20038086 6.5083828 -0.20169364
-0.35498047 6.4592266 -0.20037705
-0.66484374 6.4224858 -0.20000052
-0.82185543 6.4224138 -0.20055702
-1.3164648 6.505971 -0.20560707
-1.6466699 6.5058169 -0.2078733
-1.9850097 6.5056572 -0.21068473
-2.157871 6.505578 -0.21230659
-2.3334765 6.5054922 -0.21407935
-3.263711 6.505054 -0.2254338
-3.4625585 6.5049615 -0.22825965
-3.8761621 6.5047636 -0.23454674
-4.7813182 6.5043325 -0.25005111
-6.0335937 6.4182096 -0.27286398
-6.4145703 6.5018144 -0.28291175
-6.7315722 6.5016618 -0.28988937
-7.4159179 6.5013332 -0.3054862
-8.1799803 6.5009646 -0.32365081
-8.5975971 6.5007634 -0.33387154
-9.0427341 6.5005474 -0.3449645
-9.5187988 6.5003181 -0.35703781
-10.580009 6.499804 -0.38462356
-11.836738 6.5072927 -0.41839802
-13.31957 6.5065727 -0.45917314
-16.088379 6.4637895 -0.53705877
-18.74996 6.5016022 -0.61471087
-20.318613 6.5008368 -0.66080451
-21.857626 6.4162979 -0.70561802
-24.319315 6.506072 -0.7797913
-26.578075 6.4274907 -0.84699166
-16.388428 -21.554186 -0.83871692
-14.802285 -21.551521 -0.80986631
-14.050342 -21.553041 -0.7969442
-11.252177 -21.549809 -0.75303078
-9.3342772 -21.545101 -0.72730613
-8.7226267 -21.5436 -0.71994179
-8.1251564 -21.548069 -0.71333402
-5.825459 -21.543772 -0.69128686
-4.7237306 -21.544855 -0.68320853
-1.3277637 -7.8485832 -0.24656677
-1.0123242 -21.540649 -0.66796559
-0.49196288 -21.540016 -0.66738373
0.027714843 -21.539385 -0.66719002
1.0678222 -21.538588 -0.66798353
3.6844139 -21.443134 -0.6739428
24.279022 -7.9117379 -0.79097646
21.99914 6.5195575 -0.71072477
19.98167 6.4498773 -0.65039092
18.640488 6.5175333 -0.61167282
16.099169 6.5164251 -0.53797805
14.100527 6.5156403 -0.48114443
11.778028 6.5146246 -0.41691747
10.542188 6.5140824 -0.38385731
9.8656635 6.4299955 -0.36476851
9.0169134 6.5173502 -0.344621
8.156806 6.5169721 -0.32339689
7.0444922 6.5164824 -0.29724821
6.7120018 6.5163345 -0.28977004
5.8056149 6.515933 -0.27032354
5.009326 6.5155792 -0.25457421
4.464951 6.426712 -0.24239653
4.2536035 6.4491534 -0.23930183
4.0720506 6.5103264 -0.23785652
3.6474316 6.5101347 -0.23114578
3.4437206 6.5100446 -0.22812484
3.051367 6.5098672 -0.22269599
2.8618653 6.5097818 -0.22026695
2.6763573 6.5096989 -0.2180149
2.3160057 6.5095353 -0.21401496
1.797627 6.5092983 -0.20917313
1.6296679 6.5092239 -0.2078466
1.4637402 6.5091486 -0.20665587
1.2996289 6.5090728 -0.20559829
1.1370801 6.5089993 -0.20467049
0.97587889 6.508925 -0.20386809
0.8158496 6.508852 -0.20319054
0.65682614 6.5087795 -0.20263404
0.4985449 6.5087051 -0.20219803
-0.28768554 6.5083427 -0.20179336
-0.59531248 6.4225187 -0.19979088
-0.90973634 6.4242682 -0.20097801
-1.0820215 6.5060797 -0.20429413
-1.4074414 6.505928 -0.20618324
-1.5726172 6.5058498 -0.20732261
-1.7397363 6.5057731 -0.20859817
-2.2550488 6.5055313 -0.21327217
-2.4323437 6.5054483 -0.21513198
-2.6128321 6.505363 -0.21714912
-2.796875 6.5052752 -0.21933685
-3.3735254 6.505003 -0.22697791
-3.9951952 6.5047073 -0.23645294
-4.2145505 6.5046024 -0.24007758
-4.6747165 6.5043826 -0.24811104
-4.9168653 6.5042667 -0.25255942
-5.1679978 6.5041471 -0.25732216
-5.4288964 6.5040226 -0.26242208
-5.6256051 6.4184051 -0.2643714
-6.1992869 6.4198651 -0.27643311
-6.5887108 6.5017328 -0.28672302
-6.9145212 6.501575 -0.29398865
-7.2574801 6.5014105 -0.30181411
-7.6193552 6.501236 -0.31024954
-8.8411913 6.5006452 -0.33991775
-9.3030663 6.500423 -0.3515425
-10.330136 6.4999247 -0.37805113
-11.379199 6.4156265 -0.40463886
-15.703105 6.5054131 -0.52649784
-18.120605 6.5019073 -0.59633189
-21.295977 6.5003619 -0.68969494
-25.691015 6.5054035 -0.82090241
-28.488905 6.4868865 -0.90503782
-18.350458 -7.8314109 -0.61800879
-10.80208 -7.7196975 -0.41126457
-19.420527 -21.562359 -0.89886534
-17.614305 -21.563667 -0.86248785
-16.756796 -21.554806 -0.84568852
-14.382216 -21.553059 -0.80260497
-13.642422 -21.55302 -0.79011333
-12.924872 -21.55298 -0.77844959
-9.6104393 -21.545778 -0.73076886
-8.3904104 -21.548565 -0.71628523
-7.796865 -21.547455 -0.70979047
-6.6396384 -21.545296 -0.69834286
-6.0742869 -21.544237 -0.69335926
-5.5166893 -21.543196 -0.68883359
-4.9666209 -21.545353 -0.68487489
-1.4070703 -7.8071237 -0.24572425
-1.7663085 -21.541567 -0.66949785
-1.2439941 -21.54093 -0.66834927
-0.72316402 -21.540297 -0.6675961
0.83639646 -21.539223 -0.66768777
1.8766112 -21.500458 -0.66851604
2.9212792 -21.457031 -0.67076814
3.4480662 -21.443153 -0.6727432
7.2117577 -22.972755 -0.74581695
15.59668 -7.9321756 -0.5420053
27.923437 6.512526 -0.88814992
22.89913 6.5199504 -0.73750031
15.298945 6.4323759 -0.51407111
13.617949 6.51543 -0.46761301
11.413867 6.5144634 -0.40708029
9.5822754 6.4298711 -0.35744748
9.223896 6.5174417 -0.34983811
7.9362206 6.5168767 -0.318086
7.5567575 6.5167084 -0.30908912
7.1979098 6.5165496 -0.30075666
6.5344334 6.5162554 -0.28584594
6.2263966 6.51612 -0.27916938
5.9322653 6.5159893 -0.27295005
5.3808689 6.5157452 -0.26175171
4.5679588 6.4267583 -0.24423492
4.1698828 6.5103703 -0.23947753
3.9516699 6.5102725 -0.23589775
3.5336132 6.5100861 -0.22944182
3.3328514 6.5099931 -0.22653754
3.1369727 6.5099053 -0.2238356
2.5749414 6.5096526 -0.21683906
2.3949707 6.5095696 -0.21484847
1.8729882 6.5093341 -0.20980819
1.5372655 6.5091815 -0.20716834
1.3723925 6.5091071 -0.20605247
1.0473828 6.5089593 -0.20420875
0.72742188 6.5088115 -0.20286658
0.41091797 6.508666 -0.2020082
0.25346678 6.508594 -0.2017578
0.096318357 6.508522 -0.20162375
-0.060712889 6.5084491 -0.20160881
-0.37020507 6.4226236 -0.19927169
-0.52590817 6.4225507 -0.19960518
-0.83955073 6.4242997 -0.20068496
-1.0104492 6.5061135 -0.20394439
-1.1717968 6.5060391 -0.20476799
-1.3345703 6.5059624 -0.20571892
-1.4989648 6.5058856 -0.20680061
-1.6651952 6.5058084 -0.20801398
-1.833457 6.5057292 -0.209365
-2.0040526 6.5056486 -0.21085647
-2.1771874 6.5055671 -0.21249694
-2.7145996 6.5053129 -0.21834388
-2.9007518 6.5052261 -0.22062507
-4.3393259 6.5045438 -0.24219939
-4.5697656 6.5044341 -0.24622962
-4.8081641 6.5043192 -0.25054473
-5.0551953 6.5042009 -0.25516358
-5.3116212 6.5040774 -0.26011154
-5.7794628 6.4183331 -0.26753509
-6.4489551 6.5017986 -0.28365982
-6.7676563 6.501646 -0.29069471
-7.455986 6.5013142 -0.30641875
-7.8293357 6.5011344 -0.31522292
-8.6454878 6.5007401 -0.33505446
-9.0939064 6.5005231 -0.34625387
-9.5736036 6.5002923 -0.35844386
-10.088554 6.500042 -0.37174162
-11.91207 6.5072565 -0.42044416
-12.626083 6.5069108 -0.43997887
-13.410274 6.5065289 -0.46169746
-14.276445 6.5061078 -0.48597246
-15.23916 6.5056391 -0.51325077
-17.527763 6.5021963 -0.5790804
-22.387968 6.5070133 -0.72217041
-24.582148 6.5059452 -0.78765678
-18.592802 -7.7001696 -0.62335396
-18.9037 -21.562731 -0.88824469
-18.003086 -21.563385 -0.87012494
-16.297539 -21.554035 -0.83701354
-15.49375 -21.552683 -0.82220292
-14.717607 -21.551378 -0.80839741
-13.968428 -21.553036 -0.79556209
-13.24122 -21.552998 -0.78353715
-11.178867 -21.549629 -0.75197631
-10.526319 -21.548027 -0.74284118
-9.2659178 -21.544933 -0.72646558
-8.6555958 -21.543438 -0.71915931
-6.8936715 -21.545769 -0.70071584
-6.3246093 -21.544704 -0.69551361
-5.763711 -21.543657 -0.69078362
-5.2107029 -21.545855 -0.68663251
-4.6633201 -21.544731 -0.68280774
-1.3079199 -7.8589525 -0.24678177
-2.5243456 -21.540339 -0.67178375
-1.4759668 -21.541212 -0.66880935
-0.43438476 -21.539946 -0.6673454
28.971884 6.5124054 -1.5897685
23.61665 6.5197854 -1.3116599
19.826338 6.5176435 -1.1173232
18.322294 6.5170145 -1.0411199
13.902978 6.5152545 -0.82199812
13.071934 6.5149064 -0.78193039
9.7502728 6.4297171 -0.62527841
9.3824902 6.5172892 -0.61160088
8.9152536 6.5170918 -0.59122193
8.4779196 6.5169058 -0.57248062
7.6803417 6.5165668 -0.53924429
6.9687304 6.5162625 -0.51077855
6.6399999 6.5161209 -0.49806395
5.7429395 6.5157351 -0.4649877
4.8863182 6.4267435 -0.4322201
4.6459274 6.4266386 -0.42455286
4.4171095 6.4313736 -0.41769955
4.2438669 6.5102506 -0.41605186
3.8094726 6.5100613 -0.403813
3.6014843 6.5099697 -0.39830104
3.0087109 6.5097089 -0.38393122
2.8201365 6.5096245 -0.37980142
2.2766016 6.5093842 -0.36918762
2.1017773 6.5093045 -0.36620203
1.9296484 6.5092292 -0.36347261
1.7599804 6.509151 -0.36099139
1.427002 6.5090017 -0.35674572
1.2632519 6.5089273 -0.35496715
0.94011718 6.508781 -0.3520737
0.62148434 6.5086355 -0.35003415
0.46335936 6.5085635 -0.34932798
0.30578125 6.5084906 -0.34882629
-0.16550781 6.5082731 -0.34854275
-0.47404295 6.4224491 -0.34477058
-0.63012695 6.4223762 -0.34548301
-1.2802343 6.5058584 -0.35498032
-1.4440625 6.5057807 -0.35677418
-1.6096483 6.5057025 -0.35879606
-2.1192479 6.5054607 -0.36629412
-2.6534765 6.5052056 -0.37612468
-2.83833 6.5051174 -0.37996799
-4.4921875 6.5043168 -0.42319602
-4.7278318 6.5042009 -0.43048599
-4.9718847 6.5040812 -0.4382908
-5.2250977 6.5039568 -0.44664907
-5.686738 6.4182096 -0.45908758
-5.9691014 6.4180703 -0.46924379
-6.3461523 6.5016704 -0.48640406
-6.9891891 6.5013518 -0.5110333
-7.3361716 6.5011806 -0.52478272
-7.7025681 6.500999 -0.53961343
-8.090498 6.5008049 -0.55564034
-8.5024414 6.5006008 -0.57299274
-8.9411716 6.5003824 -0.59181571
-12.380811 6.5067558 -0.74879384
-14.906465 6.5054836 -0.87073302
-17.105097 6.5020466 -0.97968215
-18.430117 6.5013762 -1.0462821
-19.949404 6.5006084 -1.1233013
-21.455791 6.4232416 -1.1990399
-23.807587 6.5058403 -1.3213186
-28.756132 5.6610684 -1.5690652
-28.866728 4.962718 -1.5681136
-28.598652 -6.2675285 -1.5674189
-28.122744 -8.3345871 -1.5703356
-27.934589 -9.0173912 -1.5715201
-10.794492 -7.802269 -0.71305853
-20.164364 -21.561226 -1.5804621
-19.211151 -21.561928 -1.5460802
-16.571943 -21.555237 -1.4556277
-15.758506 -21.553854 -1.429444
-14.97331 -21.552525 -1.4049965
-14.215693 -21.553679 -1.3822949
-11.399707 -21.550545 -1.3052255
-10.099589 -21.547344 -1.2740099
-8.8574123 -21.544289 -1.2470992
-7.6659179 -21.547005 -1.2243888
-6.5129099 -21.544853 -1.2049916
-5.9493551 -21.543804 -1.1965529
-4.8446383 -21.544647 -1.1822362
-4.3011813 -21.543535 -1.1761355
-1.3654785 -7.8169279 -0.42483076
-2.6997657 -21.540253 -1.1622227
-2.1736133 -21.541922 -1.1591458
-1.6497265 -21.541286 -1.1566316
-0.087460935 -21.539387 -1.1531622
0.43217772 -21.538757 -1.1533482
1.4735156 -21.537117 -1.1557231
1.9928417 -21.497261 -1.1558325
3.566494 -21.443258 -1.1637758
5.2478809 -21.70904 -1.1957135
5.8786817 -21.982365 -1.2182274
6.5758786 -22.408813 -1.2502877
7.2319236 -7.8599439 -0.57188302
15.561826 -7.8094468 -0.932154
27.256493 6.5116901 -1.5002929
24.645596 6.5202141 -1.364845
18.964813 6.5172844 -1.0735972
17.572041 6.5167022 -1.0033634
16.349638 6.5161905 -0.94226593
15.070498 6.4318657 -0.87723476
14.300468 6.5154214 -0.84132063
12.644287 6.5147257 -0.76150298
11.92788 6.5144243 -0.72761422
10.669052 6.5138931 -0.66923255
9.4945507 6.4452982 -0.61436981
9.1190815 6.5171781 -0.60006905
5.86832 6.5157905 -0.46945506
5.5895309 6.5156693 -0.45959681
5.3220506 6.5155544 -0.45039806
5.0649118 6.5154424 -0.44181445
4.7517381 6.4266849 -0.42789614
4.1205955 6.5101972 -0.41248274
3.2887206 6.509831 -0.39046437
2.9034667 6.5096622 -0.38159907
2.534492 6.5094976 -0.37397942
2.3552735 6.5094194 -0.37060168
2.1791406 6.5093403 -0.36749694
1.8351171 6.5091848 -0.36206317
1.5003515 6.5090351 -0.35760906
1.3358399 6.5089602 -0.3557308
0.69200194 6.5086675 -0.3504149
0.53357422 6.508594 -0.34961686
0.37578124 6.508522 -0.34902427
0.061328124 6.508378 -0.34845194
-0.40484375 6.4224811 -0.3445192
-0.56066406 6.4224091 -0.34514099
-0.71712887 6.4223371 -0.3459661
-1.0462695 6.5059686 -0.35278246
-1.7024609 6.5056596 -0.36001784
-1.8712401 6.505579 -0.36240757
-2.2160938 6.5054154 -0.36793104
-2.3926952 6.5053301 -0.37108317
-2.5724707 6.5052457 -0.37451109
-2.7556834 6.5051565 -0.37822327
-4.1652246 6.5044765 -0.41350707
-4.3899317 6.5043659 -0.42011207
-4.8622947 6.5041351 -0.43475538
-5.1113377 6.504014 -0.44286117
-5.3700194 6.5038872 -0.45154521
-5.6005273 6.4591594 -0.45769066
-6.8406544 6.5014262 -0.50524354
-7.1796288 6.5012589 -0.51854217
-8.7426367 6.5004802 -0.58325654
-9.1976271 6.5002532 -0.60297304
-9.6848145 6.5000091 -0.62444663
-10.208252 6.4997463 -0.6478951
-10.772929 6.4994659 -0.67358404
-11.23791 6.4154434 -0.69278044
-12.065087 6.5069146 -0.733877
-12.793867 6.5065484 -0.76842999
-16.355341 6.4186358 -0.94063121
-20.894403 6.5001297 -1.1715012
-22.843056 6.5063286 -1.2715857
-28.702158 5.9709148 -1.5695223
-28.81953 5.2734027 -1.5685226
-28.921434 -6.0139365 -1.5814881
-28.520565 -6.6521859 -1.5678869
-28.368544 -7.3425517 -1.5688117
-28.20167 -8.0299778 -1.5698431
-27.823681 -9.3950481 -1.5722239
-20.599873 -21.558712 -1.5963626
-18.699326 -21.562307 -1.5280058
-16.94335 -21.555866 -1.4678568
-16.116484 -21.554462 -1.4408642
-13.08252 -21.553602 -1.349839
-12.381093 -21.553556 -1.330742
-11.032266 -21.549639 -1.2961001
-10.383203 -21.548042 -1.2805613
-9.749238 -21.546482 -1.2661206
-9.1289845 -21.544956 -1.2527201
-8.5214062 -21.543461 -1.2403065
-6.7660742 -21.545326 -1.2090085
-6.1988864 -21.544268 -1.2002051
-5.6396384 -21.543224 -1.1922189
-5.0880957 -21.545147 -1.1851897
-4.5420899 -21.544027 -1.1787547
-1.444248 -7.7750359 -0.42337137
-1.2661133 -7.8688149 -0.42669043
-2.9348047 -21.540735 -1.1638789
-2.4070117 -21.539654 -1.1603456
-1.3596387 -21.540936 -1.155532
-0.83854491 -21.5403 -1.1540747
-0.31849608 -21.539667 -1.1532949
0.20114258 -21.539036 -1.1531821
