# .PCD v0.7 - Point Cloud Data file format
VERSION 0.7
FIELDS x y z
SIZE 4 4 4
TYPE F F F
COUNT 1 1 1
WIDTH 1489
HEIGHT 1
VIEWPOINT 0 0 0 1 0 0 0
POINTS 1489
DATA ascii
5.7816696 6.5161114 -0.46637583
5.5064549 6.5159917 -0.45672464
4.9880662 6.5157681 -0.43931463
4.7431641 6.5156608 -0.43146446
4.5066895 6.5155582 -0.42413417
4.0012794 6.4267154 -0.40529937
3.2284765 6.5101628 -0.38903502
2.4791503 6.509831 -0.37293071
1.783164 6.5095196 -0.36133564
1.6153905 6.5094452 -0.35906345
1.285625 6.5092936 -0.35521716
0.96210933 6.5091486 -0.35226312
0.80217773 6.5090737 -0.35110945
0.48497069 6.5089297 -0.34943098
0.32731444 6.5088568 -0.34890085
0.012988281 6.5087128 -0.34845415
-0.14405273 6.5086393 -0.34853515
-0.77572262 6.5083466 -0.35090107
-0.93543941 6.5082707 -0.35201046
-1.0962695 6.5081964 -0.35333487
-1.566582 6.4222918 -0.35390827
-1.7322167 6.4241095 -0.35620752
-1.923789 6.5059109 -0.36321238
-2.0956933 6.5058293 -0.36592415
-2.2703028 6.5057449 -0.36889347
-2.4478612 6.5056596 -0.37212998
-2.6286719 6.5055728 -0.37564337
-3.1937597 6.505302 -0.38797876
-3.5929785 6.5051079 -0.397852
-4.0140233 6.5049052 -0.40921748
-4.4609079 6.5046868 -0.42226321
-4.695488 6.5045733 -0.4294866
-4.9383497 6.5044537 -0.43721777
-5.7247558 6.5040665 -0.46387461
-6.0092087 6.5039263 -0.47406775
-8.445303 6.5009832 -0.57057601
-10.956894 6.4997258 -0.68204266
-11.584385 6.4994121 -0.71113282
-15.796415 6.5053887 -0.91459918
-16.888857 6.4833012 -0.9685095
-18.240459 6.5018229 -1.0367213
-19.730938 6.5010686 -1.1121954
-21.456434 6.500196 -1.2002667
-23.506035 6.5063419 -1.305759
-25.917938 6.5051203 -1.4306027
-28.641991 6.4585309 -1.5719073
-28.769951 5.7617764 -1.5708407
-28.646679 -6.1798797 -1.5689392
-27.989336 -8.934103 -1.5729482
-19.338213 -21.562407 -1.550631
-18.419825 -21.563086 -1.518284
-16.683222 -21.554123 -1.4592183
-14.316738 -21.553675 -1.3852797
-13.579023 -21.553623 -1.3638253
-12.86331 -21.553576 -1.343792
-12.166299 -21.550497 -1.3249094
-9.5549707 -21.544067 -1.2617319
-8.9410744 -21.547897 -1.2489749
-8.3371878 -21.546772 -1.2368889
-7.7445993 -21.545666 -1.2257404
-7.1622066 -21.54458 -1.2154965
-5.4682517 -21.544287 -1.1899878
-4.3738575 -21.542046 -1.1768264
-3.3009472 -21.539848 -1.1666402
-2.7711523 -21.541683 -1.1627787
-1.1980859 -21.539772 -1.1549548
-0.67738283 -21.539141 -1.1537074
-0.15759765 -21.539406 -1.1531821
2.4402344 -21.443291 -1.1554177
4.0514746 -21.567299 -1.1748428
5.9477344 -22.533495 -1.2476892
8.6256342 -27.273094 -1.5314033
14.76955 -7.9249434 -0.8973518
27.653221 6.5122209 -1.5209646
24.614706 6.4271646 -1.3619837
22.713173 6.5197711 -1.2650976
20.80418 6.5189724 -1.1671929
19.166914 6.5177312 -1.0838397
15.405352 6.5161567 -0.89550018
14.238593 6.4318781 -0.83645463
13.543017 6.5154629 -0.8045938
12.020497 6.5148234 -0.73197943
10.184404 6.5140481 -0.6472308
9.6623335 6.5138288 -0.62386072
9.0583296 6.4297843 -0.5947057
8.6973438 6.4946694 -0.58112371
8.3019724 6.5171905 -0.56505096
7.5240331 6.5168586 -0.53290135
6.8283591 6.5165615 -0.50532609
5.6263571 6.5160441 -0.46089664
4.3779001 6.515501 -0.42024723
4.1532712 6.5154047 -0.41365549
3.6732714 6.4265728 -0.3962945
3.3152051 6.5102019 -0.39112231
3.119746 6.5101151 -0.38648212
2.92875 6.5100307 -0.38217044
2.3790722 6.5097857 -0.37105578
1.8578124 6.5095525 -0.36241367
1.5224609 6.5094013 -0.35789493
0.71317381 6.5090337 -0.35055575
0.082207032 6.5087457 -0.34848335
-0.23193359 6.5085979 -0.34866813
-0.38930663 6.5085273 -0.34906608
-0.86491209 6.5083036 -0.35149479
-1.0252343 6.5082278 -0.35272482
-1.3319824 6.4224038 -0.35115039
-1.8488085 6.5059466 -0.36209601
-2.1929979 6.5057817 -0.36755279
-2.3691993 6.5056987 -0.37066862
-2.5485547 6.5056119 -0.37405971
-2.7313085 6.5055256 -0.37773392
-3.3033886 6.5052481 -0.39059919
-3.503242 6.5051532 -0.39555407
-3.7083299 6.505053 -0.40087146
-4.1361718 6.5048456 -0.4126876
-4.5911036 6.504622 -0.42624167
-5.0780954 6.504385 -0.44177866
-6.1738281 6.5038457 -0.48009005
-7.1341114 6.5016351 -0.51675266
-7.4890723 6.5014582 -0.53094602
-8.6850681 6.5008645 -0.58079696
-9.1361618 6.5006375 -0.60029972
-9.6188574 6.5003958 -0.62152839
-10.137304 6.5001373 -0.64470625
-10.696201 6.4998565 -0.67007971
-11.80835 6.4171743 -0.71950811
-12.694228 6.5069513 -0.76368999
-14.359463 6.5061135 -0.84398955
-16.421356 6.5050726 -0.9456144
-17.424971 6.4207768 -0.99418622
-19.047977 6.5014167 -1.0775329
-28.939501 4.6714678 -1.5693884
-28.569071 -6.5677629 -1.5693978
-27.886875 -7.8445897 -1.5509578
-28.073408 -8.6330338 -1.5724236
-20.733662 -21.561377 -1.601441
-19.755634 -21.562101 -1.5656298
-18.819912 -21.56279 -1.5322524
-17.053282 -21.55475 -1.4714541
-14.649502 -21.553696 -1.3952192
-13.901338 -21.553644 -1.3730999
-11.785224 -21.549557 -1.3149557
-10.466631 -21.54631 -1.2824228
-9.2110739 -21.548401 -1.2546093
-8.601963 -21.547266 -1.2420973
-8.0044727 -21.54615 -1.2305399
-4.6130567 -21.542536 -1.1794657
-3.53583 -21.540329 -1.1686363
-3.0044239 -21.541967 -1.1644542
-2.4761717 -21.541325 -1.1608514
-0.90677732 -21.539419 -1.154175
-0.38662109 -21.538786 -1.1533028
2.2104688 -21.452362 -1.1545742
4.3767676 -21.682686 -1.1842375
4.979785 -21.928509 -1.2038763
6.3903513 -22.951136 -1.275486
21.60787 6.5193095 -1.208323
19.602608 6.434124 -1.104548
18.34996 6.5173893 -1.0425233
17.033964 6.516839 -0.97640598
15.874199 6.5163517 -0.91867095
13.920312 6.5156231 -0.8228479
12.33206 6.5149555 -0.74668998
11.6425 6.5146646 -0.71424717
11.010068 6.5143976 -0.68489408
10.427187 6.5141506 -0.65822124
9.887763 6.5139227 -0.6339072
9.2713184 6.4338126 -0.60416627
8.8040524 6.4296756 -0.58365303
8.4863672 6.5172687 -0.57285184
8.0751362 6.5170941 -0.55554652
7.6878414 6.5169277 -0.53956163
7.3219628 6.5167718 -0.52476782
6.9754586 6.5166225 -0.51105487
6.6463766 6.5164824 -0.49832034
6.3331347 6.5163479 -0.4864822
5.2116113 6.5158648 -0.4466936
4.4792185 6.5155463 -0.42329857
4.2514062 6.5154462 -0.41650608
3.7645214 6.4266119 -0.39874041
3.5617578 6.4313564 -0.39358893
3.4029002 6.5102396 -0.39327684
2.6390135 6.5099015 -0.37606531
2.2799902 6.5097418 -0.369266
2.1050975 6.5096636 -0.3662743
1.7631738 6.509511 -0.36105415
0.94312495 6.5091386 -0.35211515
0.78331053 6.5090656 -0.3509869
0.30868164 6.5088482 -0.34885296
0.15145507 6.5087771 -0.34855124
-0.79458982 6.508338 -0.35102069
-0.95442379 6.5082622 -0.35215664
-1.4225976 6.4223614 -0.35216394
-1.5860351 6.4222832 -0.35415587
-1.751914 6.4240994 -0.35648432
-2.4690917 6.50565 -0.37252989
-3.4145215 6.505197 -0.39332601
-3.6172655 6.5050969 -0.39848182
-4.4882712 6.5046735 -0.42309207
-4.9677148 6.5044403 -0.43816978
-5.2207813 6.5043144 -0.44651812
-6.0437303 6.5039091 -0.47532332
-6.5686622 6.418128 -0.49166262
-6.8954587 6.4197001 -0.50438416
-7.6962695 6.5013566 -0.53936863
-9.9040623 6.5002532 -0.63423318
-11.028477 6.4996905 -0.68534011
-12.194258 6.4153156 -0.73767853
-14.89001 6.5058451 -0.86993384
-16.888819 6.4280338 -0.96745145
-18.406338 6.50174 -1.0450903
-19.922001 6.5009732 -1.1219115
-21.679071 6.5000834 -1.2116765
-23.769482 6.5062089 -1.3193544
-26.23455 6.5049591 -1.4470482
-28.657959 6.3761506 -1.5717753
-28.784111 5.6792083 -1.5707211
-28.895264 4.9801445 -1.5697727
-28.630653 -6.2620902 -1.5690335
-19.227392 -21.56249 -1.5466826
-18.308281 -21.556881 -1.5141498
-17.429716 -21.555387 -1.4840728
-16.584864 -21.553955 -1.4559959
-14.987041 -21.55372 -1.4054568
-13.493125 -21.553617 -1.3613784
-12.779931 -21.55357 -1.3415043
-12.085127 -21.550297 -1.3227688
-11.409804 -21.548632 -1.3053851
-9.4813766 -21.543886 -1.2601535
-8.8689451 -21.547764 -1.2474922
-8.2664938 -21.546638 -1.2355218
-7.675117 -21.545536 -1.2244827
-7.0938668 -21.544453 -1.2143385
-2.1619043 -7.8164372 -0.43417871
-5.4028125 -21.544153 -1.1891236
-4.853291 -21.54303 -1.1822493
-1.6583399 -21.540331 -1.1566164
-1.1363964 -21.5397 -1.1547744
-0.61583006 -21.539064 -1.1536052
0.42364258 -21.537811 -1.1532916
0.9422949 -21.504269 -1.1523772
3.0282812 -21.443241 -1.1593982
4.1197557 -21.590912 -1.1767657
5.3376269 -22.118198 -1.2181337
6.0333886 -22.596643 -1.2521365
14.768056 -7.8699241 -0.89589423
24.422831 6.4516521 -1.3523793
18.988672 6.5176568 -1.0748119
16.368212 6.5165606 -0.94319892
15.283476 6.5161052 -0.88949203
13.444463 6.5154228 -0.79984218
12.656357 6.5150919 -0.76208633
7.125957 6.5166874 -0.51697403
6.7894139 6.5165448 -0.50381839
6.1643262 6.5162759 -0.48022434
5.8729587 6.5161505 -0.46963555
5.593945 6.5160294 -0.45976463
5.3262696 6.5159149 -0.45055583
5.0689549 6.5158024 -0.44196197
4.0710058 6.4267473 -0.40728754
3.4550781 6.4422846 -0.39136946
3.2918162 6.5101919 -0.39055571
3.0969043 6.5101042 -0.38595474
2.9064062 6.5100198 -0.38168022
2.3580077 6.5097771 -0.37066978
1.502871 6.5093927 -0.35765812
1.3383105 6.5093179 -0.35577503
1.1754297 6.5092459 -0.35411781
0.53590816 6.5089545 -0.34964573
0.37811524 6.5088811 -0.34905025
0.063623048 6.5087357 -0.34847167
-0.093408205 6.5086627 -0.34848684
-0.25055665 6.5085893 -0.34870481
-0.5658496 6.5084429 -0.34975302
-0.7244336 6.5083685 -0.35058707
-1.0442773 6.5082192 -0.35288447
-1.3511132 6.4223957 -0.35135835
-1.5137597 6.4223175 -0.35325125
-1.6787499 6.4241338 -0.35547453
-1.8688769 6.5059357 -0.36239052
-3.3267968 6.5052371 -0.39116794
-3.5272167 6.5051408 -0.39616388
-4.1623144 6.5048318 -0.41343874
-4.6189551 6.5046101 -0.42710227
-5.1080275 6.5043707 -0.44276646
-5.9161134 6.503974 -0.47070235
-6.209209 6.5038285 -0.48139438
-6.4304686 6.4181976 -0.48640141
-6.7483397 6.4180398 -0.49858564
-8.3108397 6.5010505 -0.56489098
-9.6782713 6.5003681 -0.6241647
-11.376348 6.499516 -0.70144516
-11.885957 6.4154716 -0.72311085
-20.871084 6.5004935 -1.1703129
-22.497305 6.4158792 -1.2524629
-25.091337 6.5055389 -1.387727
-28.597988 6.682786 -1.572293
-28.848173 5.2884917 -1.5701776
-2.075078 -21.540701 -1.6479809
-1.5516504 -21.540064 -1.6445898
-0.50972652 -21.538799 -1.6407009
0.0099609373 -21.538586 -1.6402266
1.0482714 -21.501356 -1.639335
1.5678515 -21.486471 -1.6406102
2.0873046 -21.458843 -1.6418658
2.6093652 -21.44339 -1.645021
3.1359766 -21.443346 -1.6503439
4.8312402 -21.85178 -1.7042634
6.7411718 -22.592749 -1.7954584
7.803916 -22.187006 -1.791073
9.3981342 -23.095085 -1.8988011
10.002432 -22.976353 -1.9083259
10.609082 -22.847521 -1.9183302
11.217822 -22.707729 -1.928758
16.520489 -20.598642 -2.0108261
17.052137 -20.241125 -2.0155087
18.598846 -19.086033 -2.0294335
19.585653 -18.248678 -2.0385811
20.533369 -17.35915 -2.0475905
20.991621 -16.895372 -2.0520356
21.438934 -16.419205 -2.0564358
22.299395 -15.430757 -2.0650909
22.711748 -14.918956 -2.0693388
23.498955 -13.861686 -2.0776589
23.873154 -13.316792 -2.0817249
14.73453 -7.7591648 -1.2681488
24.629639 -12.220293 -2.0937939
25.284296 -11.059213 -2.1016018
23.794559 -9.0671339 -1.9391253
24.451395 -7.3418198 -1.9441711
24.639999 -6.7549491 -1.9456412
24.813145 -6.1629071 -1.9470031
27.270947 -5.3918447 -2.1169672
27.526834 -4.0743084 -2.1190827
27.712471 -2.7439916 -2.1207047
27.827353 -1.4049298 -2.1218278
27.870869 -0.06114807 -2.1224477
27.865742 0.61122555 -2.1225677
27.842793 1.2832397 -2.1225612
27.802059 1.9544067 -2.1224291
27.743368 2.6241736 -2.1221697
27.572889 3.9575579 -2.1212738
25.168436 4.861475 -1.9520757
25.033398 5.4649053 -1.9512609
22.062099 6.5190496 -1.7519053
18.687138 6.5171442 -1.507138
17.329327 6.5166006 -1.4099003
16.135448 6.5161223 -1.325174
15.076327 6.515696 -1.2507387
11.799863 6.5144672 -1.0264399
11.154658 6.5142059 -0.98370308
10.560703 6.5139651 -0.94490987
9.5016308 6.5135345 -0.87726814
8.9102736 6.4295063 -0.8367542
8.5872555 6.5171013 -0.8209455
7.7772946 6.516768 -0.77269608
7.4065719 6.5166154 -0.75126743
7.055654 6.51647 -0.73141003
6.7226367 6.5163321 -0.7129786
6.4058008 6.5162005 -0.69585067
6.103662 6.5160747 -0.67991102
4.7715721 6.5155158 -0.61499953
4.3046093 6.5153179 -0.59466803
3.8139257 6.4264874 -0.56908649
3.6098535 6.4312344 -0.56163222
3.4503124 6.5101166 -0.56108516
3.2516112 6.5100307 -0.55415452
2.8680077 6.5098639 -0.54172033
2.682373 6.5097833 -0.53617156
2.5004003 6.5097036 -0.53104043
1.9734081 6.5094705 -0.51799035
1.6351172 6.5093217 -0.5110994
1.4691211 6.5092473 -0.50816303
1.142334 6.5090995 -0.50325912
0.50366211 6.5088115 -0.49714309
0.18866211 6.508666 -0.49585891
-0.12545899 6.5085211 -0.49573112
-0.2826367 6.5084476 -0.49610069
-0.44012696 6.5083747 -0.49675977
-0.59814453 6.5083013 -0.49771133
-0.75685543 6.5082269 -0.49895671
-0.91645503 6.5081525 -0.50050026
-1.0771484 6.5080752 -0.50234723
-1.3841211 6.4222512 -0.50029838
-1.5471191 6.4221735 -0.50305551
-2.075166 6.5057049 -0.52001822
-2.426621 6.5055351 -0.52875477
-2.7909472 6.5053582 -0.5390662
-2.9787207 6.5052667 -0.54485506
-3.1706836 6.5051713 -0.55109578
-3.9883299 6.5047674 -0.5810529
-4.2074704 6.5046587 -0.58994001
-4.6671777 6.5044303 -0.60964811
-5.6917381 6.5039139 -0.65816587
-5.9747167 6.5037713 -0.67254335
-6.4938669 6.4179873 -0.69529104
-6.814961 6.4178238 -0.71287918
-7.2462401 6.5013895 -0.74136937
-7.9897556 6.5010076 -0.78440708
-8.826972 6.5005789 -0.83481169
-9.2878122 6.5003409 -0.86331099
-9.7815332 6.5000858 -0.89436489
-10.312422 6.4998112 -0.92829198
-10.885527 6.4995146 -0.96548629
-12.02664 6.4151349 -1.0380148
-12.940391 6.5065446 -1.1030036
-13.756709 6.5061188 -1.1588671
-18.07625 6.5015311 -1.46289
-20.321005 6.7598796 -1.6308825
-22.816786 4.0668778 -1.7649509
-22.898983 3.5138664 -1.764241
-22.969013 2.9594238 -1.7636169
-23.125977 0.73186523 -1.7619897
-23.134365 0.17377196 -1.7618008
-23.130507 -0.38431823 -1.7616984
-23.114286 -0.94217163 -1.7616836
-23.085791 -1.4995403 -1.7617556
-23.04497 -2.0562067 -1.7619152
-22.926533 -3.1663384 -1.7624949
-22.657108 -4.820087 -1.764016
-22.416592 -5.9121275 -1.7654635
-20.704042 -5.9981866 -1.6415063
-20.226719 -6.9336095 -1.6283088
-20.066113 -7.4241686 -1.6293308
-19.30661 -7.6775498 -1.5822401
-19.314844 -9.3508368 -1.6341962
-20.497305 -11.174286 -1.7778144
-20.241055 -11.676609 -1.7795099
-19.404325 -13.150801 -1.7850848
-18.790693 -14.10384 -1.789203
-17.788643 -15.484051 -1.7959689
-17.06748 -16.368494 -1.8008633
-16.691366 -16.799295 -1.8034232
-15.908681 -17.636883 -1.8087635
-15.502353 -18.043188 -1.8115426
-15.086269 -18.440868 -1.8143929
-11.962451 -19.914633 -1.769132
-11.320292 -19.918865 -1.7447324
-9.5999212 -20.159609 -1.7003886
-9.1283197 -20.424541 -1.7036623
-8.1645803 -20.923012 -1.7103617
-7.1747656 -21.378271 -1.7172558
-2.2007227 -7.7834783 -0.61597079
-5.5337305 -21.543959 -1.6938936
-4.9827442 -21.542837 -1.6838624
-3.8985448 -21.540619 -1.667035
-2.3065624 -21.540981 -1.6497866
-1.7820996 -21.540344 -1.6459637
-0.73897457 -21.539076 -1.641228
2.9034276 -21.443367 -1.6478767
3.4372461 -21.475733 -1.6562524
3.9860156 -21.558115 -1.669541
4.5671387 -21.752052 -1.6926017
5.185586 -22.039639 -1.7242141
7.0386329 -22.478323 -1.7937477
8.1009369 -22.075466 -1.7907279
9.7357521 -23.0299 -1.9040698
10.341387 -22.905558 -1.9138612
10.949375 -22.77099 -1.9241378
12.169775 -22.465324 -1.9456948
12.783193 -22.296055 -1.9571829
13.394082 -22.107843 -1.9684546
14.009356 -21.91267 -1.9806024
14.619892 -21.695971 -1.9923227
15.192266 -21.412144 -1.9993376
16.283779 -20.751822 -2.0087569
17.865507 -19.656153 -2.0227726
20.790966 -17.101339 -2.0500817
21.243086 -16.630613 -2.0545015
21.684189 -16.147619 -2.058876
22.113729 -15.652656 -2.0632007
22.531416 -15.145959 -2.0674727
22.936934 -14.627797 -2.0716891
23.329891 -14.098509 -2.0758462
23.709864 -13.558275 -2.0799408
14.739756 -7.9632797 -1.275816
24.429716 -12.446586 -2.0879297
24.845615 -11.912484 -2.0983014
25.153427 -11.322141 -2.1006153
25.445936 -10.72333 -2.1028228
23.686747 -9.3157129 -1.938305
24.363407 -7.5987577 -1.9434892
24.55876 -7.0143023 -1.9450064
24.738701 -6.4244823 -1.9464158
25.272255 -5.9161563 -1.9765828
27.205332 -5.6801372 -2.1164362
27.476454 -4.3659425 -2.1186588
27.677616 -3.0380855 -2.1203897
27.751787 -2.3703067 -2.1210692
27.808075 -1.7006189 -2.1216228
27.84664 -1.0295238 -2.1220512
27.855125 0.98710144 -2.1225796
27.822187 1.6586957 -2.1225028
27.771444 2.3291376 -2.1222997
27.702822 2.9979119 -2.1219695
27.61659 3.6645293 -2.1215146
27.512548 4.3284855 -2.1209333
25.2229 4.594295 -1.9523989
22.958975 6.5194073 -1.8175131
19.177948 6.4604168 -1.5411001
16.643536 6.516325 -1.3611343
14.347129 6.4316154 -1.1973332
12.10248 6.5145903 -1.0466796
11.432334 6.514318 -1.0020244
10.248427 6.5138397 -0.92475063
9.7218456 6.5136247 -0.89115691
8.6956348 6.454782 -0.82469803
8.3507423 6.517005 -0.80666703
6.5435643 6.5162578 -0.70324814
5.9405956 6.5160074 -0.67148006
5.6587892 6.5158892 -0.65720516
5.3885255 6.5157757 -0.6438908
5.1288671 6.5156655 -0.63146603
4.6378126 6.5154595 -0.60903341
4.4048729 6.5153594 -0.59891456
4.1794043 6.515264 -0.58946323
3.6975877 6.4264383 -0.56461197
3.496582 6.4311848 -0.55745733
3.1425781 6.5099835 -0.55049098
2.7637208 6.5098186 -0.53856462
2.4001172 6.5096598 -0.52834725
2.2232518 6.509583 -0.523835
2.0492578 6.5095048 -0.51969802
1.8778906 6.509429 -0.51592374
1.7089062 6.5093546 -0.51250058
0.89146483 6.5089874 -0.50030231
0.73197263 6.5089154 -0.49879381
0.41540039 6.5087714 -0.49666637
0.25795898 6.508698 -0.49604201
-0.056210935 6.508554 -0.49566004
-0.21332031 6.5084805 -0.49590173
-0.52840817 6.5083342 -0.49725547
-0.84598631 6.508184 -0.4997825
-1.0061718 6.5081096 -0.5014959
-1.312832 6.4222846 -0.49918619
-1.4750586 6.4222074 -0.50180173
-1.9992089 6.5057416 -0.51829255
-2.348125 6.5055728 -0.52669841
-2.5270898 6.5054851 -0.53147316
-3.2799706 6.5051174 -0.55478972
-4.5632324 6.5044818 -0.60507184
-4.8013573 6.5043621 -0.61565763
-5.0481348 6.5042386 -0.62699348
-5.3043065 6.5041103 -0.63913333
-5.5707812 6.5039749 -0.65213972
-5.8484764 6.5038357 -0.66608196
-6.1384473 6.5036883 -0.68103814
-7.8185349 6.5010953 -0.77434117
-8.6332912 6.5006781 -0.82298714
-10.627315 6.4996476 -0.9486599
-11.226602 6.4993386 -0.98786861
-12.604921 6.5067191 -1.0802467
-13.386933 6.5063114 -1.1334811
-14.250449 6.5058613 -1.1929566
-15.210302 6.5053606 -1.2598019
-17.265703 6.4181671 -1.4027312
-20.401649 6.4823627 -1.6301874
-20.664062 5.4837933 -1.6280998
-20.778524 4.9808636 -1.6271734
-20.984472 4.4978924 -1.6343281
-22.77663 4.3101192 -1.7652911
-23.118311 0.9778375 -1.7621011
-23.132187 0.4197998 -1.7618735
-23.12295 -0.69631165 -1.7616796
-23.099863 -1.2539489 -1.7617133
-23.064482 -1.8109137 -1.761834
-23.016815 -2.3670578 -1.7620422
-22.956865 -2.9220722 -1.762337
-22.884619 -3.4757903 -1.7627194
-22.594706 -5.1263804 -1.7643863
-22.47373 -5.6722636 -1.7651151
-21.524971 -5.9886789 -1.7014499
-20.138241 -7.2083421 -1.6288708
-19.605459 -8.6638803 -1.6323005
-19.406219 -9.1416006 -1.6335988
-20.846308 -10.441643 -1.7755163
-20.355429 -11.455845 -1.7787521
-19.237186 -13.419783 -1.7862042
-18.281942 -14.828897 -1.7926325
-17.230049 -16.176132 -1.7997583
-16.476601 -17.036732 -1.8048867
-15.682627 -17.865114 -1.8103091
-13.978173 -19.417685 -1.8220022
-13.528477 -19.782745 -1.8250978
-12.920595 -19.907986 -1.8073614
-12.25124 -19.912672 -1.7804295
-11.60125 -19.917038 -1.7552807
-10.968633 -19.921103 -1.731809
-10.352373 -19.924877 -1.7099228
-9.8055077 -20.039545 -1.6989627
-9.3370991 -20.309017 -1.7022125
-8.8615913 -20.568161 -1.7055151
-8.3792572 -20.816786 -1.7088684
-7.3950291 -21.281706 -1.7157207
-6.8935351 -21.49762 -1.7192172
-2.1017382 -7.8356547 -0.61780065
-4.6773438 -21.542212 -1.6787264
-4.135664 -21.541105 -1.6703769
-3.5990136 -21.540007 -1.663081
-3.0671778 -21.541904 -1.6570227
-2.0129981 -21.540625 -1.6475291
-1.4898144 -21.539989 -1.6442512
-0.96839839 -21.539354 -1.6419418
0.071503907 -21.53842 -1.6402236
0.59120119 -21.536991 -1.6407229
1.6292968 -21.483208 -1.6407074
2.1488671 -21.455568 -1.6420782
3.7430565 -21.521641 -1.6635348
4.3077049 -21.659405 -1.6817322
6.2715235 -22.775883 -1.7990034
7.3387694 -22.373806 -1.7931485
7.8668356 -22.163464 -1.7909805
8.8787594 -23.221622 -1.8932478
10.074131 -22.961622 -1.9094857
10.681104 -22.831594 -1.9195471
11.900107 -22.536495 -1.9407883
13.736015 -21.997105 -1.9749194
14.352539 -21.795916 -1.9873652
14.948144 -21.550041 -1.9972564
15.500224 -21.233232 -2.0019758
17.114618 -20.197914 -2.0160623
17.637577 -19.824902 -2.0207243
18.152235 -19.438219 -2.0253637
21.925859 -15.87232 -2.061301
22.759745 -14.857612 -2.0698378
23.158272 -14.333169 -2.0740216
23.543974 -13.797731 -2.0781438
14.734111 -7.7052822 -1.2662148
24.687647 -12.161311 -2.0957639
25.019638 -11.583427 -2.0996084
25.318905 -10.988317 -2.1018631
24.055214 -8.4305449 -1.9411165
24.27243 -7.854589 -1.9427863
26.812353 -5.8962951 -2.090625
27.288076 -5.3142843 -2.1171062
27.539764 -3.9959064 -2.1191924
27.639296 -3.3317304 -2.1200502
27.72123 -2.6649001 -2.1207848
27.785458 -1.9960263 -2.1213944
27.831806 -1.3254571 -2.1218777
27.871151 0.018467408 -2.1224682
27.735243 2.7033477 -2.1221306
26.636669 4.5597343 -2.057966
25.016289 5.536088 -1.9511564
21.83206 6.5189581 -1.7351087
18.516649 6.5170755 -1.4948843
13.181386 6.5150247 -1.1197178
12.417373 6.5147171 -1.0678593
11.720556 6.5144353 -1.021157
9.3278122 6.4336162 -0.86291945
8.8568068 6.4294829 -0.83345312
7.7323046 6.5167499 -0.77007276
7.3640332 6.5165973 -0.74883729
7.0153222 6.5164533 -0.72915584
6.6843066 6.5163174 -0.71088624
6.0688086 6.5160613 -0.67809951
5.7815137 6.5159402 -0.66337401
5.5063086 6.5158257 -0.64964706
5.2420897 6.5157146 -0.63683832
4.9879489 6.5156074 -0.62488145
4.7430468 6.5155034 -0.61371702
3.7891502 6.4264765 -0.56812501
3.4265234 6.5101066 -0.56023788
3.2284081 6.5100212 -0.55336636
3.0349512 6.5099368 -0.54697472
2.3008399 6.5096159 -0.52577692
2.1256053 6.5095391 -0.52147621
1.953125 6.5094624 -0.51754409
1.6153516 6.5093131 -0.51073426
1.2856054 6.5091643 -0.50526321
1.1231738 6.5090909 -0.50300801
0.96208984 6.5090203 -0.50106263
0.012998046 6.5085845 -0.49564478
-0.14405273 6.5085125 -0.49576023
-0.30124998 6.5084391 -0.49616328
-0.45880857 6.5083647 -0.49685755
-0.61689454 6.5082912 -0.49784315
-0.77570313 6.5082169 -0.49912298
-0.93541992 6.5081425 -0.50070351
-1.0962499 6.5080667 -0.50258607
-1.241836 6.4223175 -0.49813339
-1.9237499 6.5057769 -0.51663548
-2.4478126 6.5055256 -0.52932042
-3.1936913 6.5051594 -0.55186474
-3.3907812 6.505064 -0.558635
-3.5928905 6.5049639 -0.56590784
-4.0139256 6.504755 -0.5820722
-4.2338672 6.5046463 -0.5910337
-4.9382324 6.5042949 -0.62190086
-5.1901755 6.504168 -0.63367844
-6.0090528 6.5037541 -0.67431486
-6.306416 6.503603 -0.68987465
-6.531074 6.4179678 -0.69730514
-6.854033 6.4178033 -0.71504807
-7.2879977 6.5013676 -0.74373776
-7.6516504 6.5011821 -0.76461738
-8.4450293 6.5007744 -0.81158513
-10.956474 6.4994779 -0.97012711
-11.583916 6.4991508 -1.0115029
-12.109736 6.4150896 -1.0435996
-13.03289 6.506496 -1.1093007
-13.858915 6.5060663 -1.1659079
-14.774238 6.505589 -1.229345
-16.891748 6.4844232 -1.3778796
-20.610098 5.7047381 -1.6285326
-20.729473 5.2028446 -1.6275719
-22.908007 3.4482841 -1.7641619
-23.032694 2.3378711 -1.7630224
-23.076651 1.7811608 -1.7625822
-23.127577 0.66577941 -1.761963
-23.13455 0.10769042 -1.7617841
-23.111591 -1.0081836 -1.7616873
-23.039375 -2.1220157 -1.7619394
-22.984804 -2.6775827 -1.7621963
-22.747656 -4.3358526 -1.7634884
-22.528622 -5.4319572 -1.7647827
-22.400848 -5.9764276 -1.7655597
-20.493202 -6.0006223 -1.6261455
-19.239775 -7.7146826 -1.5785638
-20.713692 -10.727225 -1.7763879
-20.467548 -11.233989 -1.7780111
-19.369179 -13.207918 -1.78532
-18.093143 -15.084946 -1.793908
-17.390537 -15.982331 -1.7986685
-17.023466 -16.419909 -1.8011627
-16.258623 -17.271694 -1.8063736
-15.861073 -17.685394 -1.8090891
-15.453584 -18.09074 -1.8118767
-15.036386 -18.487339 -1.8147349
-13.727802 -19.623013 -1.8237252
-12.543877 -19.910648 -1.792074
-9.5444136 -20.191504 -1.7007737
-9.0720119 -20.455238 -1.7040533
-8.5927248 -20.708532 -1.707384
-8.1066799 -20.951189 -1.7107648
-5.4681249 -21.543825 -1.6926467
-4.3737693 -21.541592 -1.6739273
-3.300869 -21.539396 -1.6594363
-2.7711327 -21.541546 -1.6539696
-1.1980761 -21.539637 -1.6428411
0.36207029 -21.537622 -1.6403844
0.88088864 -21.505985 -1.6391166
2.4402537 -21.443403 -1.6435189
2.9658301 -21.443361 -1.6485201
3.5017576 -21.485416 -1.6577697
4.0516014 -21.567942 -1.6711929
4.6374216 -21.777151 -1.6955789
5.2617087 -22.079994 -1.7285383
6.5711231 -22.664812 -1.7970695
7.1022949 -22.45645 -1.7936159
7.632236 -22.250414 -1.7913445
9.2038374 -23.131254 -1.8958302
9.8073635 -23.015715 -1.9052038
12.856006 -22.275343 -1.9585757
14.082753 -21.889433 -1.9821265
16.347403 -20.710941 -2.0093124
6.4791698 -7.8133993 -0.77297539
17.408085 -19.991005 -2.0186722
17.926416 -19.610315 -2.0233219
18.436348 -19.216022 -2.0279479
19.911249 -17.953072 -2.0416501
20.383348 -17.505976 -2.0461485
21.295879 -16.574034 -2.055022
21.735643 -16.089624 -2.0593908
22.163837 -15.593295 -2.0637095
22.580156 -15.08521 -2.0679755
22.984081 -14.565693 -2.0721843
23.375546 -14.035061 -2.0763345
23.754013 -13.4936 -2.0804217
24.470585 -12.379392 -2.0883942
23.716005 -9.249073 -1.9385275
24.758993 -6.3542957 -1.9465758
25.584101 -5.9121389 -1.9996459
27.22328 -5.6027575 -2.116581
27.490341 -4.2876706 -2.1187751
27.597607 -3.6248074 -2.1196876
27.687304 -2.9591539 -2.1204765
27.813545 -1.6212274 -2.12168
27.868612 -0.27788696 -2.1223814
27.869326 0.3944647 -2.1225426
27.852177 1.0666815 -2.1225774
27.764238 2.4084387 -2.122267
27.605185 3.7433062 -2.1214523
27.499111 4.4069195 -2.1208563
25.208584 4.6661382 -1.9523144
25.078691 5.2708111 -1.9515362
22.711561 6.5193081 -1.7993976
19.165762 6.5173345 -1.5416049
17.74754 6.516768 -1.4397606
13.542402 6.5151691 -1.1444341
12.745234 6.5148492 -1.0900341
11.356729 6.5142875 -0.99702436
10.184033 6.5138125 -0.92061263
9.0580177 6.4295659 -0.84590203
7.9013867 6.5168195 -0.77996475
7.5238085 6.5166645 -0.75799549
7.1667576 6.5165167 -0.73765087
6.8281541 6.516376 -0.71877366
6.1995506 6.5161152 -0.68492603
5.9065919 6.5159941 -0.66973627
5.6261911 6.5158758 -0.6555804
5.3572559 6.5157633 -0.64237428
4.8499022 6.5155487 -0.61854476
3.6731737 6.4264288 -0.56368953
3.4728026 6.4311748 -0.5565924
3.1196778 6.5099735 -0.54973489
2.9286816 6.5098906 -0.54360211
2.3790135 6.5096512 -0.52779347
2.2024999 6.509573 -0.52332604
1.8577734 6.5094194 -0.51550055
1.6890429 6.5093451 -0.5121181
1.5224218 6.5092716 -0.50907451
1.1945801 6.5091238 -0.50396347
1.0329394 6.5090508 -0.50188166
0.87252927 6.5089788 -0.50010729
0.71316403 6.5089068 -0.49863556
0.39673826 6.5087628 -0.49657735
-0.074804686 6.5085454 -0.49567333
-0.23192382 6.508471 -0.49594995
-1.0252148 6.508101 -0.5017184
-1.1711328 6.4223514 -0.49714258
-1.331953 6.4222746 -0.49947837
-1.494375 6.4221978 -0.5021314
-1.659121 6.4240141 -0.5052557
-1.8487695 6.5058136 -0.51504856
-2.0195606 6.5057316 -0.51874894
-2.73125 6.5053864 -0.53729105
-2.9177442 6.5052958 -0.54294109
-3.1083202 6.5052018 -0.54903376
-3.7082617 6.5049067 -0.5702045
-3.9190624 6.5048027 -0.57831526
-4.1360841 6.5046954 -0.58700734
-4.3598728 6.5045829 -0.59631902
-4.5909958 6.504467 -0.60628754
-5.0779686 6.5042229 -0.62838823
-5.3353124 6.5040936 -0.64062756
-5.6030564 6.5039592 -0.65374053
-5.8821287 6.503819 -0.66779822
-6.7096677 6.4178762 -0.70706487
-7.1338964 6.5014472 -0.73502654
-7.4888473 6.5012665 -0.75521511
-8.2618551 6.5008683 -0.80058122
-8.6847944 6.5006509 -0.82612133
-9.1358595 6.5004191 -0.85385901
-10.695801 6.4996109 -0.95311046
-11.300879 6.4992986 -0.99276656
-12.693682 6.5066738 -1.0862565
-13.484677 6.5062604 -1.1401775
-14.358788 6.505806 -1.200467
-16.420498 6.5047259 -1.3450067
-20.418417 6.423533 -1.6300551
-20.553915 5.9251957 -1.6289811
-22.787676 4.2448125 -1.765198
-22.873827 3.6923394 -1.7644604
-22.947783 3.1383038 -1.7638086
-23.009443 2.5829773 -1.7632437
-23.058807 2.0266449 -1.7627654
-23.09585 1.4694684 -1.762374
-23.120615 0.91176814 -1.7620695
-23.133085 -0.2043817 -1.7617221
-23.120878 -0.76237059 -1.7616787
-23.059473 -1.8768243 -1.7618542
-23.010351 -2.4328482 -1.7620724
-22.948935 -2.9877248 -1.7623779
-22.875244 -3.5412474 -1.7627707
-22.691319 -4.6431904 -1.7638153
-22.581034 -5.191165 -1.7644681
-22.458584 -5.7367406 -1.7652073
-21.298613 -5.991303 -1.6849041
-20.276093 -6.7747893 -1.6279964
-19.951122 -7.7546959 -1.6300671
-19.582441 -8.7206593 -1.6324502
-19.381865 -9.1978741 -1.6337579
-20.818516 -10.502242 -1.7756988
-20.577471 -11.011252 -1.7772852
-19.785654 -12.507298 -1.7825375
-11.594199 -7.7267575 -1.0610381
-19.201366 -13.476508 -1.7864443
-17.900898 -15.338713 -1.7952086
-17.548944 -15.787026 -1.7975934
-17.186571 -16.227951 -1.8000537
-16.813721 -16.661272 -1.80259
-16.430733 -17.086718 -1.8051995
-15.634433 -17.913111 -1.8106389
-15.221484 -18.313601 -1.8134662
-14.798847 -18.705309 -1.816364
-13.924726 -19.46139 -1.8223701
-12.173368 -19.913204 -1.7773641
-11.525371 -19.917534 -1.7524148
-9.7502441 -20.071962 -1.6993458
-8.3217478 -20.84549 -1.7092681
-2.2571776 -7.7524009 -0.61488259
-3.5357616 -21.539877 -1.6622806
-3.0044043 -21.541828 -1.6563494
-2.4761522 -21.541189 -1.6512254
0.13301757 -21.53825 -1.6402316
0.65277344 -21.536823 -1.640847
1.17125 -21.497955 -1.639559
2.2104688 -21.452291 -1.6423049
2.7337401 -21.44338 -1.6461931
4.3770604 -21.684172 -1.6846169
4.9803123 -21.930813 -1.7126166
5.6344628 -22.305387 -1.7519778
6.3345895 -22.750776 -1.7984387
6.8656445 -22.53915 -1.7942849
7.9297166 -22.139772 -1.7908914
10.145859 -22.946768 -1.9106511
10.753144 -22.815527 -1.9207702
13.19707 -22.17013 -1.9648021
14.424345 -21.769308 -1.9886895
15.013906 -21.513266 -1.9978161
15.565068 -21.194788 -2.0025334
17.176943 -20.15444 -2.0166152
19.699951 -18.146025 -2.0396554
20.176533 -17.704597 -2.0441709
22.398125 -15.31063 -2.0661016
22.807608 -14.796104 -2.0703363
24.735909 -12.09739 -2.09692
25.35335 -10.917293 -2.102123
25.63538 -10.312976 -2.1042578
24.081718 -8.3626566 -1.9413196
24.297176 -7.7859807 -1.9429773
24.682392 -6.6152167 -1.9459735
27.30496 -5.236649 -2.1172435
27.55249 -3.9174068 -2.1193006
27.729784 -2.585849 -2.1208637
27.836151 -1.24596 -2.121927
27.87122 0.098097533 -2.1224871
27.861942 0.7704016 -2.1225774
27.834774 1.4422876 -2.1225417
27.789785 2.1131275 -2.1223791
27.726933 2.7825236 -2.1220901
27.646297 3.4499199 -2.1216748
27.547997 4.1147418 -2.121134
26.212929 4.564322 -2.0262294
25.137918 5.0047016 -1.9518932
24.999081 5.6072478 -1.9510512
24.674345 6.7994986 -1.9490627
21.606405 6.5188675 -1.7186476
18.348886 6.5170083 -1.4828399
15.873379 6.5160174 -1.3066885
13.087041 6.514987 -1.1132801
11.642031 6.5144024 -1.0159328
11.009648 6.5141473 -0.97417861
10.426806 6.5139103 -0.93624473
9.8874121 6.5136919 -0.90166044
8.8037596 6.429462 -0.83018386
8.074892 6.5168915 -0.79020643
7.6876073 6.5167313 -0.76747036
7.3217478 6.5165811 -0.74642837
6.9752636 6.5164371 -0.72692358
6.3329587 6.516171 -0.6919716
5.7483201 6.5159268 -0.66169751
5.2114744 6.5157013 -0.6353789
4.9584961 6.515595 -0.6235199
4.7146091 6.515491 -0.61244524
4.4791112 6.5153923 -0.60210073
3.9757421 6.4265556 -0.57547885
3.7644432 6.4264665 -0.56717145
3.5616698 6.4312139 -0.55984384
2.8237011 6.5098453 -0.5403679
2.6389551 6.5097661 -0.53491914
2.4578125 6.5096855 -0.52988583
2.2799413 6.5096073 -0.52524793
2.1050584 6.5095305 -0.52099174
1.266289 6.5091558 -0.50498033
0.94310546 6.5090103 -0.50085264
0.78329098 6.5089374 -0.49924713
0.62440431 6.5088654 -0.49794024
0.15145507 6.5086493 -0.49578303
-0.0056054685 6.5085773 -0.49564418
-0.16264649 6.5085039 -0.49579281
-0.31988281 6.5084305 -0.49623048
-0.47750977 6.5083575 -0.49695873
-0.79457027 6.5082083 -0.4992955
-1.2608789 6.4223099 -0.49840996
-1.5860058 6.4221539 -0.50375581
-1.9439746 6.5057669 -0.51707363
-2.1161816 6.5056853 -0.52097446
-2.2911229 6.5056 -0.52524209
-2.6502538 6.5054264 -0.53493649
-3.0237792 6.5052447 -0.54629171
-3.414453 6.5050516 -0.55947053
-3.6171777 6.5049515 -0.56680363
-4.2603612 6.5046329 -0.59213591
-4.4881639 6.5045195 -0.60180861
-4.7236915 6.5044012 -0.61216593
-4.9675779 6.5042791 -0.62325329
-5.7576561 6.503881 -0.66148055
-6.0435643 6.503736 -0.67610151
-6.5684862 6.4179482 -0.69934201
-8.0835934 6.5009613 -0.78996229
-8.9333296 6.5005231 -0.84134549
-9.4016304 6.5002813 -0.87042451
-9.9037104 6.5000238 -0.90212548
-11.645478 6.4900126 -1.0152541
-12.193749 6.4150467 -1.0492471
-13.126513 6.5064468 -1.1156827
-14.889287 6.505528 -1.2373686
-16.891708 6.4291325 -1.3763735
-20.355059 6.6422625 -1.630543
-20.624804 5.6454153 -1.6284149
-20.742851 5.1432548 -1.6274635
-22.62957 4.4648895 -1.756533
-22.837372 3.9360528 -1.7647748
-22.916748 3.3826725 -1.7640851
-22.983789 2.8279326 -1.763482
-23.038603 2.2719879 -1.7629653
-23.081055 1.7151726 -1.7625357
-23.129032 0.5997467 -1.7619375
-23.13455 0.041593626 -1.7617688
-23.127773 -0.51648134 -1.7616873
-23.108643 -1.0742127 -1.7616928
-23.033495 -2.1878629 -1.7619656
-22.977509 -2.7433002 -1.7622327
-22.909277 -3.2974236 -1.7625865
-22.82876 -3.8500769 -1.7630274
-22.631161 -4.9498777 -1.7641696
-22.514139 -5.4965687 -1.7648703
-22.164492 -5.9812512 -1.748269
-20.189657 -7.0500603 -1.628544
-20.685106 -10.78745 -1.776576
-20.437675 -11.293694 -1.7782083
-20.178711 -11.79481 -1.7799233
-19.626747 -12.780642 -1.7835977
-18.715136 -14.214972 -1.7897115
-18.389317 -14.680308 -1.7919077
-18.052715 -15.138866 -1.7941815
-15.81333 -17.73385 -1.8094153
-15.404677 -18.138147 -1.8122115
-14.986347 -18.533752 -1.8150778
-14.558417 -18.920448 -1.8180145
-14.121113 -19.297964 -1.8210193
-13.674356 -19.666094 -1.8240932
-13.140771 -19.906403 -1.8164407
-11.170683 -19.919825 -1.7391969
-10.549375 -19.923689 -1.7168121
-9.9550095 -19.950497 -1.697926
-8.5354977 -20.737804 -1.7077817
-7.5554004 -21.209736 -1.7146032
-7.0558786 -21.429253 -1.7180848
-4.8531833 -21.54257 -1.6816442
-4.3096972 -21.54146 -1.6729531
-3.2379589 -21.539267 -1.6587094
-1.6583301 -21.540195 -1.6452038
-0.09604492 -21.538876 -1.640265
3.0283008 -21.443356 -1.6491799
4.707871 -21.802315 -1.6985745
5.3381934 -22.120548 -1.7329
6.0343456 -22.600227 -1.7813647
6.6336327 -22.638594 -1.7964849
7.6953321 -22.227236 -1.7912418
9.2750683 -23.118082 -1.8969152
9.8789253 -23.001368 -1.9063449
10.485126 -22.87463 -1.9162502
11.09372 -22.737623 -1.9266393
12.928301 -22.25337 -1.9598833
13.538731 -22.061316 -1.9711659
14.156142 -21.865971 -1.9836602
14.763447 -21.641357 -1.9950134
15.3229 -21.336948 -2.0004549
15.870429 -21.010454 -2.0051675
16.411055 -20.669865 -2.0098684
6.5236716 -7.8214722 -0.77561468
17.469824 -19.94673 -2.019223
17.987217 -19.564384 -2.0238705
18.996113 -18.759115 -2.0330892
19.486729 -18.33647 -2.0376542
20.438564 -17.452251 -2.0466785
21.348574 -16.517309 -2.055542
23.031162 -14.503479 -2.072679
23.421024 -13.971511 -2.0768218
25.512949 -10.580415 -2.1033301
23.982002 -8.6149206 -1.9405559
24.204042 -8.0409155 -1.9422594
24.411005 -7.4609265 -1.9438578
24.602753 -6.8751445 -1.9453498
27.381142 -4.8693242 -2.1178677
27.503935 -4.2093806 -2.1188893
27.609188 -3.5461648 -2.1197877
27.696747 -2.8801482 -2.1205616
27.766699 -2.211839 -2.1212115
27.869608 -0.19832458 -2.122407
27.868271 0.47408935 -2.1225536
27.848955 1.1461297 -2.1225731
27.684052 3.155993 -2.1218736
27.593534 3.8220403 -2.1213882
27.48542 4.4851885 -2.1207776
25.194023 4.7378755 -1.9522281
25.062235 5.3421063 -1.9514364
24.914511 5.9423895 -1.9505312
18.987518 6.5172634 -1.5287603
13.443857 6.515131 -1.1376733
11.938525 6.5145245 -1.035699
11.281923 6.514257 -0.99208713
10.678046 6.5140128 -0.95252818
10.120175 6.5137858 -0.91651988
9.6026659 6.513576 -0.88362837
8.6756639 6.5171366 -0.82632047
7.8555369 6.5168009 -0.777273
7.4805565 6.5166459 -0.75550747
7.125752 6.5164995 -0.73534155
6.1641502 6.5161004 -0.68307137
5.8728027 6.5159793 -0.66800988
5.3261328 6.5157499 -0.64087182
5.0688376 6.5156412 -0.62864816
4.8210254 6.5155363 -0.61723262
4.581953 6.5154352 -0.60657471
4.3508396 6.5153375 -0.59661818
3.8568261 6.4265056 -0.57076406
3.6488965 6.4264178 -0.56276989
2.7199512 6.5098004 -0.53726888
2.3579688 6.5096402 -0.52724367
2.181787 6.5095649 -0.52282232
2.0084374 6.5094867 -0.51877242
1.6692284 6.5093374 -0.51174015
1.5028321 6.5092621 -0.50873578
1.1754102 6.5091143 -0.50370091
0.85361326 6.5089703 -0.49991786
0.69434571 6.5088968 -0.49847999
-0.093417965 6.5085354 -0.49569109
-0.25054687 6.5084624 -0.49600112
-0.5658496 6.508316 -0.49749225
-1.1900879 6.4223418 -0.49740246
-1.6787109 6.4240031 -0.50563043
-2.3902342 6.5055523 -0.52779382
-2.5699706 6.5054646 -0.53266245
-2.9400682 6.5052848 -0.54363877
-3.1311524 6.5051908 -0.54978496
-3.3267283 6.5050955 -0.55639923
-3.7328906 6.5048943 -0.57113439
-3.9444237 6.5047903 -0.57931405
-4.1622167 6.5046821 -0.58807737
-4.3868456 6.5045695 -0.59746289
-4.8589649 6.504334 -0.61827219
-5.1079102 6.5042081 -0.62979358
-5.3664646 6.5040774 -0.642133
-5.635498 6.5039434 -0.65535414
-5.9159665 6.5038004 -0.66952729
-6.209043 6.5036526 -0.68473625
-6.4302926 6.4180179 -0.69185978
-7.174902 6.5014262 -0.73733598
-8.7366695 6.5006242 -0.8292864
-9.6779299 6.5001397 -0.88780653
-10.200869 6.4998684 -0.92112148
-10.764932 6.499577 -0.95761448
-11.375898 6.4992595 -0.99772054
-11.885468 6.4152069 -1.028541
-14.468476 6.5057473 -1.208078
-17.801016 6.5016766 -1.4431883
-20.569218 5.8660016 -1.6288592
-20.692158 5.3649249 -1.6278735
-20.803974 4.8614798 -1.6269658
-22.955723 3.0726593 -1.7637373
-23.015926 2.517185 -1.7631826
-23.063828 1.9607012 -1.7627145
-23.099413 1.4034381 -1.7623336
-23.133642 0.28765136 -1.7618322
-1.8511523 -19.211809 -1.9078106
-0.92448241 -19.344538 -1.9143331
-0.45901367 -19.39444 -1.9176131
0.010126953 -19.433264 -1.9209219
1.8944726 -19.476154 -1.9342376
2.8406444 -19.429228 -1.9409399
3.3154979 -19.388552 -1.9443073
4.2609863 -19.272438 -1.9510207
4.7327733 -19.196985 -1.9543747
5.6721387 -19.009979 -1.9609392
6.132822 -18.879164 -1.9621351
6.5963769 -18.75395 -1.9650924
10.978281 -16.775805 -1.9817464
12.228808 -16.024805 -1.9925314
13.42706 -15.179322 -2.0031917
14.193027 -14.564797 -2.0101984
15.287089 -13.569586 -2.0205104
15.976718 -12.859048 -2.0272262
17.250996 -11.331883 -2.0401909
17.546171 -10.929177 -2.0433209
17.831591 -10.518587 -2.0464025
16.68792 -9.3087006 -1.8888119
14.703398 -7.7427759 -1.6425864
17.56831 -7.6842718 -1.8954153
17.762304 -7.2638731 -1.8968849
17.945538 -6.8383017 -1.8982794
18.279091 -5.9728508 -1.9008394
20.30208 -5.0424829 -2.0677655
20.427753 -4.5534873 -2.0687675
20.640879 -3.565902 -2.0705042
20.802675 -2.5679173 -2.0718803
20.864082 -2.0658867 -2.0724313
20.9125 -1.5623345 -2.0728905
20.947802 -1.0576 -2.0732574
20.970009 -0.55204713 -2.0735319
20.974951 0.46007812 -2.0738018
20.827265 2.4782109 -2.073226
20.579571 3.9751031 -2.0718219
20.471279 4.4689713 -2.0711708
18.765888 4.5736003 -1.9092404
18.616259 5.0158329 -1.9057757
18.178135 6.3395805 -1.9029846
18.009825 6.7724404 -1.9019179
16.134609 6.5157804 -1.7199899
12.503574 6.5144744 -1.3936241
11.799384 6.5142021 -1.332268
11.154219 6.5139518 -1.276799
10.560312 6.513721 -1.2264491
10.011132 6.5135074 -1.1805791
9.5012989 6.5133085 -1.138657
8.9099703 6.4292898 -1.0860671
8.5869818 6.5168877 -1.0655547
8.1697655 6.5167241 -1.0329949
7.7770505 6.5165691 -1.0029303
7.055449 6.5162821 -0.94934517
6.7224512 6.5161481 -0.9254241
5.8147264 6.5157828 -0.86323196
5.5381446 6.5156708 -0.84526622
4.0266309 6.4264297 -0.74961942
3.4502344 6.5099726 -0.72827351
3.251533 6.5098882 -0.71927899
2.6823144 6.5096455 -0.69593686
2.3217285 6.5094891 -0.68313873
1.9733691 6.5093374 -0.67233872
1.3049121 6.5090432 -0.65619445
0.82103515 6.5088263 -0.64846909
0.66195309 6.5087552 -0.6466831
0.50365233 6.5086823 -0.6452803
0.18866211 6.5085382 -0.64361233
0.031591795 6.5084662 -0.64334333
-0.12545899 6.5083928 -0.64344788
-0.28262696 6.5083208 -0.64392728
-0.44011718 6.5082464 -0.64478272
-0.91645503 6.5080218 -0.64963865
-1.0771289 6.5079474 -0.65203506
-1.2227832 6.4221988 -0.64621329
-1.3841015 6.422122 -0.64937752
-1.5470898 6.4220438 -0.65295351
-1.7124707 6.4238577 -0.65714842
-2.2493846 6.5054851 -0.68039525
-2.4265723 6.5053997 -0.68631101
-2.7908983 6.505219 -0.69969451
-3.1706054 6.5050297 -0.71530819
-3.5686133 6.5048308 -0.7333805
-3.9882324 6.5046196 -0.75419074
-4.2073731 6.5045085 -0.76572698
-4.4334373 6.5043926 -0.77807975
-4.6670604 6.5042715 -0.7913065
-4.908916 6.5041494 -0.80546796
-5.4203124 6.5038848 -0.83687305
-5.6915917 6.5037456 -0.85427868
-5.9745603 6.5035977 -0.87294167
-6.4936914 6.4178081 -0.90246367
-6.8147655 6.4176397 -0.92529386
-7.2460251 6.5011978 -0.96227217
-7.6072946 6.501009 -0.9891265
-9.2874899 6.5001187 -1.1205417
-12.026142 6.414866 -1.3472869
-12.939815 6.506259 -1.4316385
-13.756074 6.5058208 -1.5041434
-15.402987 6.8349848 -1.6657029
-15.948613 5.3053803 -1.6614053
-16.063223 4.9164433 -1.6605045
-17.608398 4.4729719 -1.7958114
-17.759491 4.0579643 -1.8007132
-17.845253 3.6269438 -1.8000066
-17.921171 3.1942792 -1.7993692
-18.043692 2.3248193 -1.7983007
-18.090157 1.8884258 -1.7978708
-18.126816 1.4511811 -1.79751
-18.170527 0.57504392 -1.7969975
-18.16206 -0.74030519 -1.796752
-18.139521 -1.178255 -1.7968097
-18.10708 -1.6156176 -1.7969375
-18.064844 -2.0521505 -1.7971349
-18.012743 -2.4877167 -1.797402
-17.950859 -2.9220581 -1.7977389
-17.797773 -3.7863107 -1.7986207
-17.706602 -4.2158098 -1.7991656
-17.495264 -5.068574 -1.8004622
-17.375135 -5.4914341 -1.8012136
-16.176474 -5.9850454 -1.7049222
-15.469727 -6.5882587 -1.6620297
-14.801865 -8.0693541 -1.666409
-14.613809 -8.4303703 -1.667655
-14.417441 -8.7873163 -1.6689608
-14.2129 -9.1400118 -1.6703253
-14.458603 -11.40775 -1.8204648
-13.347207 -12.800573 -1.828001
-13.049004 -13.133359 -1.8300327
-12.429052 -13.779286 -1.8342669
-12.107578 -14.091997 -1.8364675
-11.098555 -14.986967 -1.8433955
-10.74787 -15.270275 -1.8458096
-9.6547852 -16.072937 -1.8533535
-9.2772846 -16.324112 -1.8559647
-8.5036325 -16.800964 -1.8613251
-7.2991309 -17.449997 -1.8696924
-6.4689355 -17.836721 -1.8754736
-6.0462694 -18.015852 -1.8784212
-4.3099899 -18.634224 -1.8905563
-3.4175487 -18.882658 -1.8968098
-2.9659667 -18.99128 -1.899978
-2.5109863 -19.089321 -1.9031729
-2.0531151 -19.176683 -1.9063905
-0.66591793 -19.373806 -1.9161547
0.27145508 -19.450108 -1.9227661
0.74185544 -19.4715 -1.9260876
1.2134277 -19.481569 -1.9294201
2.159121 -19.467663 -1.9361115
3.5790136 -19.360752 -1.9461774
4.9961228 -19.149729 -1.9562478
5.4659376 -19.056154 -1.9595922
5.9280663 -18.931669 -1.9609289
6.3919625 -18.809433 -1.9636734
7.3142481 -18.536253 -1.9697363
7.758574 -18.352922 -1.969566
8.1913862 -18.14345 -1.9677277
9.4895306 -17.517605 -1.9693017
9.927578 -17.315372 -1.9729217
10.361367 -17.102133 -1.9765404
10.790586 -16.878054 -1.980155
11.634306 -16.397436 -1.9873638
12.456367 -15.874228 -1.9945301
13.644004 -15.011518 -2.0051601
14.026601 -14.70365 -2.008662
15.130703 -13.72121 -2.0190122
15.483242 -13.374632 -2.022402
15.827598 -13.018779 -2.0257583
16.490673 -12.28014 -2.0323594
16.808819 -11.89771 -2.0355992
17.707031 -10.700549 -2.0450506
17.986807 -10.285594 -2.0481033
14.708515 -7.9464025 -1.6525031
17.270126 -8.2803402 -1.8931683
17.479374 -7.8678679 -1.8947438
17.678085 -7.4498301 -1.8962462
17.866083 -7.0265164 -1.897674
18.209394 -6.165175 -1.9003018
18.98583 -5.9215336 -1.9658471
20.242714 -5.2569036 -2.067296
20.373926 -4.7694674 -2.068337
20.49246 -4.278573 -2.0692892
20.691319 -3.2878063 -2.0709255
20.771465 -2.7886174 -2.0716083
20.838614 -2.2873893 -2.0721996
20.892792 -1.7844702 -2.0726993
20.933838 -1.2802197 -2.073107
20.961826 -0.77498287 -2.073422
20.976688 -0.26911071 -2.0736446
20.978388 0.23698303 -2.0737743
20.853788 2.2567315 -2.0733621
20.789942 2.7586811 -2.0730274
19.577217 4.5513396 -1.9867506
18.671972 4.81846 -1.9061236
18.542412 5.2652335 -1.9053112
18.085274 6.5821466 -1.9023843
16.642626 6.5159745 -1.766662
15.527363 6.5155473 -1.6644764
14.346436 6.4313068 -1.5540674
13.641445 6.5149136 -1.494296
12.101973 6.5143204 -1.3585366
11.431874 6.5140605 -1.3005768
9.1127539 6.4293694 -1.1023903
8.6939058 6.4534955 -1.0702479
8.3504686 6.5167947 -1.0470215
7.9473143 6.5166373 -1.0158913
7.2078123 6.5163422 -0.96046627
6.234951 6.5159526 -0.89144069
5.9404392 6.5158329 -0.87155885
4.8787889 6.5154018 -0.80456984
4.1793065 6.5151129 -0.76510608
3.9068651 6.4263797 -0.74339789
3.6975 6.4262919 -0.73285145
3.3385155 6.5099249 -0.7231645
3.1424999 6.5098419 -0.71452343
2.5801368 6.5096025 -0.69214863
2.2231934 6.5094461 -0.67992538
2.0492089 6.5093708 -0.67455542
1.8778417 6.5092959 -0.66965741
1.708877 6.5092216 -0.66521406
1.5420214 6.5091496 -0.66121137
1.2137988 6.5090032 -0.65447927
1.052002 6.5089297 -0.65173042
0.89144528 6.5088577 -0.64938056
0.73196286 6.5087872 -0.64742184
0.57333982 6.5087137 -0.64585143
0.25795898 6.5085711 -0.64385128
0.10081054 6.5084977 -0.64341503
-0.056210935 6.5084257 -0.64335525
-0.84595704 6.5080557 -0.64870739
-1.0061523 6.5079803 -0.65092969
-1.3128027 6.4221563 -0.64793211
-1.6395215 6.423892 -0.65533179
-1.9991698 6.5056071 -0.67273164
-2.1722167 6.5055227 -0.67794508
-2.3480859 6.5054374 -0.68364149
-2.5270312 6.5053496 -0.68983871
-3.4791503 6.5048761 -0.72917283
-3.6835938 6.5047722 -0.73890877
-3.8937011 6.5046659 -0.74935204
-4.80124 6.5042033 -0.79910642
-5.0480175 6.5040774 -0.81381887
-5.5706348 6.5038066 -0.84645867
-5.84832 6.503664 -0.86455387
-7.4455857 6.5010929 -0.97703499
-7.8183007 6.5008965 -1.0050662
-8.2132711 6.500689 -1.0353729
-9.0805569 6.5002298 -1.103851
-10.073174 6.4997001 -1.1849824
-10.626914 6.4994049 -1.2313182
-11.226171 6.4990826 -1.2822067
-11.739267 6.4231195 -1.322724
-13.386348 6.5060196 -1.4711984
-14.249765 6.5055547 -1.5483874
-15.767959 5.8613858 -1.662812
-16.013779 5.0881743 -1.6608942
-16.123476 4.6979375 -1.6600276
-16.909599 4.4874382 -1.729314
-17.808641 3.8171735 -1.8003095
-17.959364 2.9516754 -1.7990428
-18.020039 2.5168598 -1.7985126
-18.111876 1.6440228 -1.7976605
-18.175684 0.32985291 -1.796904
-18.168858 -0.54712278 -1.7967486
-18.150682 -0.9852826 -1.7967755
-18.122606 -1.4228954 -1.7968724
-18.084667 -1.8598406 -1.7970392
-18.036924 -2.2958355 -1.7972757
-17.834833 -3.5963919 -1.7984027
-17.747978 -4.026742 -1.7989169
-17.303827 -5.7267661 -1.8016632
-15.676719 -6.0418034 -1.660693
-15.53497 -6.4217606 -1.661607
-15.384561 -6.7986093 -1.6625832
-14.882099 -7.9089756 -1.6658785
-14.304072 -8.9850922 -1.6697166
-11.633389 -7.7049651 -1.3793536
-15.070703 -10.513251 -1.8163439
-14.572909 -11.248581 -1.8196936
-14.311172 -11.608119 -1.821461
-14.041083 -11.961965 -1.8232888
-13.762675 -12.309938 -1.825177
-13.181425 -12.987481 -1.8291302
-12.568359 -13.639231 -1.8333142
-12.250205 -13.955024 -1.8354908
-11.591348 -14.565386 -1.8400085
-8.6762495 -16.698856 -1.8601282
-8.2830372 -16.928062 -1.8628557
-7.8839841 -17.148424 -1.8656265
-6.2331638 -17.93807 -1.8771174
-5.8078513 -18.11182 -1.8800848
-2.2745898 -7.7298431 -0.796462
-4.0618067 -18.707836 -1.8922943
-2.7122071 -19.047401 -1.9017596
-2.2552342 -19.139479 -1.9049697
-1.7961816 -19.220871 -1.9081973
-0.86925781 -19.351023 -1.9147221
0.076748043 -19.437119 -1.9213922
1.0054492 -19.478518 -1.9279501
3.370791 -19.382946 -1.9446996
4.3169041 -19.26412 -1.9514182
4.7885251 -19.1873 -1.9547713
5.2590137 -19.098835 -1.9581188
6.1877341 -18.864695 -1.9624587
6.6512108 -18.738649 -1.9654735
7.1128902 -18.603102 -1.9686847
8.0021486 -18.239021 -1.9687523
8.427949 -18.015322 -1.9659849
8.8515329 -17.789581 -1.9640875
9.2951756 -17.603252 -1.967706
9.7349997 -17.40587 -1.9713262
11.866426 -16.255415 -1.9893725
12.682051 -15.720444 -1.9965237
13.08082 -15.437375 -2.0000761
13.858779 -14.840587 -2.0071213
16.016493 -12.815859 -2.0276194
16.347509 -12.445999 -2.0309176
16.982763 -11.680137 -2.0373926
17.286455 -11.284633 -2.0405641
17.580517 -10.88097 -2.0436885
17.864727 -10.46947 -2.0467639
17.591797 -7.6347814 -1.8955929
17.78458 -7.2137442 -1.8970541
18.13752 -6.3565941 -1.8997492
20.180918 -5.470561 -2.0668094
20.317617 -4.9847722 -2.0678887
20.553204 -4.0026898 -2.069783
20.737724 -3.008956 -2.0713186
20.917353 -1.5026422 -2.0729387
20.971767 -0.49216491 -2.0735581
