# .PCD v0.7 - Point Cloud Data file format
VERSION 0.7
FIELDS x y z
SIZE 4 4 4
TYPE F F F
COUNT 1 1 1
WIDTH 1491
HEIGHT 1
VIEWPOINT 0 0 0 1 0 0 0
POINTS 1491
DATA ascii
8.7769432 6.5135674 -0.83233702
6.8694239 6.5167227 -0.72106886
6.2370605 6.5164604 -0.68691695
5.9425097 6.5163369 -0.67159575
4.4064646 6.5156889 -0.59900284
4.1809864 6.5155926 -0.58954895
3.9623632 6.5154996 -0.58072114
3.7500975 6.515408 -0.57248157
3.1035352 6.4265103 -0.54347306
2.9144726 6.4264274 -0.53736287
2.7315624 6.4311833 -0.53209722
2.5815625 6.5100689 -0.53331298
2.4014843 6.5099893 -0.52840692
2.22458 6.5099115 -0.52389187
1.7102149 6.5096831 -0.51255018
1.3783886 6.5095353 -0.50670838
1.0533007 6.5093889 -0.50215292
0.73325193 6.5092425 -0.49882972
0.57463866 6.5091715 -0.49761587
-0.054931641 6.5088835 -0.49568388
-0.21201171 6.5088091 -0.49592376
-0.36933592 6.5087357 -0.49645346
-0.84463865 6.5085135 -0.49979416
-1.0048046 6.5084381 -0.5015046
-1.1661719 6.5083609 -0.50352025
-1.6594824 6.5081253 -0.51146764
-1.8277441 6.5080462 -0.51477778
-2.1427832 6.422215 -0.51556951
-2.3163476 6.4221306 -0.51989895
-2.4936914 6.4239397 -0.52476263
-3.4773827 6.5053482 -0.56173331
-5.0457029 6.5045671 -0.6268993
-5.3017578 6.5044379 -0.63902992
-5.8456345 6.5041642 -0.66595709
-6.135488 6.5040164 -0.68090165
-6.4388475 6.5038629 -0.69694638
-6.7569823 6.5037003 -0.71419036
-7.0914841 6.5035295 -0.73274779
-7.3462009 6.4178791 -0.74285871
-7.7159762 6.4194241 -0.76435697
-8.2091894 6.5012236 -0.7974484
-11.219609 6.4996662 -0.98742074
-11.870205 6.4993277 -1.0305789
-12.434375 6.4233465 -1.0657856
-13.377392 6.5066423 -1.1328373
-15.198271 6.5056915 -1.2589703
-16.271093 6.5051322 -1.3344443
-17.481474 6.5044961 -1.4204317
-18.852636 6.5014496 -1.5186545
-20.401953 6.4894485 -1.6303709
-20.538857 5.9914932 -1.6292886
-20.664667 5.4909234 -1.6282841
-20.965693 4.5008707 -1.6329774
-22.77787 4.3179865 -1.7654939
-22.94125 3.211834 -1.7640835
-23.00452 2.6566937 -1.7635076
-23.094238 1.5433825 -1.7626157
-23.120584 0.98568785 -1.7623
-23.125761 -0.68850648 -1.7618747
-23.10284 -1.2461102 -1.761907
-23.020117 -2.3592851 -1.7622328
-22.960361 -2.9143732 -1.7625258
-22.888271 -3.468055 -1.7629062
-22.804043 -4.0202303 -1.7633728
-22.707567 -4.5705147 -1.7639261
-22.598867 -5.1187763 -1.7645663
-22.478065 -5.6647415 -1.7652926
-21.549883 -5.9871531 -1.7032471
-20.298359 -6.7095079 -1.6280376
-19.610458 -8.6572495 -1.6324422
-20.852011 -10.434618 -1.7756667
-20.361454 -11.448909 -1.7788949
-20.099003 -11.948321 -1.7806323
-19.540077 -12.930688 -1.7843509
-18.618233 -14.359267 -1.7905282
-17.949141 -15.27884 -1.7950393
-17.237549 -16.169987 -1.7998568
-15.690693 -17.85936 -1.8103871
-15.27915 -18.261 -1.8131998
-14.857812 -18.653872 -1.8160837
-14.426991 -19.037716 -1.8190367
-13.986856 -19.412327 -1.8220575
-13.537304 -19.777496 -1.825147
-11.611845 -19.915724 -1.7556068
-10.97917 -19.919786 -1.7321115
-9.3460541 -20.304924 -1.7022157
-2.9228027 -7.7885413 -0.63350838
-7.4045606 -21.278063 -1.7156988
-6.9031248 -21.494152 -1.7191894
-5.7889647 -21.542973 -1.6987585
-5.2348924 -21.541843 -1.6882172
-4.6874218 -21.540724 -1.6787798
-4.145752 -21.539616 -1.6704088
-3.0773046 -21.541029 -1.6570669
-0.45851561 -21.537861 -1.6405433
0.061035156 -21.508362 -1.637933
0.57969725 -21.494019 -1.6374283
2.1370897 -21.443377 -1.6410655
2.6641212 -21.469887 -1.6475286
3.7679296 -21.728817 -1.6794076
4.362617 -21.992546 -1.7074286
5.0037403 -22.381632 -1.7465044
6.2178125 -22.62561 -1.7868817
7.2830176 -22.242165 -1.782297
8.2599611 -23.308939 -1.8831985
10.666504 -22.831467 -1.9190682
11.275156 -22.690193 -1.9294997
11.885127 -22.536694 -1.9402665
12.497236 -22.372362 -1.9515121
13.109834 -22.193922 -1.9629678
14.93414 -21.554523 -1.9969283
17.100605 -20.203711 -2.0157073
17.623623 -19.830996 -2.0203633
18.1383 -19.444626 -2.024997
19.141474 -18.631372 -2.0341856
20.106874 -17.765375 -2.0432472
20.574501 -17.313108 -2.0477231
21.031601 -16.848116 -2.0521581
21.477705 -16.370905 -2.0565479
21.91247 -15.881557 -2.06089
22.335625 -15.380307 -2.0651815
22.746639 -14.867526 -2.069418
24.363876 -12.759113 -2.0944018
25.307861 -11.001089 -2.1014757
24.263222 -7.8674817 -1.9424232
24.652704 -6.6986575 -1.9454449
26.734013 -5.8959751 -2.0847952
27.279814 -5.3298063 -2.1167169
27.414804 -4.6726136 -2.1178224
27.632256 -3.3480117 -2.1196659
27.779276 -2.0127175 -2.1210139
27.866268 0.0011871337 -2.1220958
27.859589 0.67334229 -2.1222048
27.83499 1.3450952 -2.1221871
27.792538 2.0159302 -2.1220431
27.732372 2.6854742 -2.1217737
25.152323 4.9162674 -1.9516699
25.015898 5.5191765 -1.9508467
24.863504 6.117991 -1.9499096
24.695419 6.7124014 -1.9488608
20.097538 6.5185966 -1.6089787
18.444073 6.4779825 -1.4886835
17.214844 6.5168853 -1.4017504
16.034462 6.5164127 -1.3180543
14.986533 6.5159903 -1.2444742
13.202978 6.514811 -1.1211865
10.509727 6.5142756 -0.94162095
9.4577436 6.5138469 -0.87452871
8.9855566 6.5136528 -0.84515023
8.4390135 6.4335833 -0.80811036
7.7434082 6.5170832 -0.77073598
7.3745894 6.5169315 -0.74945647
6.6939259 6.5166497 -0.71142757
6.3784375 6.5165191 -0.69440788
6.0775681 6.5163946 -0.67857194
5.2498827 6.5160465 -0.63723034
4.5136328 6.5157351 -0.60361481
4.2847557 6.5156379 -0.59385628
3.6387596 6.5153604 -0.5682959
3.4352148 6.515274 -0.5608958
3.0016797 6.4264665 -0.54014242
2.4846289 6.510026 -0.53063428
2.130996 6.5098701 -0.52162778
1.6205468 6.5096426 -0.51085442
1.4547364 6.5095696 -0.50794679
0.96712887 6.5093498 -0.50114316
0.80713868 6.5092764 -0.49949241
0.33227539 6.5090618 -0.49632603
0.17499024 6.5089874 -0.49585405
0.017939452 6.508914 -0.49567184
-0.13908203 6.5088434 -0.4957765
-0.77065426 6.5085478 -0.49910381
-0.93034178 6.5084734 -0.50067371
-1.091123 6.5083976 -0.50254625
-1.2532032 6.5083194 -0.50472867
-1.7493848 6.5080829 -0.51319879
-1.8935741 6.4223356 -0.50989032
-2.0631933 6.4222541 -0.51368517
-2.4112988 6.4239788 -0.5225265
-2.6227148 6.5057659 -0.53417331
-2.9950683 6.5055852 -0.54539663
-3.5862401 6.5052958 -0.56568515
-3.7935839 6.5051923 -0.57346803
-4.9300876 6.5046268 -0.62154567
-5.999404 6.504086 -0.67383611
-6.296289 6.5039349 -0.68935728
-8.4307814 6.5011086 -0.81073964
-8.8646975 6.5008855 -0.83714169
-9.3280859 6.5006475 -0.86583984
-9.8246775 6.5003901 -0.89711404
-10.358926 6.500114 -0.93130606
-10.935742 6.4998136 -0.96878189
-11.561308 6.4994903 -1.010013
-12.243027 6.499135 -1.0555618
-13.828603 6.5064077 -1.1638286
-16.900898 6.5048003 -1.3790872
-18.170322 0.63396728 -1.7971728
-18.17874 0.19547851 -1.7970117
-18.177216 -0.24304442 -1.7969205
-18.165878 -0.68141598 -1.7968987
-17.96125 -2.8637285 -1.7978369
-17.810781 -3.7284157 -1.7986987
-17.720917 -4.1581755 -1.7992333
-17.621397 -4.5859513 -1.7998366
-17.393358 -5.434701 -1.8012499
-17.264952 -5.855278 -1.8020588
-15.491172 -6.5374918 -1.6620214
-14.82787 -8.0204334 -1.6663607
-14.640957 -8.3819723 -1.6675967
-14.445732 -8.7394552 -1.668892
-14.242285 -9.0927458 -1.6702466
-14.750986 -10.995824 -1.8186164
-14.495166 -11.359163 -1.8203384
-13.958232 -12.069018 -1.823965
-13.677295 -12.4151 -1.8258684
-13.091143 -13.088786 -1.8298507
-12.152842 -14.050076 -1.836253
-11.824843 -14.356663 -1.8384979
-11.489453 -14.655995 -1.8407965
-10.4404 -15.508894 -1.8480059
-10.076914 -15.77758 -1.8505102
-9.3302145 -16.290443 -1.8556637
-8.5582514 -16.769575 -1.8610034
-8.1632423 -16.996067 -1.8637398
-7.7624512 -17.213654 -1.8665195
-2.8615234 -7.8082657 -0.82201672
-6.1054392 -17.991806 -1.8780389
-5.6786523 -18.162575 -1.8810128
-4.8115916 -18.474546 -1.8870629
-3.9279199 -18.746246 -1.8932397
-3.0292382 -18.976704 -1.8995318
-2.5748045 -19.076176 -1.9027176
-0.26245117 -19.411745 -1.9189672
0.67575192 -19.468758 -1.9255788
3.0403612 -19.412939 -1.9422886
5.3932128 -19.047302 -1.9567802
7.2256641 -18.496626 -1.9628848
8.5378027 -17.912409 -1.9614223
10.29913 -17.131844 -1.9758754
12.8004 -15.635756 -1.9974046
13.197167 -15.349638 -2.0009463
13.587461 -15.053284 -2.0044687
14.347402 -14.430548 -2.0114455
14.716484 -14.104419 -2.0148957
15.077988 -13.768699 -2.018317
15.431611 -13.423498 -2.0217071
15.77704 -13.069036 -2.0250638
16.114092 -12.70549 -2.0283844
16.761787 -11.951896 -2.0349088
17.945009 -10.344649 -2.0474246
17.015888 -8.7440777 -1.8910452
17.236914 -8.3383827 -1.8927002
17.447588 -7.9268188 -1.8942834
17.647821 -7.5096717 -1.8957942
18.015976 -6.6596317 -1.8985912
18.183662 -6.2273364 -1.8998758
20.352949 -4.8398094 -2.067919
20.580967 -3.85603 -2.0697577
20.675859 -3.3597636 -2.0705428
20.92585 -1.3536224 -2.0727739
20.955761 -0.84862423 -2.0731025
20.972509 -0.34294617 -2.0733383
20.976162 0.16303283 -2.0734813
20.797304 2.6848912 -2.0728042
20.722382 3.185122 -2.0723913
20.634502 3.6831317 -2.0718865
18.559706 5.1990728 -1.9051844
18.42038 5.6426187 -1.9043036
16.819639 6.5163727 -1.7829764
14.67414 6.5155511 -1.5870415
13.590791 6.4313455 -1.4862252
12.950029 6.5149775 -1.432929
12.206826 6.5146918 -1.3676867
10.904776 6.5141864 -1.2555789
10.330009 6.5139604 -1.2071469
9.3025875 6.5135598 -1.1225275
7.2604003 6.5166936 -0.96435195
6.5909176 6.5164251 -0.91615349
6.2803221 6.5163007 -0.89457172
4.9158006 6.5157452 -0.80679381
4.6734571 6.515646 -0.79258931
4.4393649 6.5155487 -0.77932155
4.212832 6.5154548 -0.76692933
3.780117 6.515274 -0.74455702
3.1309764 6.4263821 -0.70660466
2.9413085 6.426302 -0.69858646
2.6076465 6.5099421 -0.69318634
2.2497656 6.5097866 -0.68080938
2.075371 6.5097113 -0.67536885
1.7343261 6.5095611 -0.6658892
1.4019531 6.5094147 -0.65818357
1.2384374 6.5093427 -0.65496367
1.0764356 6.5092707 -0.65215313
0.91572261 6.5091972 -0.64974302
0.43933594 6.5089812 -0.64485013
0.28181639 6.5089092 -0.64398175
-0.82170898 6.5083952 -0.64843512
-1.3054297 6.5081658 -0.65611947
-1.9476172 6.4221768 -0.66335523
-2.118037 6.4220939 -0.66843069
-3.0561523 6.5054145 -0.71045822
-3.4483788 6.505219 -0.72777295
-4.7642188 6.50455 -0.79696614
-5.2642384 6.5042934 -0.82711411
-5.5290332 6.5041556 -0.84381455
-7.6616111 6.4192548 -0.98800385
-8.1508102 6.5010476 -1.0305619
-9.0095119 6.5005937 -1.0981704
-9.99123 6.5000701 -1.1782055
-11.130166 6.4994607 -1.2740228
-13.259941 6.5064139 -1.4599861
-15.610947 6.3039875 -1.6641576
-15.748408 5.9218354 -1.6630985
-16.108114 4.7595954 -1.6602887
-16.677929 4.4935198 -1.7073466
-17.796591 3.8850873 -1.8005667
-17.878428 3.4533904 -1.7998887
-18.012636 2.5854912 -1.7987396
-18.065039 2.1496966 -1.7982682
-18.107588 1.7129552 -1.7978665
-18.163105 0.83740413 -1.7972711
-18.176054 0.3990033 -1.7970779
-18.17914 -0.039536741 -1.7969543
-18.155693 -0.91620237 -1.7969161
-18.092821 -1.7909734 -1.7971569
-17.990585 -2.6622272 -1.7976763
-17.849159 -3.5283492 -1.7984741
-17.668808 -4.3876839 -1.799548
-17.564053 -4.8143015 -1.8001885
-17.449677 -5.2386174 -1.8008975
-17.325731 -5.66043 -1.801675
-16.891552 -5.9732075 -1.7709948
-15.410205 -6.7393341 -1.6625462
-15.252587 -7.1134629 -1.6635723
-14.72874 -8.2146673 -1.6670157
-14.537393 -8.5740585 -1.6682833
-15.110009 -10.454226 -1.8162069
-14.866767 -10.825356 -1.8178384
-13.808681 -12.255244 -1.8249776
-13.23002 -12.934719 -1.8289059
-12.928652 -13.264921 -1.8309573
-12.619443 -13.588552 -1.8330654
-12.302529 -13.905417 -1.8352296
-11.977998 -14.215256 -1.8374492
-11.306708 -14.813374 -1.8420504
-10.606796 -15.38152 -1.8468604
-9.8793945 -15.918215 -1.8518722
-9.1257515 -16.422182 -1.8570766
-8.3472853 -16.892059 -1.8624643
-7.9491892 -17.113796 -1.865224
-7.5453711 -17.326542 -1.8680261
-7.1361132 -17.530138 -1.8708684
-2.9440918 -7.7634335 -0.82071698
-5.4480662 -18.250031 -1.8826208
-5.0143456 -18.405687 -1.8856474
-4.1343064 -18.686829 -1.8917961
-2.7863476 -19.03133 -1.901234
-2.3297753 -19.125116 -1.9044363
-1.8712597 -19.208187 -1.9076546
-1.4100976 -19.280449 -1.9108942
-0.94595701 -19.341787 -1.9141573
-0.47873047 -19.392151 -1.9174447
-0.010380859 -19.431416 -1.9207428
0.92820311 -19.476366 -1.9273596
2.8337011 -19.430149 -1.9408253
3.2932615 -19.38994 -1.9440799
4.7108688 -19.199858 -1.9541337
5.1792383 -19.10499 -1.9566275
5.6432419 -18.990227 -1.9582489
6.1094627 -18.878941 -1.9614035
6.5717087 -18.750784 -1.9639894
7.4590235 -18.389015 -1.9615334
8.7772846 -17.818106 -1.9633569
11.379667 -16.546379 -1.9850183
12.20831 -16.036015 -1.9921888
13.407177 -15.192087 -2.0028365
13.793858 -14.890337 -2.0063477
14.546152 -14.256992 -2.0132983
14.911181 -13.925695 -2.0167329
15.617734 -13.23468 -2.02351
16.92918 -11.744105 -2.0366287
17.234385 -11.350039 -2.0398037
16.909853 -8.9302769 -1.8902533
17.135595 -8.5273972 -1.8919411
17.351133 -8.1185322 -1.8935579
17.556231 -7.7039437 -1.8951021
18.107206 -6.4285393 -1.8992889
19.598192 -5.9102855 -2.0233917
20.292822 -5.0661936 -2.0674419
20.419052 -4.5774646 -2.0684469
20.796455 -2.5928738 -2.0715725
20.858534 -2.0910318 -2.0721273
20.907558 -1.5876623 -2.0725906
20.943516 -1.0830853 -2.0729616
20.976055 -0.071795039 -2.0734262
20.956055 0.93994808 -2.0735199
20.926395 1.4450836 -2.0734279
20.75873 2.9532263 -2.0725942
20.676874 3.4523151 -2.0721321
20.582079 3.9489911 -2.071578
20.474472 4.4429092 -2.0709331
18.486475 5.437233 -1.9047227
18.341015 5.878715 -1.903798
16.194345 6.5161333 -1.7254815
14.17667 6.5153594 -1.5422224
11.835595 6.5145464 -1.33542
11.187549 6.5142951 -1.2796619
10.039746 6.5138483 -1.1829695
9.5279684 6.513648 -1.1408525
9.0511131 6.5134611 -1.1022512
8.4996576 6.4333978 -1.0536934
7.7978907 6.5169072 -1.0045317
7.4260545 6.5167584 -0.97660428
6.422627 6.5163593 -0.90439266
6.1197557 6.5162358 -0.88362724
5.8303123 6.5161185 -0.8642835
5.5531149 6.5160065 -0.8462497
4.784863 6.5156913 -0.7990616
4.3170605 6.5154986 -0.7725749
4.0943456 6.5154057 -0.7606284
3.8782811 6.5153155 -0.74947643
3.6683495 6.5152273 -0.73906904
3.0287988 6.4263382 -0.70223296
2.8435156 6.4310932 -0.69505531
2.6926172 6.5099783 -0.69635612
2.5104687 6.5099006 -0.68966812
2.3316796 6.5098233 -0.68350029
1.9830273 6.5096698 -0.67264861
1.8126172 6.5095954 -0.66792709
1.6444921 6.5095234 -0.66365457
0.8300488 6.5091596 -0.64861465
0.5126074 6.5090156 -0.64538097
0.35488281 6.5089421 -0.6443373
0.04048828 6.5087981 -0.64338052
-0.27368164 6.5086527 -0.64392263
-0.58913082 6.5085049 -0.64596939
-1.2298144 6.5082011 -0.6546942
-1.3931738 6.5081229 -0.65787625
-1.8899902 6.4929705 -0.66843772
-2.2104785 6.4220486 -0.67134517
-2.3858984 6.4238567 -0.67735469
-2.5965233 6.5056415 -0.69238311
-3.1594238 6.505363 -0.71485388
-3.5568359 6.5051641 -0.73285079
-3.7633691 6.5050602 -0.74285138
-4.1944823 6.5048404 -0.76506352
-5.4048438 6.5042205 -0.83592033
-5.9576659 6.5039334 -0.87183762
-6.2526269 6.5037808 -0.8917793
-8.3703909 6.5009317 -1.0476111
-8.8003321 6.5007038 -1.0814764
-9.7508497 6.5001984 -1.1583685
-10.279306 6.4999161 -1.2021658
-12.711454 6.4148245 -1.4074171
-15.818505 5.7158833 -1.6625558
-15.942519 5.3295889 -1.6615902
-16.057676 4.9408011 -1.660687
-16.164003 4.5497355 -1.6598452
-17.918222 3.2213945 -1.799554
-17.98501 2.7873509 -1.7989814
-18.041914 2.3520653 -1.7984785
-18.126289 1.4785608 -1.79768
-18.171268 0.60249025 -1.7971587
-18.178936 0.16398498 -1.7970028
-18.176739 -0.27453184 -1.7969166
-18.142704 -1.1508631 -1.7969534
-18.110918 -1.58825 -1.7970763
-18.069286 -2.0248597 -1.7972686
-18.017803 -2.4604692 -1.7975311
-17.956524 -2.8948867 -1.7978631
-17.714102 -4.1889534 -1.7992742
-17.384443 -5.4649949 -1.8013058
-16.247187 -5.9827561 -1.7114043
-15.480449 -6.5645885 -1.6620909
-15.326797 -6.9402337 -1.6630887
-15.16459 -7.312572 -1.6641476
-14.814716 -8.0465212 -1.6664475
-14.627197 -8.4077749 -1.6676878
-15.219941 -10.280249 -1.8154713
-14.980752 -10.653749 -1.8170735
-14.211582 -11.742437 -1.8222518
-13.069472 -13.112494 -1.8299981
-12.763926 -13.439192 -1.8320799
-12.450546 -13.759186 -1.8342184
-12.129531 -14.072347 -1.8364123
-11.801005 -14.378407 -1.8386612
-11.465077 -14.677229 -1.8409637
-10.771719 -15.252424 -1.845726
-10.050566 -15.796545 -1.8506918
-9.6799507 -16.056522 -1.8532486
-8.9195309 -16.551489 -1.8585029
-7.3267188 -17.436815 -1.8695444
-3.026201 -7.7182226 -0.81946653
-5.6478319 -18.174438 -1.8812277
-5.2161326 -18.334692 -1.8842388
-4.780127 -18.484999 -1.8872827
-3.8958006 -18.755247 -1.8934643
-3.4478905 -18.874933 -1.8965991
-2.9967382 -18.984228 -1.8997595
-2.542119 -19.082905 -1.9029467
-1.6241698 -19.248268 -1.9093899
-1.1619335 -19.314682 -1.9126385
-0.69481444 -19.370136 -1.9159241
-0.22847655 -19.414577 -1.9192065
0.2393164 -19.447876 -1.922502
1.6534082 -19.480211 -1.9324795
2.1264942 -19.468296 -1.9358227
2.5999608 -19.444946 -1.9391714
3.0743358 -19.410053 -1.9425292
4.0198731 -19.305645 -1.94923
5.4267578 -19.039865 -1.9569772
5.8932223 -18.93173 -1.9599079
6.8135548 -18.66432 -1.9639909
8.1207228 -18.068171 -1.9580754
10.759628 -16.892904 -1.9797443
12.426553 -15.892104 -1.9941019
13.22543 -15.328701 -2.0012
14.374169 -14.407428 -2.0116947
14.742695 -14.080655 -2.0151422
15.103652 -13.74421 -2.0185616
15.45664 -13.398378 -2.0219491
16.137899 -12.679042 -2.0286212
17.093897 -11.533953 -2.0383356
17.684364 -10.72896 -2.0445893
17.252411 -8.3090582 -1.8928164
17.462315 -7.8970475 -1.8943942
18.870459 -5.9220886 -1.9549783
20.085409 -5.7750635 -2.0658128
20.229961 -5.2917857 -2.0669458
20.36202 -4.8047476 -2.0679915
20.831318 -2.3241754 -2.0718813
20.886425 -1.8214514 -2.072387
20.928457 -1.3174176 -2.0728009
20.973192 -0.30660644 -2.0733516
20.975899 0.19936584 -2.073488
20.905058 1.7154162 -2.0733399
20.855263 2.2188897 -2.0731053
20.627686 3.718797 -2.0718465
20.526014 4.2140632 -2.0712438
19.7346 4.550252 -2.0018821
18.67874 4.7841058 -1.9059286
18.550068 5.2310224 -1.9051237
18.258436 6.1135979 -1.9032696
18.095684 6.5486321 -1.9022213
16.733505 6.5163398 -1.7750405
14.605771 6.5155253 -1.5808699
13.530087 6.4313226 -1.4807968
11.481464 6.5144095 -1.3048544
9.7609177 6.5137396 -1.1599399
9.2683496 6.5135465 -1.1197559
7.9600387 6.5024676 -1.015978
7.2351465 6.5166826 -0.96249461
5.1487889 6.5158415 -0.82087898
4.6563768 6.5156388 -0.79160595
4.1968555 6.5154486 -0.76607227
3.9777539 6.515357 -0.75455689
3.7650487 6.5152678 -0.74380898
3.5581834 6.5151811 -0.73378462
3.3110645 6.4264579 -0.7145893
3.1172168 6.4263749 -0.70600736
2.9278612 6.4262958 -0.6980347
2.7446778 6.4310513 -0.6911577
2.5945799 6.5099368 -0.69270658
2.4142578 6.5098591 -0.6862995
1.5552441 6.5094843 -0.66154557
1.3901659 6.5094094 -0.65793836
1.2267675 6.5093365 -0.65474898
1.0648632 6.509263 -0.65196717
0.11336914 6.5088325 -0.64346874
-0.35800782 6.5086126 -0.64432281
-0.83315426 6.508389 -0.64857805
-1.3171582 6.5081582 -0.65634769
-1.6474609 6.5079999 -0.66358137
-1.8155566 6.5079193 -0.66784447
-2.1303809 6.4220877 -0.66881323
-2.4808397 6.4238105 -0.68067437
-2.6945019 6.5055938 -0.69602692
-2.8802147 6.5055022 -0.70324719
-3.263994 6.505312 -0.7194249
-3.6668065 6.5051079 -0.73812228
-3.8764355 6.505003 -0.74850661
-4.0921483 6.5048928 -0.75963271
-4.3145213 6.5047808 -0.77155203
-4.5441012 6.5046635 -0.78431565
-4.7815528 6.5045414 -0.79797882
-5.2829099 6.5042839 -0.82827461
-5.5484762 6.5041461 -0.84505981
-5.8251657 6.504003 -0.86305076
-6.1140723 6.5038528 -0.88234878
-7.3203712 6.4177017 -0.96229404
-8.1798143 6.5010333 -1.0328043
-8.5973921 6.5008121 -1.0654144
-11.821113 6.4990897 -1.3334279
-12.382246 6.4236102 -1.3788378
-14.174248 6.5059209 -1.541617
-15.886054 5.5091963 -1.6620306
-16.785479 4.4912982 -1.7175561
-17.711905 4.2842169 -1.8012575
-17.802794 3.8541472 -1.8005157
-18.016748 2.5542216 -1.7987033
-18.068438 2.1183679 -1.798237
-18.164335 0.8059088 -1.7972549
-18.171503 -0.50946838 -1.7968991
-18.089834 -1.822333 -1.7971706
-17.556181 -4.8448462 -1.8002371
-17.441122 -5.2690086 -1.800951
-16.802568 -5.9745288 -1.762749
-15.548838 -6.3891721 -1.6616489
-15.399179 -6.7662907 -1.6626178
-15.07413 -7.5106745 -1.6647402
-14.898915 -7.8775315 -1.6658922
-14.848984 -10.851783 -1.8179579
-14.596523 -11.217268 -1.8196558
-14.335546 -11.577296 -1.8214147
-13.502617 -12.622473 -1.8270534
-12.906718 -13.288393 -1.8311067
-11.954413 -14.237239 -1.8376106
-11.621904 -14.539479 -1.8398885
-10.935117 -15.121665 -1.8446026
-10.220303 -15.673129 -1.849522
-9.4786911 -16.192451 -1.8546379
-8.7115622 -16.678322 -1.859942
-8.3188667 -16.908281 -1.8626614
-7.5161619 -17.341501 -1.8682287
-7.106504 -17.544397 -1.8710743
-5.4170508 -18.261555 -1.8828372
-4.9829493 -18.416471 -1.8858665
-4.1022167 -18.696165 -1.8920206
-1.3764844 -19.285212 -1.9111303
0.023369141 -19.433813 -1.9209805
0.49115235 -19.461111 -1.9242772
1.4341016 -19.481916 -1.9309306
2.3801951 -19.457211 -1.9376168
3.3272557 -19.386589 -1.9443204
3.8004687 -19.334009 -1.9476742
5.2122169 -19.095728 -1.956604
5.6766992 -18.982351 -1.9584454
7.9128513 -18.146282 -1.9568176
8.3618555 -17.979418 -1.960007
10.129307 -17.216164 -1.9744582
10.987812 -16.768744 -1.9816766
11.409795 -16.528746 -1.9852765
5.7017384 -7.8479438 -0.9589054
12.643018 -15.74518 -1.9960104
13.042285 -15.463102 -1.9995593
13.435156 -15.170733 -2.0030897
13.821367 -14.868265 -2.0065989
14.200596 -14.555799 -2.0100851
14.937119 -13.901555 -2.0169785
15.293828 -13.560016 -2.0203812
15.642489 -13.209185 -2.0237508
15.982871 -12.84915 -2.027086
16.314638 -12.4802 -2.0303838
17.550819 -10.918568 -2.0431554
13.975029 -7.7854171 -1.5812823
16.926395 -8.901577 -1.8903768
17.151426 -8.4982357 -1.8920596
17.570547 -7.6739545 -1.8952105
17.947178 -6.8279324 -1.8980662
18.119169 -6.3974504 -1.8993808
18.280136 -5.9624515 -1.9006182
20.302315 -5.0312152 -2.0675173
20.427656 -4.5422273 -2.0685158
20.640165 -3.5547402 -2.0702455
20.801338 -2.5568738 -2.0716155
20.862452 -2.0549512 -2.0721633
20.910547 -1.5514593 -2.0726202
20.967499 -0.54136473 -2.0732567
20.976278 -0.035445556 -2.0734363
20.954384 0.97626644 -2.0735166
20.92374 1.4813178 -2.0734177
20.823193 2.4881182 -2.0729413
20.75333 2.9891393 -2.0725644
20.466269 4.4782853 -2.070883
18.330137 5.9102616 -1.9037286
18.172598 6.347281 -1.9027176
16.113672 6.5161037 -1.7180827
15.057031 6.5156989 -1.6217139
14.112109 6.5153351 -1.5364232
13.200634 6.4852495 -1.453802
11.787207 6.5145268 -1.3312328
11.143095 6.5142765 -1.2758663
9.4925976 6.5136347 -1.1379681
9.018096 6.5134478 -1.0996041
8.4691114 6.4333868 -1.0512855
8.0528021 6.4292827 -1.0185639
6.7169628 6.5164762 -0.92505574
6.4004002 6.5163493 -0.902852
6.098525 6.5162258 -0.88219023
5.8100195 6.5161099 -0.86294627
5.5336328 6.5159979 -0.84500337
5.2683983 6.5158901 -0.82826382
5.0132813 6.5157852 -0.81263715
4.7675195 6.5156841 -0.79804689
4.5302539 6.5155864 -0.78441894
4.3008399 6.515491 -0.77169037
3.2065916 6.426414 -0.70991111
2.8302147 6.431088 -0.69452429
2.6794238 6.5099726 -0.69585878
2.4975293 6.5098944 -0.68920875
1.9707129 6.5096645 -0.67229503
1.6324999 6.5095181 -0.66336572
1.466543 6.5094438 -0.65955967
1.302412 6.5093708 -0.65617782
1.1398242 6.5092983 -0.6532082
0.81859374 6.5091534 -0.64847171
0.65953124 6.5090814 -0.64669091
0.02921875 6.5087934 -0.64337385
-0.28498048 6.5086479 -0.64396942
-1.2414844 6.5081949 -0.6549089
-1.4049706 6.5081182 -0.65812069
-2.050869 6.4221268 -0.6663838
-2.2229297 6.4220428 -0.67174613
-2.793535 6.5055447 -0.69982696
-2.9813573 6.5054522 -0.70735019
-3.5714843 6.5051565 -0.73354542
-3.9912596 6.5049443 -0.75437397
-4.2104492 6.5048332 -0.76591831
-4.4366112 6.5047174 -0.77828342
-4.6703219 6.5045977 -0.79152
-4.9122653 6.5044742 -0.80569351
-5.1631932 6.5043464 -0.82087117
-5.6953125 6.5040703 -0.8545453
-5.9783983 6.5039225 -0.87322319
-6.2743454 6.5037689 -0.89326859
-6.9098926 6.5034366 -0.93795371
-7.157197 6.4177876 -0.95023417
-7.5140328 6.4175982 -0.97675759
-7.9945507 6.501132 -1.0185378
-8.8322849 6.5006866 -1.0840189
-9.2934275 6.5004425 -1.1210411
-10.318769 6.4998941 -1.2054645
-11.51416 6.4992547 -1.3069311
-12.766357 6.414794 -1.4122604
-13.766103 6.5061417 -1.5050523
-15.405742 6.8314142 -1.6658108
-15.951083 5.3017473 -1.6615233
-16.065586 4.9128094 -1.6606245
-16.171299 4.5215755 -1.6597873
-17.629843 4.4738226 -1.7978883
-17.761845 4.0539789 -1.8008513
-17.84746 3.6229291 -1.8001467
-18.045664 2.3207879 -1.7984447
-18.155342 1.0092895 -1.7973658
-18.176201 -0.30603027 -1.7969131
-18.140751 -1.1822925 -1.7969598
-18.013731 -2.4917233 -1.7975527
-17.87998 -3.3589668 -1.7982957
-17.707197 -4.2197456 -1.7993158
-17.495712 -5.0724506 -1.8006113
-17.375498 -5.4952555 -1.8013618
-17.245741 -5.9154735 -1.8021804
-16.164053 -5.9839845 -1.7037381
-15.615361 -6.2130966 -1.6612197
-15.469687 -6.5916767 -1.6621606
-15.315449 -6.9670854 -1.6631625
-15.152597 -7.3391819 -1.6642261
-14.801523 -8.072588 -1.6665347
-14.613418 -8.4335556 -1.6677791
-14.417021 -8.7904577 -1.6690829
-14.963193 -10.68038 -1.8171912
-14.714775 -11.048328 -1.8188598
-14.192245 -11.767871 -1.8223825
-13.047812 -13.136191 -1.8301455
-12.427734 -13.781917 -1.8343742
-11.440713 -14.698383 -1.841131
-10.388633 -15.547976 -1.8483623
-9.2755756 -16.325981 -1.8560412
-8.1060352 -17.027857 -1.8641365
-7.704453 -17.244184 -1.8669219
-7.2972555 -17.45138 -1.869749
-3.0135252 -7.7252073 -0.81965423
-2.8357615 -7.8217292 -0.82239515
-5.616992 -18.186274 -1.8814428
-4.3081446 -18.634872 -1.8905807
-2.0518651 -19.176876 -1.9063867
-1.5911523 -19.253405 -1.909622
-1.1278906 -19.319016 -1.9128779
-0.66181642 -19.373686 -1.9161562
0.27302733 -19.449821 -1.9227395
0.74337888 -19.471088 -1.9260559
1.2149023 -19.481131 -1.9293832
2.160459 -19.467022 -1.9360629
4.0538282 -19.301046 -1.9494708
6.3919139 -18.806095 -1.9633589
7.2886329 -18.46883 -1.9626009
7.7194629 -18.257969 -1.9594163
8.1531153 -18.056458 -1.9583342
9.0476656 -17.707294 -1.965552
10.361133 -17.100544 -1.9763941
11.633759 -16.395794 -1.9872015
12.047548 -16.139458 -1.9907861
13.253642 -15.307687 -2.0014534
13.642949 -15.009866 -2.0049727
14.768877 -14.056808 -2.0153887
15.129238 -13.71968 -2.0188057
15.825947 -13.017365 -2.0255427
16.806894 -11.896419 -2.0353708
17.115761 -11.50561 -2.0385635
17.415174 -11.106525 -2.0417109
17.704872 -10.699447 -2.0448103
13.980253 -7.994729 -1.5919029
16.818525 -9.0866079 -1.8895721
17.267851 -8.2796259 -1.8929324
17.675694 -7.4492893 -1.8960049
17.863623 -7.0260687 -1.8974302
20.096239 -5.7404542 -2.0658975
20.489559 -4.2788334 -2.0690141
20.595409 -3.7849164 -2.0698762
20.688389 -3.2882893 -2.0706482
20.768574 -2.7892277 -2.0713303
20.889883 -1.7853051 -2.0724199
20.930965 -1.281134 -2.0728271
20.975576 0.23569824 -2.0734942
20.901913 1.7516137 -2.0733261
20.851162 2.2550287 -2.0730846
20.710556 3.2568054 -2.0723245
20.620819 3.7544451 -2.0718064
20.518232 4.2495146 -2.0711973
18.669891 4.8163152 -1.9058737
18.540409 5.2629838 -1.905063
18.399452 5.7060037 -1.9041705
18.24708 6.1450129 -1.9031967
15.532285 6.5158792 -1.6649365
14.537978 6.5154986 -1.5747474
13.469814 6.4313006 -1.4754173
12.105566 6.5146527 -1.3588636
11.435234 6.5143924 -1.3008828
10.819385 6.5141521 -1.2483392
10.251064 6.5139313 -1.2005513
9.2342968 6.5135331 -1.1170017
8.240449 6.4293561 -1.03313
7.9496484 6.5169668 -1.0160905
7.20999 6.5166726 -0.96064681
6.8692284 6.5165372 -0.93592179
6.5454001 6.5164065 -0.91295642
6.2368946 6.5162821 -0.8915965
5.9423532 6.5161624 -0.87170941
5.660459 6.5160489 -0.85317463
5.3901854 6.5159392 -0.83588928
5.1304784 6.5158329 -0.81975675
4.6393456 6.5156317 -0.7906279
4.4063573 6.5155354 -0.77748841
3.9622753 6.5153508 -0.75376052
3.7500098 6.5152617 -0.74306548
3.5435448 6.5151749 -0.73309124
3.2969921 6.4264531 -0.71395093
2.9144042 6.4262896 -0.69748282
2.4014354 6.5098538 -0.6858595
1.5433301 6.5094781 -0.66127342
1.3783593 6.5094047 -0.65769559
1.2150977 6.5093317 -0.65453565
0.89273435 6.5091877 -0.64942902
0.73323238 6.5091152 -0.64746839
-0.36932617 6.5086088 -0.64438415
-0.52707028 6.5085344 -0.64544821
-0.68545896 6.50846 -0.64689255
-0.8446191 6.5083842 -0.64872205
-1.0047852 6.5083075 -0.65094155
-1.3288964 6.5081534 -0.65657806
-1.4932715 6.5080752 -0.66001326
-2.1427441 6.4220829 -0.66919822
-2.4936328 6.4238043 -0.68113005
-2.8936913 6.5054951 -0.70378715
-3.0837109 6.5054007 -0.71161926
-4.1079001 6.5048847 -0.76046294
-4.5608788 6.5046549 -0.7852661
-4.7989159 6.5045328 -0.79899549
-6.4386621 6.5036821 -0.90461475
-6.7567868 6.5035162 -0.92699546
-7.091279 6.5033417 -0.95108193
-7.3459764 6.4176884 -0.96419907
-7.7157321 6.4192266 -0.99210966
-8.2089357 6.5010171 -1.0350589
-11.219179 6.4994135 -1.2816266
-11.869736 6.499064 -1.3376367
-12.433847 6.4230704 -1.3833356
-14.239189 6.5058856 -1.5474504
-15.631201 6.2492814 -1.6640022
-15.76747 5.8667178 -1.662951
-15.894893 5.4814396 -1.6619619
-16.013563 5.0935907 -1.6610339
-16.894169 4.4890518 -1.7278824
-17.718779 4.2534027 -1.8012017
-17.808945 3.8231902 -1.8004652
-18.112909 1.6501459 -1.7978141
-18.14415 1.2125708 -1.797492
-18.165586 0.77444029 -1.7972388
-18.177099 0.33603638 -1.797056
-18.17878 -0.10251769 -1.7969421
-18.15251 -0.97909969 -1.7969241
-18.086767 -1.8536767 -1.7971851
-18.03916 -2.2897239 -1.79742
-17.914501 -3.158231 -1.7980986
-17.750792 -4.0206537 -1.7990543
-17.654316 -4.4491 -1.7996359
-17.548231 -4.8753867 -1.8002859
-17.432508 -5.299367 -1.8010049
-17.307158 -5.7207861 -1.8017919
-15.061846 -7.5371552 -1.6648208
-14.885996 -7.903728 -1.6659775
-14.701748 -8.2665396 -1.6671941
-14.509179 -8.6253328 -1.6684706
-14.099248 -9.3302698 -1.6712015
-14.316484 -11.602915 -1.8215436
-13.768193 -12.304862 -1.8252521
-13.187206 -12.982553 -1.829197
-12.884736 -13.31181 -1.8312564
-12.574404 -13.634472 -1.8333727
-12.256357 -13.950336 -1.8355449
-11.930761 -14.259172 -1.8377725
-11.597705 -14.560862 -1.8400543
-11.257431 -14.855192 -1.8423885
-10.194131 -15.692327 -1.8497022
-9.0706539 -16.457096 -1.8574576
-8.6835737 -16.69511 -1.8601356
-7.4869332 -17.356382 -1.8684317
-6.2412009 -17.934999 -1.8770934
-5.3860741 -18.272985 -1.8830532
-4.9517775 -18.427206 -1.8860841
-4.5130372 -18.571413 -1.8891485
-3.1744335 -18.942574 -1.8985145
-2.7208788 -19.045444 -1.9016932
-2.2641113 -19.137707 -1.9048971
-1.3428417 -19.289898 -1.9113668
-0.41312498 -19.398455 -1.9179064
0.063857421 -19.436098 -1.9212658
0.52493161 -19.462622 -1.9245154
1.4679785 -19.481813 -1.9311697
1.9408593 -19.474346 -1.9345106
2.4141893 -19.455469 -1.9378573
3.8344336 -19.329807 -1.947915
5.7101269 -18.974361 -1.9586419
6.17625 -18.862112 -1.9618657
7.0845408 -18.557398 -1.9634647
7.5209665 -18.358856 -1.9610852
7.9436035 -18.131107 -1.9566623
8.394043 -17.967312 -1.9602655
8.8412991 -17.792284 -1.9638757
9.7247162 -17.409027 -1.9711032
10.591689 -16.981873 -1.9783285
11.018242 -16.751932 -1.9819348
11.439804 -16.511194 -1.9855337
12.671885 -15.725318 -1.9962655
13.070693 -15.442485 -1.9998132
13.463115 -15.149371 -2.0033419
13.848799 -14.846181 -2.0068498
14.962958 -13.877324 -2.0172238
15.667197 -13.183675 -2.0239913
16.006962 -12.822959 -2.0273242
16.660381 -12.074992 -2.033874
13.974228 -7.7532878 -1.5796696
17.167187 -8.4690886 -1.8921773
17.584814 -7.6439462 -1.8953182
17.959902 -6.7972236 -1.8981631
18.29126 -5.931046 -1.900704
20.547871 -4.0145512 -2.0694873
20.732948 -3.0211122 -2.0710247
20.968544 -0.50509095 -2.0732727
20.976397 0.00089294434 -2.0734453
20.921045 1.5175073 -2.0734069
20.876356 2.0215662 -2.0732083
20.818604 2.5241516 -2.0729172
20.747812 3.0249951 -2.0725338
20.56743 4.020103 -2.071491
20.457968 4.5135736 -2.0708327
18.601963 5.0561528 -1.9054496
18.46629 5.5008731 -1.9045947
18.319258 5.9417558 -1.903659
18.160889 6.3784585 -1.9026421
17.991768 6.8109355 -1.9015906
16.033632 6.5160723 -1.7107531
14.98579 6.5156693 -1.6152505
14.048057 6.5153093 -1.5306765
13.200615 6.5136466 -1.4550406
12.437578 6.5147796 -1.3878562
9.9639845 6.5138202 -1.1766932
8.4387398 6.4333735 -1.0488935
8.0242872 6.4292717 -1.016362
7.7431836 6.5168853 -1.0003853
7.3743749 6.5167375 -0.97276783
7.0251951 6.5165997 -0.94717151
5.5142283 6.5159893 -0.8437621
4.9953613 6.5157781 -0.81155729
4.513535 6.5155802 -0.78347546
4.0629392 6.5153937 -0.75898069
3.6386719 6.5152154 -0.73763371
2.8169239 6.4310832 -0.6939953
2.66625 6.5099673 -0.69536376
1.7883301 6.5095854 -0.66728616
1.6205175 6.5095119 -0.66307771
1.4547168 6.509439 -0.65930372
1.2906641 6.5093656 -0.65595043
0.80712891 6.5091486 -0.64833039
0.17499024 6.5088601 -0.64360642
0.017939452 6.5087872 -0.64336991
-0.13908203 6.5087137 -0.64350688
-0.45380858 6.5085688 -0.64490628
-0.93032223 6.5083427 -0.64986271
-1.0911034 6.5082684 -0.65229446
-1.2531738 6.5081902 -0.65512586
-1.4167578 6.508112 -0.65836674
-1.5820996 6.5080328 -0.66202885
-1.7493457 6.5079522 -0.66611969
-1.8935254 6.422204 -0.66182601
-2.063164 6.422121 -0.6667552
-2.2354004 6.4220376 -0.67215043
-2.4112499 6.4238434 -0.67822933
-2.8069141 6.5055375 -0.70034909
-3.1873143 6.5053506 -0.7160607
-3.3842578 6.5052509 -0.72482896
-3.7935057 6.5050445 -0.74434704
-4.0067673 6.5049372 -0.75517547
-4.2264647 6.5048246 -0.7667802
-4.453125 6.5047097 -0.77920467
-5.181582 6.5043364 -0.8220005
-5.4430175 6.5042009 -0.83833653
-5.7152147 6.5040593 -0.85584134
-5.999238 6.5039115 -0.87461638
-6.296113 6.503758 -0.89476317
-6.6071973 6.5035954 -0.9164061
-6.933867 6.5034246 -0.93967992
-7.1821971 6.4177737 -0.95207435
-7.5404296 6.4175849 -0.978746
-8.4305077 6.5009003 -1.0523089
-9.8243256 6.5001593 -1.1644155
-10.358544 6.4998736 -1.2087917
-10.935322 6.4995646 -1.2574347
-12.821601 6.4147635 -1.4171382
-13.827969 6.5061078 -1.5105805
-15.565059 6.4258208 -1.6645101
-15.705302 6.04461 -1.6634314
-14.957861 -0.19999999 -1.8196627
-14.948525 -0.56073421 -1.8196449
-14.87126 -1.6403936 -1.8199399
-14.829111 -1.9988647 -1.8201541
-14.720342 -2.7126114 -1.8207564
-14.579033 -3.4209366 -1.8215896
-13.832451 -5.8374906 -1.8263001
-13.248828 -5.9716587 -1.7677542
-12.476103 -5.9895129 -1.6834384
-12.334745 -6.2921643 -1.6843665
-12.186464 -6.591691 -1.6853439
-12.03125 -6.8879142 -1.686371
-11.86916 -7.180685 -1.6874474
-11.524716 -7.7553048 -1.6897463
-11.3425 -8.0368328 -1.6909676
-11.15374 -8.3143215 -1.6922359
-10.548779 -9.1210012 -1.6963203
-9.6908197 -11.765727 -1.8541681
-9.413847 -12.008345 -1.8560674
-9.1310158 -12.244726 -1.8580096
-8.5482712 -12.698182 -1.8620192
-7.6335254 -13.328075 -1.868332
-7.3183398 -13.524072 -1.870512
-6.6734762 -13.894382 -1.8749795
-6.0103612 -14.234931 -1.8795828
-2.8576171 -7.7976227 -1.0102046
-3.5645702 -15.179016 -1.8966335
-2.0969434 -15.535598 -1.906914
-0.97214842 -15.711389 -1.9148153
-0.21387695 -15.783866 -1.9201527
0.54912108 -15.820007 -1.925532
0.93182617 -15.824324 -1.9282333
1.3151073 -15.819443 -1.9309409
1.6986718 -15.805283 -1.9336526
2.082334 -15.781815 -1.9363672
2.8490136 -15.706963 -1.9417981
3.2315428 -15.655527 -1.9445111
3.6132421 -15.594653 -1.9472122
3.9929199 -15.520708 -1.9494395
4.3710938 -15.437472 -1.9516661
4.7485251 -15.348054 -1.9542745
6.6040916 -14.762056 -1.9671854
7.6776562 -14.28959 -1.9732145
8.0146675 -14.090703 -1.9718827
9.0329294 -13.504789 -1.976341
9.3697748 -13.302475 -1.9792426
5.7995114 -7.825717 -1.1848484
10.35207 -12.645107 -1.9878786
11.287324 -11.914197 -1.9963731
11.587598 -11.654734 -1.9991647
11.881767 -11.387593 -2.0019333
12.169648 -11.112894 -2.0046768
12.451006 -10.830769 -2.0073934
12.993379 -10.244902 -2.0127394
12.662831 -8.5760756 -1.8603469
13.083564 -7.968709 -1.8634589
13.282471 -7.6568661 -1.8649358
13.998457 -6.359798 -1.8702927
15.833838 -5.4226012 -2.0358739
15.968173 -5.0416679 -2.0369108
16.207617 -4.2696252 -2.0387807
16.312569 -3.8790255 -2.0396128
16.40749 -3.4857314 -2.0403743
16.492353 -3.0899901 -2.0410652
16.567108 -2.6921058 -2.0416858
16.730127 -1.4882013 -2.0431163
16.763897 -1.0844001 -2.0434487
16.802988 0.13059875 -2.0440068
16.795301 0.53587765 -2.0440466
16.777216 0.94081968 -2.0440128
16.748749 1.3451593 -2.043906
16.601465 2.5517199 -2.0431459
16.531874 2.9508386 -2.0427473
16.362207 3.7428424 -2.0417333
16.152372 4.5247126 -2.0404329
14.876445 4.557023 -1.8925936
14.515976 5.2247477 -1.8766369
14.378916 5.5707221 -1.8757496
14.07877 6.2511368 -1.8737882
13.915928 6.5851469 -1.8727158
11.52751 6.5141654 -1.6106281
10.904355 6.5139346 -1.545069
10.329618 6.513721 -1.4854709
9.7972755 6.5135212 -1.4310991
9.3022556 6.5133367 -1.3813454
8.2993259 6.429173 -1.2770216
7.9584079 6.4781756 -1.2482482
7.2601852 6.5165005 -1.1867068
6.916904 6.5163689 -1.1559566
6.5907421 6.516243 -1.1273953
5.9836817 6.5160065 -1.0761145
5.7000489 6.5158954 -1.0530757
5.1670213 6.5156841 -1.0115427
4.6733398 6.5154877 -0.97534513
4.2127342 6.5153022 -0.94376898
3.7800293 6.5151248 -0.91623813
3.5727735 6.5150409 -0.90383911
2.6075976 6.5098038 -0.85302413
2.4270411 6.5097284 -0.84509456
2.0753222 6.5095768 -0.83109736
1.9036034 6.5095024 -0.82498533
1.734287 6.509429 -0.81943405
1.5671387 6.509356 -0.81442684
1.238418 6.509212 -0.80598855
0.59735352 6.508925 -0.79507828
0.43933594 6.508853 -0.79354328
0.12464844 6.5087104 -0.79186904
-0.34669921 6.5084906 -0.79282027
-0.66264647 6.5083413 -0.79577315
-0.82168943 6.508266 -0.79795593
-0.98169917 6.5081887 -0.80061674
-1.142871 6.5081134 -0.80376571
-1.3054004 6.5080338 -0.8074109
-1.9475781 6.4220452 -0.81631565
-2.2911425 6.4218755 -0.8293888
-2.6812596 6.5054631 -0.85590702
-2.8666894 6.5053701 -0.86474341
-3.0560839 6.5052729 -0.87427837
-3.2498338 6.5051737 -0.8845461
-3.4483006 6.5050726 -0.89558464
-3.6519041 6.5049701 -0.90743697
-4.298213 6.5046353 -0.94837016
-4.5272555 6.5045156 -0.96399778
-5.0094528 6.504262 -0.99864388
-5.5288868 6.5039883 -1.0383791
-6.394033 6.5035257 -1.1094016
-6.7099414 6.5033574 -1.1366585
-7.661377 6.4190578 -1.2158132
-8.1505566 6.5008426 -1.2681804
-9.4827833 6.5001154 -1.3984791
-11.129726 6.499207 -1.5677621
-12.153486 6.7092423 -1.6886823
-12.303447 6.4097953 -1.6875372
-12.446485 6.107244 -1.6864569
-12.711377 5.4933076 -1.6844436
-13.054766 4.55267 -1.6818006
-13.942539 4.488101 -1.7816995
-14.639375 3.1958477 -1.8227001
-14.707646 2.8409302 -1.8221356
-14.767773 2.4846497 -1.8216286
-14.819775 2.1271954 -1.8211782
-14.863544 1.7687298 -1.8207859
-14.89915 1.409444 -1.820451
-14.945712 0.68906981 -1.8199551
-14.953886 -0.39334533 -1.819646
-14.940126 -0.75393921 -1.8196594
-14.888037 -1.4737451 -1.81986
-14.748466 -2.5474095 -1.8205961
-14.614697 -3.2571287 -1.821376
-14.448643 -3.9603648 -1.8223852
-14.353574 -4.3091207 -1.8229754
-14.020644 -5.3418522 -1.8250865
-13.893906 -5.6810236 -1.8259027
-13.638974 -5.9647202 -1.8107845
-12.256132 -6.4530773 -1.684884
-11.945234 -7.0452442 -1.686942
-11.607051 -7.6233068 -1.6891955
-11.42788 -7.9066782 -1.6903949
-11.049872 -8.4613056 -1.6929353
-10.851152 -8.7322903 -1.6942755
-10.434727 -9.2608356 -1.6970931
-11.095488 -10.336288 -1.8445816
-10.347539 -11.142197 -1.8496759
-10.085537 -11.399571 -1.8514658
-9.8173437 -11.651047 -1.8533014
-9.2629976 -12.135805 -1.8571031
-8.9770603 -12.368764 -1.8590679
-8.6854687 -12.595281 -1.8610743
-7.4652243 -13.433999 -1.8694957
-6.8248043 -13.811076 -1.8739303
-5.8297558 -14.321003 -1.8808379
-4.7972364 -14.761237 -1.8880267
-4.4455662 -14.891974 -1.8904794
-4.0904493 -15.014545 -1.8929586
-3.006084 -15.332184 -1.9005417
-0.0098437499 -15.797143 -1.9215906
0.37169921 -15.814885 -1.9242805
1.520664 -15.812969 -1.9323939
1.9042969 -15.793862 -1.9351072
2.6712596 -15.727662 -1.9405383
3.0540917 -15.680559 -1.9432523
3.8168652 -15.55618 -1.9484066
4.1957712 -15.477237 -1.9506304
4.5735841 -15.390713 -1.9530648
4.950078 -15.296287 -1.95567
5.3246484 -15.192599 -1.9582676
5.6970801 -15.079647 -1.9608563
7.5171385 -14.374475 -1.9731945
7.8598437 -14.185715 -1.9727389
8.1891212 -13.973897 -1.9701872
8.8751173 -13.595783 -1.9749914
5.6926856 -7.8641062 -1.1809256
9.8781738 -12.975292 -1.9836783
10.522763 -12.519843 -1.9894078
11.145947 -12.03194 -1.9950703
11.745986 -11.512522 -2.0006511
12.036817 -11.241312 -2.0034065
12.32124 -10.962625 -2.0061362
12.599052 -10.676594 -2.0088379
12.86998 -10.383362 -2.0115099
12.10417 -9.292593 -1.8562356
12.778505 -8.4155273 -1.8612009
12.988593 -8.1116266 -1.8627549
13.191093 -7.802247 -1.8642567
13.572724 -7.1678934 -1.8670988
13.751493 -6.8433256 -1.8684366
15.768271 -5.5981455 -2.0353701
16.155556 -4.4498973 -2.0383713
16.454218 -3.2739363 -2.0407534
16.533691 -2.8770208 -2.0414069
16.603018 -2.4780841 -2.0419888
16.777744 -0.86765379 -2.0435967
16.795576 -0.46276549 -2.0438166
16.803057 -0.057512205 -2.0439637
16.800184 0.34781736 -2.0440373
16.763243 1.1575934 -2.0439644
16.729258 1.5615039 -2.0438185
16.684931 1.9643579 -2.0435989
16.630322 2.3658991 -2.0433066
16.565449 2.7658515 -2.0429416
16.49037 3.1639361 -2.0425038
16.309893 3.9534247 -2.0414128
16.204609 4.3442888 -2.04076
15.453056 4.5450444 -1.9593518
14.443593 5.4106131 -1.8761691
14.301836 5.7545991 -1.8752481
12.542617 6.5145416 -1.7192252
11.835117 6.5142803 -1.6433133
10.039394 6.5136127 -1.4557235
9.0508003 6.5132413 -1.3563952
8.4993849 6.4331875 -1.2966421
8.0812397 6.4290886 -1.2561477
7.7976465 6.5167046 -1.2361469
7.4258399 6.5165653 -1.2017825
7.0739746 6.5164285 -1.1699409
6.1195898 6.5160589 -1.0873706
5.8301659 6.5159454 -1.063568
5.5529685 6.5158377 -1.0413778
5.286963 6.5157318 -1.0206755
5.0311618 6.5156302 -1.0013512
4.7847462 6.5155325 -0.98330933
4.5469041 6.5154376 -0.96645653
3.8781934 6.5151653 -0.92229176
3.4639647 6.5149956 -0.89754492
3.2204492 6.4262772 -0.87436599
2.3316307 6.5096869 -0.84110534
1.8125879 6.5094633 -0.82194036
1.644453 6.5093899 -0.81668484
1.1514159 6.5091729 -0.80407286
0.99012691 6.5091009 -0.80087978
0.5125879 6.5088873 -0.7941972
0.35487303 6.5088139 -0.7929135
0.040498044 6.5086713 -0.79173505
-0.11652344 6.5085964 -0.79183847
-0.43114257 6.5084515 -0.79342741
-0.58911133 6.5083756 -0.79492056
-0.90730464 6.5082254 -0.79932117
-1.2297851 6.5080705 -0.80565715
-1.5582129 6.5079117 -0.81400388
-1.7251757 6.5078301 -0.81896114
-1.8910742 6.4967241 -0.82306451
-2.038584 6.4219999 -0.81959087
-2.2104297 6.4219155 -0.8261463
-2.5964649 6.5055046 -0.85203481
-2.9676659 6.5053177 -0.86976486
-3.1593652 6.5052214 -0.87968743
-3.3555858 6.5051212 -0.89036298
-3.7632909 6.5049114 -0.91413999
-4.6531639 6.5044489 -0.97282237
-4.8944921 6.504324 -0.99017799
-5.675283 6.5039105 -1.0499945
-6.2524509 6.503603 -1.0974035
-6.5614157 6.503438 -1.1237618
-8.8000393 6.5004888 -1.3308303
-9.2589645 6.5002375 -1.376116
-10.278935 6.4996772 -1.4793441
-12.652451 5.6367788 -1.6848933
-12.895322 5.014473 -1.6830337
-13.460429 4.4998212 -1.726421
-14.340371 4.4123979 -1.825094
-14.436591 4.0635233 -1.8243335
-14.524776 3.7126837 -1.8236294
-14.740878 2.6501622 -1.8218566
-14.844248 1.9351959 -1.820961
-14.95915 0.13494323 -1.8197314
-14.903066 -1.3069372 -1.8197926
-14.71582 -2.7381444 -1.8207824
-14.573369 -3.4462533 -1.8216238
-14.398682 -4.1475229 -1.8226945
-14.299296 -4.495151 -1.8233154
-14.076777 -5.1835423 -1.8247268
-13.822851 -5.8616381 -1.8263626
-13.190098 -5.9727001 -1.761296
-12.466113 -6.0113578 -1.683504
-12.324336 -6.3137865 -1.6844348
-12.175547 -6.6130791 -1.6854159
-11.857265 -7.201582 -1.6875268
-11.68792 -7.4904966 -1.6886554
-11.511885 -7.7756529 -1.6898322
-10.94416 -8.6070776 -1.6936477
-10.742031 -8.8756924 -1.6950128
-10.533565 -9.1398239 -1.6964233
-10.318818 -9.3992939 -1.6978796
-10.467011 -11.020773 -1.8488604
-10.20792 -11.280825 -1.8506293
-9.9425678 -11.535089 -1.8524441
-9.3937302 -12.025549 -1.8562053
-9.1104584 -12.261442 -1.8581508
-8.8215036 -12.490977 -1.8601381
-8.2268944 -12.930289 -1.8642346
-7.2955074 -13.537883 -1.8706701
-6.9750876 -13.726171 -1.8728889
-6.6499996 -13.907141 -1.8751425
-6.3202829 -14.080642 -1.8774303
-5.9862204 -14.246591 -1.8797506
-2.8447948 -7.8044257 -1.0104455
-4.9592185 -14.697808 -1.8868976
-4.2556543 -14.958672 -1.8918049
-3.1755567 -15.288022 -1.8993552
-2.4411426 -15.465149 -1.9044998
-2.0702343 -15.540742 -1.9071013
-0.94500977 -15.714626 -1.9150064
-0.56647462 -15.75472 -1.9176699
0.19454101 -15.807775 -1.9230311
0.57656246 -15.820627 -1.9257257
0.9593457 -15.824286 -1.9284277
2.1098926 -15.779782 -1.9365622
2.493418 -15.74636 -1.939278
3.2590039 -15.651486 -1.944706
4.398252 -15.431364 -1.9518536
5.1510935 -15.24187 -1.9570632
5.5245314 -15.13321 -1.959656
5.8957129 -15.015317 -1.9622391
6.6302829 -14.751984 -1.9673687
6.9931931 -14.606616 -1.9699121
7.7022848 -14.276068 -1.9731878
8.371357 -13.870629 -1.9707241
9.3938084 -13.287624 -1.9794506
10.05288 -12.856481 -1.9852194
10.691923 -12.392258 -1.9909322
11.608926 -11.635796 -1.9993643
11.902646 -11.368135 -2.0021307
12.470937 -10.810251 -2.0075872
12.745136 -10.520347 -2.0102739
13.012295 -10.223355 -2.012929
12.89206 -8.2533503 -1.8620404
13.098095 -7.946506 -1.8635665
13.296474 -7.6342711 -1.8650398
13.669531 -6.9945517 -1.8678225
13.843935 -6.667479 -1.8691303
14.010098 -6.3358312 -1.8703802
15.843818 -5.3953867 -2.0359507
16.215467 -4.2416701 -2.0388427
16.319687 -3.850888 -2.0396695
16.498085 -3.0614891 -2.0411124
16.572109 -2.6634741 -2.0417275
16.635967 -2.2635508 -2.0422714
16.765907 -1.0553882 -2.0434694
16.800888 -0.24561095 -2.0439048
16.794346 0.56497985 -2.0440466
16.254717 4.16325 -2.0410717
16.076582 4.5335088 -2.0318482
14.808007 4.5641289 -1.8848877
14.506396 5.2497015 -1.8765752
14.067353 6.2752814 -1.8737134
12.893721 6.5146708 -1.757242
12.155566 6.5144 -1.6775765
11.481006 6.5141497 -1.6057049
10.861582 6.5139189 -1.5406036
10.290049 6.5137053 -1.4814003
9.7605762 6.5135074 -1.4273831
9.2680273 6.5133233 -1.3779352
8.8082228 6.5131497 -1.3325495
8.2696972 6.4291606 -1.2741747
7.9583883 6.5011172 -1.2500136
7.2349415 6.5164924 -1.1844212
6.5679297 6.5162344 -1.1254236
5.6801462 6.5158877 -1.0514832
5.4090915 6.5157795 -1.0301049
5.1486621 6.5156779 -1.0101554
4.8979979 6.5155768 -0.99153149
4.6562696 6.51548 -0.97413516
3.5581152 6.5150347 -0.902982
3.3109961 6.4263153 -0.8793599
3.1171386 6.4262357 -0.86880225
2.7446094 6.4309134 -0.85052824
2.5945215 6.509799 -0.85243279
2.2370899 6.5096455 -0.83729237
2.0629101 6.509572 -0.83064032
1.3901465 6.5092793 -0.80964917
1.226748 6.5092068 -0.80572432
0.42800781 6.5088468 -0.79345107
0.11336914 6.5087051 -0.79184383
-0.51572263 6.5084109 -0.79416943
-0.83313477 6.5082607 -0.79813069
-0.99322265 6.508184 -0.80082673
-1.1544824 6.5081072 -0.80401093
-1.3171387 6.508029 -0.80769199
-1.6474316 6.5078678 -0.81659305
-1.8155175 6.5077872 -0.82184005
-2.3036816 6.4218683 -0.82990098
-2.4807909 6.423676 -0.83762711
-3.263916 6.5051665 -0.88531208
-3.6667187 6.5049615 -0.90831923
-4.0920606 6.5047431 -0.93478966
-4.5439939 6.5045061 -0.96516269
-5.0274415 6.5042534 -0.99997902
-5.8250098 6.50383 -1.0620502
-6.7332225 6.5033441 -1.1386921
-7.0664744 6.5031643 -1.1681763
-7.3201461 6.4175091 -1.1841713
-7.6883883 6.4190435 -1.2183287
-8.1795406 6.5008268 -1.2709386
-10.028818 6.499815 -1.4537293
-12.456494 6.0854011 -1.686381
-12.591972 5.7796354 -1.6853534
-13.062187 4.5298929 -1.681743
-14.64456 3.1704199 -1.8226577
-14.901386 1.3835956 -1.8204292
-14.957138 0.30242676 -1.8197845
-14.959257 -0.058450315 -1.8196858
-14.938857 -0.77981263 -1.8196623
-14.916308 -1.1399859 -1.8197378
-14.846621 -1.8583587 -1.8200631
-14.799521 -2.2162256 -1.8203126
-14.609297 -3.2824993 -1.8214082
-14.44208 -3.9854765 -1.8224258
-14.346396 -4.3340874 -1.8230203
-14.242793 -4.680532 -1.8236716
-12.764912 -5.9802117 -1.7146982
-12.245468 -6.4745703 -1.6849545
-12.092969 -6.772121 -1.6859622
-11.594404 -7.643784 -1.68928
-11.228574 -8.2059431 -1.6917328
-10.836631 -8.7515812 -1.6943736
-10.631083 -9.0178108 -1.6957632
-10.419296 -9.2794638 -1.6971978
-11.078242 -10.356145 -1.8446988
-10.834931 -10.629888 -1.8463531
-10.328945 -11.160867 -1.8498026
-10.066484 -11.417809 -1.8515962
-9.797842 -11.668888 -1.8534349
-9.5231934 -11.913917 -1.8553174
-9.2426662 -12.15275 -1.8572427
-8.9562988 -12.385263 -1.8592107
-8.6643257 -12.611296 -1.8612198
-8.3667965 -12.830741 -1.8632699
-8.0639257 -13.043418 -1.8653592
-7.4425583 -13.44804 -1.8696526
-7.1243944 -13.63968 -1.8718548
-6.801445 -13.824088 -1.8740923
-6.4738865 -14.001065 -1.8763641
-6.1418066 -14.170541 -1.8786697
-5.8054395 -14.332354 -1.8810071
-2.9271777 -7.7593498 -1.0087889
-3.7061131 -15.136706 -1.8956438
-3.3444335 -15.242023 -1.8981735
-2.6124804 -15.427114 -1.9032987
-1.8705273 -15.577634 -1.9085028
