# .PCD v0.7 - Point Cloud Data file format
VERSION 0.7
FIELDS x y z
SIZE 4 4 4
TYPE F F F
COUNT 1 1 1
WIDTH 1499
HEIGHT 1
VIEWPOINT 0 0 0 1 0 0 0
POINTS 1499
DATA ascii
6.3405857 0.24164061 -1.9712075
6.3328419 0.39449766 -1.9711874
6.3060641 0.69940001 -1.9710652
6.2870312 0.85125303 -1.9709634
6.2642674 1.0025799 -1.9708343
6.237783 1.1532879 -1.9706786
6.2075486 1.3032873 -1.9704956
6.1736522 1.452475 -1.9702859
6.1360841 1.6007659 -1.9700497
6.0500684 1.8942852 -1.9694979
6.0016403 2.0393333 -1.9691827
5.8942089 2.325551 -1.968475
5.7728319 2.606024 -1.9676657
5.5653319 3.0144458 -1.9662652
5.4895606 3.1469805 -1.9657501
5.4105859 3.2775743 -1.9652114
5.2431641 3.5326221 -1.9640641
5.1548438 3.6569214 -1.9634565
4.9692283 3.8987145 -1.9621753
4.772109 4.1309423 -1.9608089
4.6693749 4.2432971 -1.9600947
4.4559374 4.4601526 -1.958607
4.3058982 4.5230861 -1.9400603
3.7369726 4.5422482 -1.8272864
3.4592869 4.6443186 -1.7990643
3.3447657 4.724287 -1.7982577
3.1101952 4.8755994 -1.7966025
2.8687205 5.0151439 -1.7948949
2.7455859 5.080409 -1.7940228
2.3675096 5.25775 -1.7913396
1.8461621 5.4500561 -1.7876276
1.309707 5.5905442 -1.7837945
1.0374414 5.6410265 -1.7818445
0.90058589 5.6612864 -1.780863
0.76333982 5.6782212 -1.7798781
0.62582028 5.6918163 -1.7788904
0.4880957 5.7020822 -1.7779003
0.35021484 5.7090111 -1.7769084
0.21230468 5.7126012 -1.7759155
0.07441406 5.7128634 -1.774922
-0.47525391 5.6807299 -1.7709537
-0.61177731 5.6644492 -1.7699662
-1.1520801 5.5668173 -1.7660502
-1.6793749 5.418148 -1.7622161
-1.8086133 5.3731918 -1.7612746
-2.1888866 5.2201233 -1.7584987
-2.3129883 5.1631446 -1.7575914
-2.4356055 5.1032472 -1.7566938
-2.6761913 4.9748497 -1.7549304
-2.9101269 4.8352599 -1.7532122
-3.1367869 4.6848292 -1.7515441
-3.3685253 4.5406384 -1.7563949
-3.5315721 4.5279565 -1.7839265
-4.0723338 4.5071669 -1.8870944
-4.4052539 4.2178588 -1.8946995
-4.6933298 3.8838866 -1.8925461
-4.8717184 3.6504478 -1.8912063
-5.0387402 3.408988 -1.8899468
-5.1178708 3.2854228 -1.8893481
-5.1940231 3.1600573 -1.8887701
-5.2671971 3.0329626 -1.8882133
-5.6409473 2.2381639 -1.8853354
-5.6920896 2.1010094 -1.8849353
-5.7845407 1.82336 -1.8842045
-5.86375 1.541748 -1.8835684
-5.8983688 1.39966 -1.8832859
-5.9574413 1.1132922 -1.8827938
-5.9818749 0.96916866 -1.8825842
-6.0029197 0.82452512 -1.882399
-6.0205564 0.67943788 -1.8822384
-6.0347462 0.53398681 -1.8821024
-6.0567479 0.096241452 -1.881842
-6.0571876 -0.049869385 -1.8818051
-6.0541697 -0.19595093 -1.8817927
-6.0477242 -0.34192199 -1.8818052
-6.0378222 -0.48770019 -1.8818426
-6.0245118 -0.63320863 -1.8819048
-6.0077438 -0.77836972 -1.881992
-5.987617 -0.92311031 -1.8821036
-5.9370408 -1.2109796 -1.8824011
-5.8729782 -1.4962018 -1.8827963
-5.7955079 -1.7781488 -1.8832891
-5.7048044 -2.0562105 -1.8838781
-5.654541 -2.1936004 -1.8842087
-5.5443163 -2.4646904 -1.8849398
-5.3552146 -2.8610406 -1.8862103
-5.2859669 -2.9901199 -1.8866793
-5.1383495 -3.2432823 -1.8876842
-4.9788475 -3.4893253 -1.8887765
-4.8947263 -3.609504 -1.8893548
-4.3318748 -4.28655 -1.8932531
-4.228838 -4.3914461 -1.8939713
-4.123281 -4.493916 -1.894708
-4.0152926 -4.5938921 -1.8954629
-3.6772265 -4.8782783 -1.8978329
-3.560039 -4.9677062 -1.8986566
-3.4407032 -5.0543599 -1.8994964
-3.3192871 -5.1381941 -1.9003519
-3.0704687 -5.2971835 -1.902108
-2.8141503 -5.4442759 -1.9039205
-2.683291 -5.5132499 -1.9048476
-2.4166796 -5.6418352 -1.9067389
-2.2810645 -5.7013636 -1.9077023
-1.7247266 -5.9068351 -1.9116633
-1.1272558 -5.9379406 -1.8776439
-0.979707 -5.9391332 -1.8700025
-0.83325195 -5.940146 -1.8634489
-0.54291993 -5.9416394 -1.8535345
-0.11146484 -5.9425845 -1.8464642
0.031894531 -5.9425592 -1.8461568
0.46279296 -5.9414587 -1.8513796
0.607207 -5.9407482 -1.855183
1.4933202 -5.9327188 -1.9005618
1.6459081 -5.9307194 -1.9120867
1.8003808 -5.9285169 -1.924821
2.2421679 -5.8292332 -1.9402658
2.5233397 -5.7203684 -1.942317
2.661953 -5.6607928 -1.9433297
2.9348729 -5.5315051 -1.9453263
3.0689843 -5.4618659 -1.9463089
3.3320994 -5.3127723 -1.9482396
3.4609668 -5.2334018 -1.9491863
3.5878906 -5.1508665 -1.9501202
3.7128417 -5.0652208 -1.9510406
3.9564452 -4.8847694 -1.9528376
4.0749412 -4.7900648 -1.9537137
4.3049607 -4.5919805 -1.955417
4.5251756 -4.3826966 -1.9570525
4.6314259 -4.274004 -1.9578433
4.8359275 -4.0488272 -1.9593692
4.9340234 -3.9324801 -1.9601028
5.1216111 -3.6926124 -1.9615103
5.2972946 -3.4436514 -1.9628341
5.537539 -3.05446 -1.9646558
5.7486329 -2.6482596 -1.966271
5.8122849 -2.5094614 -1.9667621
5.9825487 -2.0840583 -1.9680876
6.0322657 -1.9395443 -1.9684794
6.2267871 -1.2006255 -1.9700527
6.2546778 -1.050213 -1.9702886
6.2788377 -0.89914304 -1.9704978
6.3380957 -0.29014891 -1.9710662
6.3451071 0.015844727 -1.9711877
6.3370018 0.32181945 -1.9712002
6.3137989 0.62701595 -1.971104
6.2755566 0.93067378 -1.970899
6.2223825 1.2320398 -1.9705859
6.1544237 1.5303552 -1.9701655
6.1149316 1.6781378 -1.9699152
5.6002145 2.9507518 -1.9665017
5.448545 3.2157054 -1.9654706
5.0144334 3.8420568 -1.9624879
4.9186325 3.9605491 -1.961825
4.8200097 4.0766139 -1.9611413
4.7185936 4.1901793 -1.9604369
4.5076561 4.4095469 -1.9589678
4.398242 4.5152307 -1.958204
4.2015429 4.526731 -1.9186728
4.0084958 4.5333228 -1.8799269
3.822871 4.5394702 -1.8436939
3.646709 4.5486178 -1.8111475
2.5550292 5.1740036 -1.7926714
2.4282618 5.2315025 -1.7917714
1.9090234 5.4298801 -1.7880759
1.6431934 5.5097718 -1.7861792
1.5090137 5.5448227 -1.7852203
1.3741015 5.5765882 -1.7842554
1.2385254 5.605062 -1.7832851
1.1023828 5.6302233 -1.7823099
0.1399707 5.7131543 -1.7753944
-0.1355664 5.7068615 -1.7734076
-0.27300781 5.6987438 -1.7724152
-0.41014647 5.6873169 -1.7714244
-0.54689449 5.6726012 -1.7704356
-0.81891602 5.6333556 -1.7684665
-1.0884179 5.58113 -1.7665124
-1.4866797 5.4788342 -1.7636187
-1.6175195 5.4384446 -1.7626665
-1.7472754 5.3949547 -1.7617215
-2.0033104 5.2987962 -1.7598542
-2.1293945 5.2461886 -1.7589335
-2.3774512 5.1320972 -1.7571194
-2.4992871 5.0706811 -1.7562274
-2.6195409 5.0064111 -1.7553461
-2.9703124 4.7968554 -1.7527697
-3.1951756 4.6436377 -1.7511139
-3.3046973 4.5631151 -1.7503059
-3.6219335 4.5246019 -1.8005136
-3.7989256 4.5178905 -1.8337826
-4.2548532 4.3745432 -1.8958195
-4.3573828 4.2689233 -1.8950562
-4.457324 4.1609521 -1.8943111
-4.7411914 3.8234851 -1.8921871
-4.9166307 3.587893 -1.8908682
-5.0805955 3.3444214 -1.8896304
-5.1581836 3.219903 -1.8890423
-5.2327733 3.0936253 -1.8884754
-5.3728223 2.8360662 -1.8874065
-5.438242 2.7049255 -1.8869047
-5.6681833 2.1663885 -1.8851227
-5.7637401 1.8897674 -1.88437
-5.806582 1.7498828 -1.8840288
-5.9151368 1.3248438 -1.8831477
-5.9446092 1.1816326 -1.8829021
-5.9706736 1.0377868 -1.8826809
-6.0125976 0.74849427 -1.8823117
-6.0284276 0.60320801 -1.8821638
-6.0408301 0.45759827 -1.8820406
-6.0553317 0.16572571 -1.8818682
-6.056025 -0.12648255 -1.8817956
-6.0512304 -0.27251405 -1.8817962
-6.0161619 -0.70937741 -1.8819473
-5.9756837 -0.99880737 -1.8821719
-5.8894334 -1.4286438 -1.8826934
-5.8151364 -1.7114294 -1.8831632
-5.7275681 -1.990473 -1.8837295
-5.6788278 -2.1283996 -1.8840487
-5.6268749 -2.2651618 -1.8843912
-5.4517674 -2.6677277 -1.8855594
-5.3192968 -2.9289255 -1.8864535
-5.0976562 -3.3085098 -1.8879623
-5.0178318 -3.4314928 -1.888509
-4.9350977 -3.5525875 -1.8890771
-4.6698337 -3.9038913 -1.8909069
-4.479248 -4.1274347 -1.8922282
-4.3799901 -4.2358098 -1.8929182
-4.2781444 -4.341855 -1.8936274
-3.7322071 -4.834784 -1.8974469
-3.2547948 -5.1810069 -1.9008065
-2.8757422 -5.4103942 -1.9034847
-2.6140039 -5.5481811 -1.9053386
-2.480664 -5.6123996 -1.9062846
-2.0715332 -5.7858849 -1.9091924
-1.9324023 -5.837194 -1.9101831
-1.7919238 -5.8851829 -1.9111842
-1.650332 -5.9298267 -1.912194
-0.61168945 -5.9413476 -1.855511
-0.32327148 -5.9423127 -1.8487839
-0.036289062 -5.9425931 -1.8461752
0.10706054 -5.9424772 -1.8464047
0.68317384 -5.9403062 -1.8575944
0.82865232 -5.9393287 -1.8629984
0.97503906 -5.9381723 -1.869471
1.5731152 -5.9316959 -1.9064568
1.7266699 -5.9295897 -1.9186114
1.882207 -5.927279 -1.9319949
2.0316894 -5.9006643 -1.9387325
2.1745899 -5.8530869 -1.9397732
2.3163574 -5.8020258 -1.9408065
2.5961914 -5.6895494 -1.942849
2.734082 -5.6281934 -1.9438571
3.1386425 -5.4240313 -1.9468194
3.2701757 -5.3494024 -1.9477847
3.3999317 -5.2715507 -1.9487377
3.5277734 -5.1905174 -1.9496777
3.6536717 -5.1063471 -1.9506046
3.7775488 -5.0190768 -1.9515176
3.8993065 -4.9287724 -1.9524157
4.4737206 -4.4334521 -1.9566699
4.6861033 -4.2159567 -1.9582506
4.7883005 -4.1033001 -1.9590133
4.9843259 -3.8705056 -1.9604799
5.1688375 -3.6281991 -1.9618655
5.3413477 -3.3769391 -1.9631671
5.4229393 -3.2481477 -1.9637849
5.5765719 -2.9846203 -1.9649533
5.6485448 -2.8500447 -1.9655029
5.7171578 -2.7137024 -1.966029
5.8442969 -2.4360509 -1.9670097
6.101191 -1.7169518 -1.9690279
6.2122068 -1.2719104 -1.9699311
6.3085155 -0.66779298 -1.9707654
6.334199 -0.36283752 -1.9710212
6.3413963 -0.20996398 -1.9711087
6.3448143 -0.056951903 -1.9711688
6.3444433 0.096100464 -1.9712014
6.3403025 0.24909729 -1.9712073
6.3323731 0.40194517 -1.9711856
6.3206735 0.55454892 -1.9711367
6.3052049 0.70681149 -1.9710608
6.2860055 0.85864073 -1.9709576
6.2363768 1.1606152 -1.9706701
6.1719041 1.4597217 -1.970275
6.092783 1.7552276 -1.9697735
6.0477829 1.9013922 -1.9694833
5.9992089 2.0463762 -1.9691669
5.9470701 2.1900964 -1.9688244
5.8322754 2.473388 -1.9680634
5.3243551 3.4123583 -1.9646212
4.8672657 4.0217223 -1.9614691
4.767158 4.1364818 -1.9607745
4.6642871 4.2487106 -1.9600592
4.5587401 4.3583398 -1.9593241
4.4505858 4.4653087 -1.9585696
3.9102635 4.5365992 -1.8606253
3.7282226 4.5425291 -1.8256342
3.5664454 4.5656395 -1.799818
3.33916 4.7281127 -1.798218
2.6148338 5.1455774 -1.7930957
2.4887109 5.2045469 -1.7922006
2.1026855 5.3626342 -1.7894559
1.9716991 5.4089732 -1.7885226
1.8396875 5.4520812 -1.7875814
1.706748 5.4919519 -1.7866327
1.5729589 5.528563 -1.7856772
1.4383692 5.5618906 -1.7847152
1.3030859 5.5919371 -1.7837473
1.167207 5.6186719 -1.7827744
1.0307813 5.6420908 -1.7817968
0.89389646 5.66219 -1.7808151
0.75665039 5.6789613 -1.77983
0.6191113 5.6923985 -1.7788421
0.34348631 5.7092614 -1.77686
0.20556641 5.7126904 -1.775867
0.067675777 5.7127914 -1.7748733
-0.070087887 5.7095604 -1.77388
-0.20766601 5.7030163 -1.7728869
-0.34495115 5.6931629 -1.7718954
-0.4819043 5.6800098 -1.7709056
-0.88985348 5.6209083 -1.7679522
-1.1585938 5.5653124 -1.7660029
-1.2918066 5.5327148 -1.7650355
-1.5554101 5.4580493 -1.7631185
-1.9428515 5.3227649 -1.7602954
-2.0695996 5.2715807 -1.7593703
-2.318994 5.1602893 -1.7575474
-2.4415429 5.1002488 -1.7566503
-2.5625489 5.0373316 -1.7557638
-2.7997265 4.9030247 -1.7540236
-3.0299804 4.7577038 -1.7523305
-3.1422753 4.6810265 -1.7515036
-3.2528515 4.6017356 -1.7506886
-3.5398827 4.5276475 -1.7854445
-3.894326 4.5141954 -1.8521285
-4.0816307 4.5067954 -1.8889459
-4.3089452 4.3194532 -1.895417
-4.5086818 4.1034031 -1.8939276
-4.6045899 3.9919481 -1.8932105
-4.6978126 3.8782947 -1.8925124
-4.8759274 3.6446521 -1.8911749
-4.9607325 3.5247948 -1.8905358
-5.2706833 3.0267272 -1.8881868
-5.3406348 2.8978996 -1.8876529
-5.4712696 2.6355743 -1.8866504
-5.5893064 2.3675084 -1.8857378
-5.6435056 2.231499 -1.8853155
-5.6945114 2.0942857 -1.8849162
-5.7422071 1.9559387 -1.8845403
-5.8655272 1.5348407 -1.883554
-5.9829979 0.96212828 -1.8825744
-6.0038671 0.81746215 -1.8823905
-6.021338 0.6723547 -1.882231
-6.0531249 0.23519531 -1.8819004
-6.0568552 0.089124754 -1.8818395
-6.0539451 -0.20306519 -1.8817927
-6.006865 -0.78544551 -1.8819968
-5.9865427 -0.93015319 -1.8821096
-5.905127 -1.3609118 -1.8825961
-5.793457 -1.7849767 -1.8833025
-5.7495899 -1.9244837 -1.883586
-5.6519918 -2.2002594 -1.8842252
-5.5414743 -2.4712307 -1.8849587
-5.4182324 -2.7368069 -1.885785
-5.3519044 -2.8673761 -1.8862329
-5.2100587 -3.1237335 -1.8871953
-4.8034568 -3.7334027 -1.8899835
-4.7135644 -3.8494403 -1.8906044
-4.6208982 -3.9633551 -1.8912457
-4.4275584 -4.1845512 -1.8925875
-4.3269138 -4.2917123 -1.8932878
-4.2237501 -4.3964949 -1.8940067
-4.0099902 -4.5986972 -1.8955002
-3.8994627 -4.6960039 -1.8962741
-3.7866406 -4.7906852 -1.8970649
-3.5542674 -4.9719987 -1.8986971
-3.434834 -5.0585175 -1.8995376
-3.3133299 -5.1422081 -1.9003938
-3.1897752 -5.2230229 -1.9012654
-2.8078418 -5.4477143 -1.9039654
-2.1372559 -5.760325 -1.9087247
-1.4189649 -5.9350801 -1.8957723
-1.2687891 -5.9366364 -1.8859414
-1.1200293 -5.9380035 -1.8772452
-0.82613277 -5.9401908 -1.8631561
-0.53585935 -5.9416676 -1.8533459
-0.24794921 -5.9424524 -1.8477035
0.038867187 -5.9425535 -1.8461677
0.4697949 -5.9414282 -1.8515404
0.61424804 -5.9407091 -1.855395
0.90529293 -5.938745 -1.8662586
1.0522461 -5.9374938 -1.873298
1.3497655 -5.9344397 -1.8906921
1.6533788 -5.9306169 -1.9126797
1.8079687 -5.9284043 -1.925473
1.9633594 -5.9220676 -1.9382352
2.1067481 -5.8761506 -1.9392791
2.3902147 -5.7738638 -1.9413453
2.5301366 -5.7175388 -1.9423666
2.9414356 -5.5281882 -1.9453744
3.2078416 -5.3853064 -1.9473273
3.3384373 -5.3089719 -1.9482861
3.5940428 -5.1467624 -1.9501655
3.7188866 -5.0609641 -1.951085
3.84166 -4.9720988 -1.9519904
4.0806541 -4.7853737 -1.9537557
4.1967382 -4.6876206 -1.954615
4.31042 -4.5870118 -1.9554574
4.6365528 -4.2686362 -1.9578815
4.7400293 -4.1571999 -1.9586529
4.8407712 -4.0432153 -1.9594054
4.9387403 -3.9267523 -1.9601382
5.3014355 -3.4374678 -1.9628652
5.614707 -2.9142797 -1.9652443
5.9850388 -2.077044 -1.9681072
6.1229587 -1.639787 -1.9692025
6.1617088 -1.4918671 -1.9695163
6.2799511 -0.89175838 -1.9705076
6.3167186 -0.58796871 -1.9708428
6.345078 0.023306275 -1.9711893
6.3427439 0.17634155 -1.9712079
6.3267188 0.48200378 -1.9711634
6.3130469 0.6344409 -1.9711004
6.2495408 1.0890331 -1.9707484
6.1885839 1.388891 -1.9703789
6.0227637 1.9775702 -1.9693207
5.9723043 2.121906 -1.9689904
5.7998924 2.5466783 -1.967847
5.735527 2.6852417 -1.9674151
5.6677637 2.8221416 -1.9669588
5.5223045 3.0906377 -1.9659729
5.4446778 3.2220671 -1.9654443
5.2799215 3.4788916 -1.9643165
5.1028514 3.7271495 -1.9630983
4.9139061 3.9662695 -1.9617922
4.8151269 4.0822129 -1.9611075
4.6092968 4.3065248 -1.9596765
4.5023532 4.4147677 -1.958931
3.6388671 4.549789 -1.8099074
3.5076075 4.6093259 -1.7994043
3.3938963 4.6904969 -1.7986038
3.1608691 4.8442783 -1.7969604
2.9208007 4.9863572 -1.7952635
2.7983301 5.0529151 -1.7943965
2.1645801 5.3394737 -1.7898965
1.7700976 5.4733934 -1.7870849
1.636709 5.5115576 -1.7861328
1.5024706 5.5464501 -1.7851737
1.0957325 5.6313658 -1.7822622
0.95905274 5.6530466 -1.7812827
0.68456054 5.6864233 -1.7793124
0.13323241 5.7131553 -1.7753459
-0.14225586 5.7065415 -1.7733592
-0.55354494 5.6717992 -1.7703875
-0.68981445 5.6536474 -1.7694012
-0.96057618 5.6075768 -1.7674395
-1.228545 5.5486145 -1.7654949
-1.3612792 5.5143552 -1.7645307
-1.4930761 5.4769382 -1.7635723
-1.8821288 5.3460474 -1.7607385
-2.0094824 5.2962961 -1.7598093
-2.2601953 5.1878209 -1.7579772
-2.5051856 5.0676146 -1.7561842
-2.7439356 4.9359765 -1.7544333
-3.0891407 4.7178268 -1.7518951
-3.3099999 4.5591235 -1.7502668
-3.8076952 4.5175509 -1.8354592
-4.1549802 4.4727683 -1.896562
-4.2599216 4.3694458 -1.8957819
-4.3623242 4.263711 -1.8950195
-4.4621286 4.1556201 -1.8942752
-4.5593162 4.0452356 -1.8935492
-4.6538281 3.9326184 -1.8928421
-4.9207616 3.5820494 -1.8908372
-5.0040622 3.4611669 -1.8902088
-5.0844626 3.3383923 -1.8896011
-5.1618943 3.213789 -1.8890141
-5.307744 2.959373 -1.887904
-5.4413376 2.6985004 -1.8868809
-5.618125 2.2963495 -1.8855135
-5.6706443 2.1596923 -1.8851035
-5.8840036 1.4604095 -1.8834035
-5.9166698 1.3178803 -1.8831351
-5.9459567 1.1746337 -1.8828909
-5.9718652 1.0307586 -1.8826708
-6.041338 0.4504956 -1.8820351
-6.0554981 0.15861022 -1.8818655
-6.050879 -0.27963561 -1.881797
-6.0424705 -0.42550537 -1.8818237
-6.0306249 -0.57114071 -1.8818753
-5.9200487 -1.293012 -1.8825042
-5.8877831 -1.4355792 -1.8827038
-5.8521385 -1.5773584 -1.8829278
-5.8131542 -1.7182782 -1.883176
-5.7708592 -1.8582553 -1.8834482
-5.6763864 -2.1350942 -1.8840646
-5.6242576 -2.2717922 -1.8844085
-5.5688963 -2.4072587 -1.884776
-5.4486814 -2.6741698 -1.8855804
-5.3158884 -2.9352219 -1.8864764
-5.2448826 -3.0633688 -1.8869582
-5.1708689 -3.1898327 -1.8874624
-4.9309864 -3.5584455 -1.8891052
-4.8452344 -3.6774893 -1.8896955
-4.6653123 -3.9094424 -1.890938
-4.4744725 -4.132771 -1.8922613
-4.3750877 -4.2410374 -1.8929522
-4.2731442 -4.3469605 -1.8936623
-3.6103222 -4.9298701 -1.8983032
-3.491914 -5.0177145 -1.8991359
-3.2487793 -5.1849504 -1.900849
-2.9977441 -5.3405643 -1.9026217
-2.7393651 -5.4841871 -1.9044503
-2.4741113 -5.6154523 -1.9063312
-2.3391309 -5.6763463 -1.9072895
-2.2026856 -5.734025 -1.9082595
-2.0647752 -5.7884607 -1.9092404
-1.9255663 -5.8396087 -1.9102317
-1.6433984 -5.9319205 -1.9122436
-1.340039 -5.9359198 -1.890473
-1.190625 -5.937376 -1.8812419
-1.0425781 -5.9386468 -1.8731292
-0.89565426 -5.9397354 -1.8661141
-0.74972653 -5.9406452 -1.8601755
-0.60462892 -5.94138 -1.8552978
-0.46021482 -5.9419394 -1.8514667
-0.31626952 -5.942328 -1.8486722
-0.029296875 -5.9425907 -1.846163
0.11407226 -5.9424677 -1.8464428
0.25754881 -5.942174 -1.8477447
0.54546875 -5.9410729 -1.8534317
0.69025391 -5.9402623 -1.8578326
0.83578122 -5.9392762 -1.8632892
0.98221678 -5.9381113 -1.8698138
1.1297265 -5.9367652 -1.8774273
1.4287207 -5.9335132 -1.8960037
1.5805566 -5.9315977 -1.9070219
1.7341894 -5.9294825 -1.9192349
1.8898437 -5.9271607 -1.9326785
2.3232422 -5.7994452 -1.9408569
2.7407715 -5.6251168 -1.9439059
2.8771386 -5.5602241 -1.9449035
3.0119336 -5.4919982 -1.9458908
3.1450975 -5.4204702 -1.9468669
3.659785 -5.1021562 -1.9506495
3.9051757 -4.9242949 -1.9524591
4.0246387 -4.8308501 -1.9533416
4.369082 -4.5331335 -1.9558926
4.6911521 -4.2105222 -1.9582882
4.9889646 -3.8647094 -1.9605144
5.0825486 -3.7445974 -1.9612167
5.5051169 -3.1109221 -1.9644089
5.6519628 -2.8434384 -1.9655291
5.7855272 -2.5689056 -1.9665555
5.8472166 -2.4292023 -1.9670324
5.9602342 -2.1453564 -1.9679126
6.0114841 -2.0013855 -1.9683152
6.0591502 -1.8561676 -1.9686925
6.1437206 -1.5623419 -1.9693701
6.1805859 -1.4139209 -1.9696702
6.2432227 -1.1145129 -1.970191
6.2689939 -0.96369869 -1.9704119
6.2910252 -0.8122943 -1.9706059
6.3416505 -0.20250426 -1.971112
6.3448825 -0.049490355 -1.9711709
6.344336 0.10356262 -1.9712026
6.3400097 0.25655457 -1.9712069
6.2618551 1.0173004 -1.9708204
6.170166 1.466969 -1.9702642
6.0906739 1.7623792 -1.9697601
6.0454884 1.9084868 -1.9694684
5.9967575 2.0534117 -1.9691508
5.8293066 2.4802208 -1.9680433
5.7665524 2.619539 -1.9676236
5.7004004 2.7572412 -1.9671789
5.6308985 2.8932385 -1.9667095
5.5580859 3.0274537 -1.9662161
5.4820118 3.1597986 -1.9656985
5.4027147 3.2901988 -1.9651574
5.2346873 3.5448351 -1.9640058
4.9598923 3.9102674 -1.9621108
4.8624511 4.0273743 -1.9614358
4.6592188 4.2541175 -1.9600241
4.4452734 4.4704528 -1.9585327
4.089922 4.5305638 -1.8961484
3.7195311 4.5428076 -1.8239862
3.5609961 4.5697374 -1.7997799
3.2169335 4.8087559 -1.7973562
2.8567674 5.0216403 -1.7948103
2.733496 5.0866041 -1.7939371
2.6087012 5.1485229 -1.7930523
2.4825487 5.2073412 -1.7921569
2.2262499 5.315598 -1.7903352
2.0963182 5.3649716 -1.7894104
1.9652734 5.4111471 -1.7884768
1.8332226 5.4541001 -1.7875353
1.4317871 5.5634336 -1.7846681
1.1605663 5.6198874 -1.7827269
0.88720703 5.6630845 -1.7807672
0.74995118 5.6796947 -1.7797821
0.6124121 5.692966 -1.7787939
0.47464842 5.7029061 -1.7778037
0.33674803 5.7095056 -1.7768115
-0.35165039 5.6925964 -1.7718472
-0.48857421 5.6792831 -1.7708573
-0.76105469 5.6428208 -1.7688855
-1.0311524 5.593358 -1.7669277
-1.5617676 5.456068 -1.7630725
-1.6920117 5.4139023 -1.7621239
-1.8211328 5.3686438 -1.7611831
-1.949082 5.3203354 -1.7602501
-2.2010643 5.2146935 -1.7584097
-2.3250098 5.1574278 -1.7575033
-2.4474804 5.0972509 -1.7566067
-2.6877441 4.9683008 -1.7548457
-3.0354979 4.7540307 -1.75229
-3.1477442 4.6772265 -1.7514633
-3.383369 4.5383277 -1.7585723
-3.5482225 4.527339 -1.7869667
-4.2103319 4.4189 -1.8961508
-4.4149804 4.2073231 -1.8946267
-4.5134277 4.0980201 -1.8938922
-4.7022948 3.8726952 -1.8924789
-4.8801365 3.6388524 -1.8911432
-4.9648046 3.5189002 -1.8905051
-5.1254101 3.2732763 -1.8892907
-5.2012892 3.1477387 -1.8887149
-5.3439841 2.8915777 -1.8876272
-5.474287 2.6291034 -1.8866273
-5.5347557 2.4956822 -1.8861605
-5.6968846 2.0875671 -1.8848975
-5.7887106 1.8097076 -1.8841714
-5.8296485 1.66927 -1.8838437
-5.9015331 1.3857641 -1.8832599
-5.9324608 1.2428485 -1.8830038
-5.9599705 1.0992633 -1.8827723
-6.0533786 0.22807799 -1.881897
-6.0569239 0.082001954 -1.8818374
-6.0570407 -0.064111941 -1.8818027
-6.0536914 -0.21019591 -1.8817929
-6.0469236 -0.35615355 -1.8818078
-6.0230274 -0.64738643 -1.8819122
-5.9615426 -1.0813708 -1.8822546
-5.934248 -1.2249517 -1.8824179
-5.9035645 -1.3678638 -1.8826059
-5.8695211 -1.510028 -1.8828181
-5.7913961 -1.7918005 -1.8833157
-5.6494532 -2.2069244 -1.8842421
-5.5386229 -2.4777703 -1.8849777
-5.4784179 -2.6111963 -1.8853805
-5.4150486 -2.7432065 -1.8858066
-5.3485742 -2.8736999 -1.8862551
-5.2790332 -3.0026219 -1.8867264
-5.2064548 -3.1298997 -1.8872198
-5.1308494 -3.2554522 -1.8877356
-5.0522461 -3.3792224 -1.8882731
-4.8863573 -3.6211147 -1.8894122
-4.6163087 -3.9688497 -1.8912774
-4.4226952 -4.1898293 -1.8926213
-4.2186522 -4.4015427 -1.8940424
-3.7810936 -4.795238 -1.8971038
-3.6658885 -4.8871222 -1.8979125
-3.3073437 -5.1462145 -1.900436
-3.1837108 -5.2268915 -1.9013083
-3.0581348 -5.3046327 -1.9021951
-2.8014452 -5.4511395 -1.9040105
-2.670459 -5.5198107 -1.9049386
-2.4035254 -5.6477814 -1.9068322
-2.1305468 -5.7629719 -1.9087726
-1.85208 -5.8651104 -1.9107554
-1.7109667 -5.9111857 -1.9117614
-1.4116211 -5.9351597 -1.8952664
-0.81901366 -5.9402356 -1.8628671
-0.67355466 -5.941052 -1.8574859
-0.52881837 -5.9416947 -1.8531588
0.33287108 -5.9419513 -1.8488361
0.76644528 -5.9397674 -1.8605615
0.9124316 -5.9386883 -1.8665763
1.3570801 -5.9343553 -1.8911719
1.5081152 -5.9325333 -1.9016339
1.6608691 -5.9305134 -1.9132735
1.8155371 -5.9282913 -1.9261274
2.1137304 -5.8738198 -1.9393297
2.5369239 -5.7147031 -1.9424162
2.67541 -5.6547914 -1.9434282
2.9480274 -5.524857 -1.9454226
3.0819824 -5.4548936 -1.9464041
3.2142577 -5.3816504 -1.9473742
3.4734569 -5.225492 -1.9492782
3.6001854 -5.1426511 -1.9502106
3.8475878 -4.967689 -1.952034
3.9681053 -4.8756628 -1.9529239
4.3159275 -4.5820332 -1.9554983
4.5356345 -4.3722148 -1.9571302
4.6416407 -4.2632623 -1.9579192
4.7449999 -4.1517024 -1.9586902
5.1304493 -3.6806865 -1.9615768
5.2195115 -3.5570881 -1.9622473
5.3884764 -3.3033864 -1.9635239
5.8183007 -2.4958549 -1.9668084
5.8781934 -2.3553247 -1.9672728
5.9346094 -2.2133586 -1.9677122
5.9875388 -2.0700109 -1.9681268
6.0369139 -1.9253742 -1.9685162
6.1249413 -1.6325879 -1.9692184
6.1984277 -1.3357178 -1.969817
6.2296481 -1.1859833 -1.9700769
6.2572069 -1.0355023 -1.9703103
6.301074 -0.7326892 -1.9706967
6.3299804 -0.42802855 -1.9709756
6.3438282 -0.12227722 -1.9711463
6.3122849 0.641864 -1.9710966
6.2946777 0.79388851 -1.9710051
6.2733202 0.94542539 -1.9708863
6.2482224 1.0963788 -1.9707407
6.2194042 1.2466534 -1.9705679
6.0674314 1.8391241 -1.9696102
5.8484764 0.43173766 -1.967706
5.8362207 0.57265866 -1.9676501
5.8204589 0.71323055 -1.9675694
5.80125 0.85336423 -1.9674635
5.6900973 1.4077966 -1.9667914
5.5712695 1.814818 -1.9660293
5.4755077 2.0807123 -1.9654013
5.4227829 2.2117822 -1.9650519
5.3668356 2.341491 -1.9646788
5.3077536 2.4697559 -1.9642828
5.1801853 2.7216563 -1.9634221
5.1118164 2.8451366 -1.962958
5.0404587 2.9668701 -1.9624722
4.9661522 3.0867815 -1.9619645
4.8889256 3.2048023 -1.9614356
4.6403809 3.5467956 -1.9597239
4.4611034 3.764066 -1.9584826
4.3675585 3.8692882 -1.9578329
4.2715135 3.9721496 -1.9571649
4.172998 4.0725904 -1.9564782
3.968828 4.2659812 -1.9550518
3.7556348 4.4490137 -1.9535583
3.6324804 4.519978 -1.9456683
3.4608495 4.5257568 -1.9116571
3.2948534 4.5311522 -1.8798122
3.1341014 4.5361853 -1.8499931
2.9781444 4.5408826 -1.8220749
2.83166 4.5533447 -1.7991369
2.7127538 4.6062913 -1.7936761
2.5996776 4.6682968 -1.7928759
2.4852147 4.7275023 -1.7920647
2.2522559 4.8373876 -1.7904116
1.8939062 4.9804688 -1.7878625
1.7723632 5.0222645 -1.7869964
1.6499023 5.0610752 -1.7861233
1.5266113 5.0968847 -1.785243
1.4025292 5.1296778 -1.7843565
1.2777734 5.1594272 -1.7834647
1.1523535 5.1861362 -1.7825669
0.89999998 5.2303624 -1.7807587
0.77319336 5.2478671 -1.7798492
0.39112303 5.2818761 -1.777104
0.26348633 5.2870359 -1.7761854
0.13582031 5.2891197 -1.7752661
0.0082031246 5.2881103 -1.7743462
-0.1192871 5.2840333 -1.7734265
-0.24659179 5.2768812 -1.7725075
-0.37358397 5.2666712 -1.7715902
-0.50026363 5.2534094 -1.7706742
-0.62649411 5.237113 -1.769761
-0.75223631 5.217793 -1.7688503
-1.1258007 5.1418567 -1.7661408
-1.2488672 5.1106162 -1.7652469
-1.371084 5.0764537 -1.7643582
-1.6126856 4.9994345 -1.7625995
-1.7319336 4.9566379 -1.7617302
-1.9670508 4.8626075 -1.7600143
-2.1971581 4.7575355 -1.7583319
-2.4217479 4.6416917 -1.7566863
-2.7975488 4.5297532 -1.7863858
-3.1015918 4.5190516 -1.8390797
-3.2604492 4.5131712 -1.8681564
-3.4243457 4.5069103 -1.8992102
-3.6396778 4.3388853 -1.9002441
-3.7417967 4.2481394 -1.8994871
-3.8416698 4.1550317 -1.898746
-4.0345311 3.9619348 -1.8973113
-4.1274023 3.8620617 -1.896619
-4.3912792 3.5498314 -1.8946451
-4.5544138 3.3317723 -1.8934188
-4.6319919 3.219959 -1.8928338
-4.7069044 3.1063726 -1.8922677
-4.7790723 2.9910741 -1.8917209
-4.9150782 2.7556098 -1.8906862
-4.978838 2.6355791 -1.8901988
-5.1526952 2.2670898 -1.8888605
-5.2538476 2.0151207 -1.8880731
-5.2999024 1.8874512 -1.8877116
-5.3828907 1.6291015 -1.8870536
-5.4842091 1.2350982 -1.8862319
-5.5117383 1.1023297 -1.8860029
-5.5361133 0.96896178 -1.8857963
-5.5573144 0.83506775 -1.8856125
-5.5902343 0.56600219 -1.8853126
-5.6019235 0.43097413 -1.885197
-5.6157031 0.16030456 -1.885035
-5.6177926 0.024807738 -1.8849883
-5.6167088 -0.1106958 -1.8849648
-5.6048827 -0.38143799 -1.8849871
-5.563242 -0.78577882 -1.8851932
-5.5430079 -0.91978878 -1.8853079
-5.519619 -1.0532941 -1.8854454
-5.3946972 -1.5808002 -1.8862231
-5.2685642 -1.9675647 -1.8870422
-5.1693358 -2.2201257 -1.8876987
-5.1152635 -2.3446083 -1.8880594
-5.0582418 -2.4678061 -1.8884414
-4.9355273 -2.7100606 -1.8892697
-4.869873 -2.8289843 -1.889715
-4.7301464 -3.0620852 -1.8906677
-4.6561913 -3.1761377 -1.8911741
-4.5794725 -3.2884326 -1.8917009
-4.5001369 -3.3989093 -1.892247
-4.4181542 -3.507513 -1.8928125
-4.3336134 -3.6141717 -1.8933969
-4.2465525 -3.7188323 -1.8939999
-4.0649509 -3.9219067 -1.8952612
-3.8738086 -4.1162686 -1.8965935
-3.7747753 -4.210042 -1.8972852
-3.4644725 -4.4770746 -1.8994592
-3.3568163 -4.5611458 -1.9002154
-3.2471483 -4.6426692 -1.9009866
-3.1355078 -4.7215924 -1.9017727
-2.9066308 -4.8714447 -1.9033873
-2.7894921 -4.9422793 -1.9042149
-2.5501854 -5.0755677 -1.9059083
-2.0531249 -5.3074427 -1.9094361
-1.9254491 -5.3579679 -1.9103445
-1.6663965 -5.4498463 -1.9121897
-1.4030371 -5.5292997 -1.9140688
-1.2698926 -5.5642953 -1.9150202
-1.1358887 -5.596107 -1.9159783
-0.86558592 -5.6500769 -1.9179138
-0.72940427 -5.6721954 -1.9188899
-0.59267575 -5.6910462 -1.9198706
-0.17993164 -5.7278366 -1.9228363
-0.041767579 -5.7334747 -1.9238305
0.096611328 -5.7357841 -1.924827
0.23503906 -5.7347565 -1.9258249
0.92572266 -5.6794977 -1.9308145
1.3359863 -5.6063213 -1.9337878
1.4715821 -5.575304 -1.9347721
1.6064355 -5.5409913 -1.9357518
1.7404785 -5.5034032 -1.9367263
1.8736913 -5.4625535 -1.9376957
2.1370215 -5.3711576 -1.9396145
2.2670605 -5.3206515 -1.9405633
2.3958983 -5.2669721 -1.941504
2.5234375 -5.210155 -1.9424362
2.7743945 -5.0872083 -1.944273
2.8976464 -5.0211411 -1.9451766
3.139287 -4.880003 -1.9469503
3.2575097 -4.8050156 -1.9478198
3.4884863 -4.6463847 -1.9495209
3.7116308 -4.476522 -1.9511684
3.8200977 -4.3875031 -1.9519708
3.9264061 -4.2958179 -1.9527578
4.1322265 -4.1046753 -1.9542855
4.3286033 -3.903542 -1.9557474
4.4230957 -3.7993734 -1.9564523
4.5150194 -3.6928809 -1.9571395
4.6910353 -3.4731884 -1.9584588
4.9345016 -3.1278527 -1.9602932
5.0824804 -2.8878961 -1.9614154
5.15207 -2.7652154 -1.9619453
5.2820802 -2.5148156 -1.9629402
5.3424997 -2.387244 -1.9634051
5.5522361 -1.8630102 -1.9650383
5.6375585 -1.593634 -1.9657156
5.6752343 -1.4574206 -1.9660188
5.7095408 -1.3203002 -1.9662979
5.7404685 -1.1823541 -1.9665527
5.7679977 -1.0436761 -1.9667833
5.7920899 -0.90434629 -1.9669893
5.8127441 -0.76445127 -1.9671705
5.8299704 -0.62407589 -1.9673272
5.8437304 -0.48330811 -1.9674591
5.8539939 -0.34223938 -1.9675659
5.8607907 -0.20095336 -1.9676477
5.8641114 -0.059537351 -1.9677044
5.8602538 0.22333679 -1.9677423
5.8424802 0.50567138 -1.9676797
5.8283887 0.64642149 -1.9676108
5.7653513 1.0659417 -1.967254
5.7374706 1.2045898 -1.9670852
5.6715136 1.4795666 -1.9666739
5.6334958 1.6157324 -1.9664315
5.5921092 1.7508997 -1.9661647
5.5474415 1.8849932 -1.965874
5.4994922 2.0179205 -1.9655594
5.4482713 2.1496081 -1.9652209
5.3938379 2.2799718 -1.964859
5.3362303 2.4089344 -1.9644738
5.2754884 2.5364134 -1.9640658
5.0018454 3.0299835 -1.9622085
4.6814256 3.4938304 -1.9600074
4.5943847 3.6046202 -1.9594061
4.3174901 3.9235277 -1.9574847
4.2201462 4.0251222 -1.9568069
4.1203809 4.1242771 -1.9561111
4.0182223 4.220912 -1.9553972
3.6982715 4.4952345 -1.9531555
3.541748 4.5230579 -1.9275548
3.2099316 4.5338354 -1.8639303
3.0517187 4.5386915 -1.8351226
2.8989258 4.5444345 -1.8086404
2.6536522 4.639154 -1.7932578
2.4246385 4.7574191 -1.791635
2.1903417 4.8642907 -1.7899716
2.0714061 4.9133835 -1.7891259
1.9513671 4.9595456 -1.7882718
1.7082812 5.0429893 -1.7865394
1.4616504 5.1144567 -1.7847791
0.83354491 5.2399254 -1.7802823
0.57928711 5.2686219 -1.7784567
0.45180663 5.2783375 -1.7775406
0.06888672 5.2889719 -1.7747836
-0.058671873 5.286355 -1.7738638
-0.31321287 5.2719102 -1.7720263
-0.44003904 5.2600975 -1.7711097
-0.94282222 5.1825609 -1.7674688
-1.0670019 5.1556821 -1.7665677
-1.1904395 5.1258459 -1.7656714
-1.4348047 5.057373 -1.7638948
-1.5555761 5.0187941 -1.7630154
-1.6753613 4.9773474 -1.7621427
-1.7940429 4.9330673 -1.7612773
-2.0278711 4.8361158 -1.7595696
-2.7276757 4.5321054 -1.774856
-2.8756053 4.5270762 -1.7995332
-3.0276952 4.5217185 -1.8259088
-3.1843066 4.5160141 -1.8540881
-3.5903614 4.3811998 -1.9006094
-3.7944629 4.1996045 -1.8990965
-3.8931346 4.1052809 -1.8983635
-3.989502 4.0086703 -1.8976465
-4.0835252 3.9098339 -1.8969461
-4.1751366 3.8088305 -1.8962625
-4.264287 3.7057152 -1.8955961
-4.3509374 3.6005492 -1.8949474
-4.435039 3.4933958 -1.8943166
-4.5165429 3.384315 -1.8937038
-4.5954294 3.2733641 -1.8931097
-4.8837695 2.8121746 -1.8909249
-5.0111227 2.5720551 -1.8899515
-5.0704784 2.4498487 -1.8894955
-5.1268945 2.3262982 -1.8890601
-5.2308788 2.0754638 -1.8882526
-5.3228517 1.8200909 -1.8875307
-5.3642673 1.6908826 -1.8872021
-5.402617 1.560755 -1.8868955
-5.4378614 1.4297717 -1.8866113
-5.5249023 1.0324621 -1.8858918
-5.5967579 0.49523252 -1.8852493
-5.6067772 0.36007813 -1.8851457
-5.613584 0.22472411 -1.8850653
-5.6172071 0.089258417 -1.8850076
-5.6176071 -0.046250608 -1.8849733
-5.5996876 -0.45230651 -1.8850081
-5.5873046 -0.58725584 -1.8850659
-5.5717578 -0.72187984 -1.8851467
-5.5311327 -0.98986691 -1.8853772
-5.5060935 -1.1230762 -1.8855267
-5.4779005 -1.2556695 -1.8856992
-5.3746386 -1.6490203 -1.8863519
-5.2903905 -1.9068441 -1.8868991
-5.243711 -2.0342247 -1.8872057
-5.1940231 -2.1604843 -1.8875345
-5.0857129 -2.4093716 -1.8882571
-5.0271873 -2.5318685 -1.8886504
-4.9657421 -2.6529689 -1.889065
-4.8343067 -2.8907242 -1.889957
-4.6916895 -3.1221094 -1.8909309
-4.6162987 -3.2352448 -1.891448
-4.5381932 -3.3465946 -1.8919848
-4.199873 -3.772893 -1.8943237
-4.0157323 -3.9737291 -1.8956039
-3.5149412 -4.4362082 -1.8991048
-3.4082811 -4.5214777 -1.8998539
-3.2995703 -4.6042137 -1.900618
-3.1888475 -4.6843824 -1.9013971
-3.076211 -4.7619224 -1.9021908
-2.9617283 -4.8367887 -1.9029983
-2.7273827 -4.9783225 -1.9046541
-2.2391601 -5.2273936 -1.9081143
-2.1134179 -5.2823505 -1.9090075
-1.7284374 -5.4291162 -1.9117473
-1.5978124 -5.4718909 -1.912679
-1.4660254 -5.5115447 -1.9136192
-1.3333398 -5.5480475 -1.9145669
-1.065293 -5.6115026 -1.9164838
-0.65777344 -5.6824875 -1.9194037
-0.52079099 -5.6996198 -1.9203867
-0.2455664 -5.7239928 -1.9223641
-0.10749999 -5.7312088 -1.9233575
0.16919921 -5.7356629 -1.9253502
0.5843457 -5.7172995 -1.9283459
0.7224707 -5.704493 -1.9293442
0.99774414 -5.6688633 -1.931336
1.1347754 -5.6460485 -1.9323287
1.2712598 -5.6199131 -1.9333183
1.5423925 -5.5577207 -1.9352865
1.6768163 -5.521688 -1.9362634
1.8104491 -5.4823875 -1.9372354
2.074785 -5.3940611 -1.9391607
2.4629395 -5.2375731 -1.941994
2.8392186 -5.0529413 -1.9447482
2.9616308 -4.9852896 -1.945646
3.434248 -4.6851382 -1.9491212
3.5477734 -4.6029224 -1.9499584
3.7687793 -4.4301748 -1.9515911
3.8761132 -4.3397517 -1.9523853
4.0841308 -4.1510544 -1.9539282
4.4716015 -3.7438149 -1.9568149
4.8178906 -3.2999933 -1.9594131
4.8975782 -3.1838048 -1.9600143
4.9744239 -3.0656602 -1.9605954
5.252295 -2.5749452 -1.9627116
5.3141599 -2.448107 -1.9631867
5.3728809 -2.3197539 -1.9636397
5.4284763 -2.1899681 -1.9640706
5.4808493 -2.0588284 -1.9644784
5.5758691 -1.7928045 -1.9652249
5.6184764 -1.6580817 -1.9655631
5.6936426 -1.3856225 -1.966168
5.7553415 -1.1097217 -1.9666766
5.7810645 -0.97068787 -1.9668944
5.803359 -0.83105224 -1.9670874
5.8376074 -0.55030519 -1.9673994
5.8579884 -0.26817015 -1.9676118
5.8629394 -0.1268042 -1.9676803
5.8644333 0.014644165 -1.967724
5.8624315 0.15609008 -1.9677424
5.8569336 0.2974408 -1.9677355
5.8479686 0.43861327 -1.9677037
5.8196092 0.72007203 -1.9675647
5.7774024 0.99976927 -1.9673256
5.7511425 1.1387347 -1.9671686
5.6122069 1.6867394 -1.9662948
5.5691013 1.821355 -1.9660152
5.5226855 1.9548438 -1.965712
5.4730272 2.0871367 -1.965385
5.1769137 2.7277141 -1.9633999
5.108418 2.8511119 -1.9629349
4.8048925 3.3264611 -1.9608581
4.6361232 3.5521984 -1.9596945
4.5476856 3.6618445 -1.9590827
4.2667675 3.9770982 -1.9571316
4.1681347 4.0774231 -1.9564444
3.8581445 4.3632798 -1.954277
3.7503026 4.4533472 -1.9535208
3.4526172 4.5260277 -1.9100561
2.8247752 4.5542393 -1.7981781
2.7072558 4.6093798 -1.7936372
2.4795799 4.7303171 -1.7920246
2.2465136 4.839922 -1.7903707
2.1281152 4.890398 -1.7895293
1.8879882 4.982573 -1.7878206
1.7663964 5.0242262 -1.786954
1.2716601 5.1608005 -1.7834207
1.1462402 5.1873617 -1.7825232
0.89383787 5.231288 -1.7807146
0.63985348 5.2629137 -1.7788919
0.51247066 5.2740989 -1.7779766
0.38489258 5.282197 -1.7770593
0.0019726562 5.2879882 -1.7743013
-0.63263673 5.2362413 -1.7697165
-1.1317968 5.1404037 -1.7660972
-1.3770117 5.0747104 -1.7643151
-1.4982715 5.0375013 -1.7634327
-1.6185156 4.997417 -1.762557
-1.7377343 4.9544797 -1.7616879
-1.972705 4.8601794 -1.7599729
-2.0883691 4.8088684 -1.7591275
-2.2026954 4.7548399 -1.7582912
-2.3156445 4.6981125 -1.7574643
-3.5405664 4.4229565 -1.9009777
-3.6447265 4.3345127 -1.9002067
-3.8464842 4.1504331 -1.89871
-4.0391111 3.9571142 -1.8972772
-4.1318846 3.8571374 -1.8965853
-4.2221971 3.7550206 -1.8959109
-4.310039 3.6508203 -1.8952539
-4.395371 3.5446007 -1.8946142
-4.4781151 3.4364307 -1.8939929
-4.5582519 3.3263648 -1.8933898
-4.6357226 3.2144604 -1.8928057
-4.7825294 2.9854083 -1.8916945
-4.8517871 2.8683887 -1.8911684
-4.918252 2.7497954 -1.8906618
-4.9818554 2.6296892 -1.8901757
-5.0426073 2.5081432 -1.8897097
-5.3020701 1.8812023 -1.8876945
-5.4551172 1.3607739 -1.8864709
-5.4856248 1.2286401 -1.8862203
-5.5372267 0.96244383 -1.8857867
-5.6024117 0.42438719 -1.885192
-5.6107421 0.28911865 -1.8851007
-5.6178222 0.018199462 -1.8849869
-5.6165624 -0.11730529 -1.8849642
-5.6044431 -0.38802978 -1.8849887
-5.562324 -0.79231751 -1.8851984
-5.5419531 -0.92631221 -1.885314
-5.428916 -1.4564373 -1.8860055
-5.3928709 -1.5871502 -1.8862349
-5.3115234 -1.8458886 -1.8867608
-5.0553904 -2.473778 -1.8884606
-4.9953318 -2.5955484 -1.8888654
-4.7979784 -2.952028 -1.8902044
-4.5756736 -3.2938597 -1.891727
-4.4961915 -3.4042499 -1.8922741
-4.4141111 -3.5127578 -1.8928403
-4.3294334 -3.6193225 -1.8934258
-4.1525488 -3.8263774 -1.8946524
-4.06042 -3.9267471 -1.8952929
-3.8690331 -4.1208897 -1.8966268
-3.6685154 -4.3058677 -1.8980289
-3.5649512 -4.3947759 -1.8987542
-3.0164063 -4.8015146 -1.9026126
-2.9009471 -4.8749614 -1.9034274
-2.6648242 -5.0135813 -1.9050967
-2.4221289 -5.1408939 -1.9068159
-2.2984765 -5.2002125 -1.9076931
-1.396582 -5.5310788 -1.914115
-1.2633691 -5.5659213 -1.9150668
-1.1293359 -5.5975733 -1.9160254
-0.99451172 -5.6260166 -1.9169903
-0.85893553 -5.6512308 -1.9179614
-0.44877928 -5.7072873 -1.9209039
-0.31114256 -5.7193942 -1.9218926
-0.17320313 -5.7281895 -1.9228848
-0.035009764 -5.7336631 -1.9238791
0.38025391 -5.7300916 -1.9268724
0.5186035 -5.7222204 -1.9278711
0.6567871 -5.7110019 -1.9288695
0.79476559 -5.6964421 -1.929867
1.2064258 -5.63276 -1.932848
1.4781543 -5.5737033 -1.9348197
1.880127 -5.4604788 -1.9377426
2.6557617 -5.147222 -1.9434046
2.7804394 -5.0840521 -1.9443175
2.9035938 -5.0178418 -1.9452204
3.0251758 -4.9486156 -1.9461123
3.1450779 -4.8764181 -1.9469931
3.2632227 -4.8012848 -1.9478619
3.3795702 -4.7232585 -1.9487182
3.9315233 -4.2912788 -1.952796
4.0354786 -4.1968617 -1.9535669
4.1371288 -4.0998912 -1.9543219
4.4276462 -3.7942359 -1.9564863
4.519453 -3.6876311 -1.9571725
4.6086426 -3.5787728 -1.9578406
4.8600292 -3.2393074 -1.9597307
5.0859571 -2.8819525 -1.9614418
5.1553807 -2.7591846 -1.9619704
5.2217774 -2.6347175 -1.962478
5.3453512 -2.380986 -1.9634272
5.4024315 -2.2518728 -1.9638684
5.4563475 -2.1213694 -1.9642874
5.5986228 -1.7222918 -1.9654052
5.6394629 -1.5870184 -1.9657309
5.6769724 -1.4507586 -1.9660329
5.7111325 -1.3135949 -1.9663109
5.7418847 -1.1756164 -1.9665644
5.7692285 -1.036903 -1.9667938
5.7931833 -0.89753109 -1.9669987
5.86415 -0.052636106 -1.9677062
5.8638086 0.088820189 -1.9677367
5.8098731 0.79360288 -1.9675117
5.7640719 1.0727154 -1.9672464
5.7045603 1.3491894 -1.9668819
5.6315527 1.6223516 -1.966419
5.4970508 2.0243731 -1.9655433
5.3911228 2.2862945 -1.964841
5.2724414 2.5425897 -1.9640454
5.1413574 2.7926347 -1.9631588
5.0712891 2.9151225 -1.9626821
4.9982224 3.0358202 -1.9621838
4.6772361 3.4992785 -1.9599786
4.5900683 3.6099608 -1.9593762
4.5002341 3.7184508 -1.9587539
4.215332 4.0300145 -1.9567733
4.1154394 4.1290488 -1.9560766
4.0131836 4.2255616 -1.9553622
3.6929197 4.4994993 -1.9531181
3.3650486 4.5288939 -1.8931515
3.0441601 4.5389185 -1.8337671
2.8920116 4.5453601 -1.8076553
2.6481445 4.6421642 -1.7932189
1.8243555 5.0047836 -1.7873672
1.3311132 5.1471009 -1.7838458
0.95402342 5.2219553 -1.7811462
0.82737303 5.2407703 -1.780238
0.70035154 5.2565098 -1.7793264
0.31796876 5.2852125 -1.7765777
0.19031249 5.2886071 -1.7756585
-0.064892575 5.2861471 -1.773819
-0.31941405 5.2714024 -1.7719816
-0.69861329 5.2264085 -1.7692386
-0.94888669 5.1813145 -1.7674249
-1.1964356 5.1243138 -1.7656279
-1.3190038 5.0913939 -1.7647369
-1.561455 5.0168371 -1.7629727
-1.6811621 4.9752574 -1.7621003
-1.9172753 4.8836122 -1.7603778
-2.2621093 4.7254248 -1.7578562
-2.3743165 4.6673036 -1.7570343
-2.4850488 4.6065478 -1.7562222
-2.7348046 4.5318675 -1.7760208
-3.4902735 4.4641623 -1.9013498
-3.5954492 4.3768873 -1.9005716
-3.897871 4.1006298 -1.8983282
-3.9941504 4.0038953 -1.8976121
-4.0880661 3.9049573 -1.8969123
-4.1795311 3.8038476 -1.8962299
-4.2685642 3.7006309 -1.8955642
-4.4390821 3.4881177 -1.8942862
-4.5991993 3.2679083 -1.8930813
-4.6752734 3.1550732 -1.892507
-4.7486229 3.0404968 -1.8919519
-4.8191895 2.9242461 -1.8914163
-4.886992 2.8063922 -1.8909003
-5.0140719 2.5661321 -1.8899288
-5.0732713 2.4438586 -1.8894738
-5.18291 2.1953697 -1.8886262
-5.4044042 1.5543804 -1.8868814
-5.5680566 0.75812316 -1.8855171
-5.5842772 0.62355286 -1.8853689
-5.6175585 -0.052852783 -1.8849722
-5.6084862 -0.32371154 -1.8849746
-5.5991406 -0.45890012 -1.8850104
-5.5866208 -0.59383607 -1.8850694
-5.5520506 -0.86264461 -1.8852561
-5.5047851 -1.1295575 -1.8855346
-5.4764357 -1.2621167 -1.8857082
-5.3727245 -1.6553503 -1.8863641
-5.3319726 -1.7847046 -1.8866278
-5.2881932 -1.913077 -1.8869134
-5.2413473 -2.0404019 -1.8872213
-5.138701 -2.2916214 -1.8879026
-5.0242577 -2.5378134 -1.8886703
-4.962666 -2.658844 -1.889086
-4.8309665 -2.8964472 -1.8899795
-4.7608981 -3.0128841 -1.8904575
-4.6880956 -3.1276636 -1.8909554
-4.6125388 -3.2407131 -1.8914737
-4.4534669 -3.4613876 -1.8925686
-4.3700099 -3.5688863 -1.8931451
-4.2840137 -3.6744049 -1.8937402
-4.0111523 -3.978514 -1.8956358
-3.8173339 -4.1702909 -1.8969879
-3.4030077 -4.5255728 -1.899891
-3.294209 -4.6081896 -1.9006556
-3.1833985 -4.6882234 -1.9014355
-3.0706639 -4.7656317 -1.9022299
-2.4804101 -5.11166 -1.9064028
-2.3574805 -5.1723642 -1.9072745
-2.2330565 -5.2301435 -1.9081576
-1.8516992 -5.3855515 -1.9108696
-1.7221191 -5.4312711 -1.9117925
-1.5913867 -5.4738941 -1.9127246
-1.4595801 -5.5133977 -1.9136653
-1.1932031 -5.582921 -1.9155685
-0.78759766 -5.6631517 -1.9184725
-0.6511035 -5.6833987 -1.9194516
-0.37666991 -5.714045 -1.9214219
-0.23884766 -5.7244205 -1.9224124
-0.10075195 -5.7314782 -1.923406
0.037519529 -5.7352076 -1.9244015
0.59109372 -5.7167563 -1.9283947
0.72916991 -5.7037845 -1.9293927
0.86701173 -5.6874743 -1.9303895
1.0044433 -5.6678276 -1.9313846
1.1414551 -5.6448522 -1.9323771
1.2779101 -5.6185541 -1.9333665
1.413789 -5.5889435 -1.9343524
1.5489649 -5.5560393 -1.9353341
1.6833692 -5.5198479 -1.936311
1.8169335 -5.4803882 -1.9372827
2.081162 -5.3917432 -1.9392071
2.2116895 -5.3425999 -1.9401592
2.5959473 -5.1761847 -1.9429666
2.7213182 -5.1144819 -1.9438844
2.8452246 -5.0497165 -1.9447922
3.0882616 -4.9111195 -1.9465755
3.3244727 -4.7607212 -1.9483126
3.5532618 -4.5988398 -1.9499987
3.6646972 -4.5137 -1.9508215
3.7740722 -4.4258265 -1.9516302
3.8813086 -4.3352757 -1.9524238
3.9863281 -4.2420955 -1.9532021
4.0890722 -4.1463265 -1.9539648
4.1895018 -4.0480418 -1.9547113
4.2875094 -3.9472909 -1.9554409
4.3830566 -3.8441277 -1.9561534
4.6543555 -3.5208092 -1.9581834
5.3170896 -2.4418828 -1.9632095
5.3756833 -2.3134606 -1.9636614
5.4310937 -2.1836073 -1.9640908
5.5780468 -1.7862579 -1.9652419
5.6595702 -1.5156841 -1.9658923
5.7276855 -1.2413391 -1.9664468
5.75667 -1.1029626 -1.9666877
5.7822266 -0.96389037 -1.9669043
5.8382711 -0.54343504 -1.9674058
5.850029 -0.40248534 -1.9675231
5.8583202 -0.26128173 -1.9676157
5.8644137 0.021541748 -1.9677255
5.8474512 0.44549072 -1.9677016
5.8348336 0.5863812 -1.9676434
5.8187594 0.7269128 -1.9675602
5.7991891 0.86699826 -1.9674517
5.749795 1.1454871 -1.9671605
5.6867285 1.4211541 -1.9667699
5.6101756 1.6933331 -1.9662817
5.5669041 1.8278942 -1.966001
5.5203514 1.9613293 -1.9656967
5.41749 2.2244947 -1.9650165
5.3612108 2.3540637 -1.9646411
5.2392774 2.6087792 -1.9638216
5.1736426 2.7337706 -1.9633776
5.0333495 2.9786425 -1.9624237
4.7177734 3.4458776 -1.9602581
4.4520898 3.7744322 -1.95842
4.3583102 3.8794286 -1.9577687
4.2620115 3.9820518 -1.9570986
4.1632519 4.0822544 -1.9564102
4.062119 4.1799741 -1.9557043
3.9586425 4.2751498 -1.9549807
3.8529003 4.367732 -1.9542402
3.7450194 4.4576697 -1.9534838
3.6154883 4.5205588 -1.9422537
3.4444335 4.5263 -1.9084598
3.1186817 4.5366588 -1.8471893
2.9631932 4.5413232 -1.8194506
2.7017968 4.6124582 -1.7935987
2.5885937 4.674192 -1.7927972
2.4739842 4.73313 -1.791985
2.3579783 4.7892213 -1.7911623
2.240752 4.842452 -1.7903298
2.1223145 4.8927855 -1.7894882
1.8820995 4.9846754 -1.7877784
1.7604492 5.0261793 -1.7869116
1.6379199 5.0647035 -1.7860376
1.3903906 5.1327109 -1.7842697
1.1400878 5.1885767 -1.7824792
0.76082027 5.2494054 -1.7797602
0.6336621 5.2635312 -1.7788473
0.50624996 5.2745652 -1.7779318
0.37869141 5.2825146 -1.7770144
0.25102538 5.2873778 -1.7760957
0.12335937 5.2891541 -1.7751762
-0.25895506 5.2760181 -1.7724181
-0.38595703 5.2655115 -1.7715008
-0.76448238 5.2157483 -1.7687615
-0.88958985 5.1931272 -1.7678549
-1.0140723 5.1675181 -1.7669519
-1.1378418 5.1389403 -1.7660534
-1.3829395 5.0729651 -1.7642721
-2.2082324 4.7521348 -1.7582507
-2.3211229 4.6952796 -1.757424
-2.4325585 4.6357751 -1.7566072
-2.5424902 4.5736499 -1.7558006
-2.6675293 4.5372729 -1.7660279
-2.9622655 4.5240479 -1.8144348
-3.6497264 4.3301415 -1.9001696
-3.7516112 4.2391672 -1.8994143
-3.8512793 4.1458335 -1.8986744
-3.9486523 4.0501819 -1.8979506
-4.3142676 3.6456859 -1.8952223
-4.3994727 3.5393786 -1.8945837
-4.48208 3.4311035 -1.8939631
-4.5620799 3.3209472 -1.8933612
-4.7859669 2.9797411 -1.8916687
-4.8550978 2.8626409 -1.8911432
-4.9848924 2.6237962 -1.8901523
-5.0454884 2.5021832 -1.8896877
-5.1031637 2.3792033 -1.8892436
-5.1579199 2.25492 -1.8888202
-5.2584863 2.0027122 -1.8880367
-5.3469629 1.7461505 -1.8873397
-5.4566698 1.3543488 -1.8864583
-5.4870214 1.2221801 -1.8862088
-5.5142479 1.0893469 -1.8859817
-5.5769629 0.68760252 -1.8854367
-5.5915136 0.55285031 -1.8853004
-5.6178317 0.011599121 -1.884985
-5.616416 -0.12390319 -1.8849638
-5.5929685 -0.52969301 -1.8850386
-5.5408692 -0.93283445 -1.8853204
-5.517158 -1.0662848 -1.8854601
-5.4603415 -1.3313568 -1.8858081
-5.4272265 -1.4628283 -1.8860162
-5.3910251 -1.593504 -1.8862466
-5.2640038 -1.9799799 -1.8870721
-5.1641893 -2.2323143 -1.8877329
-4.9923339 -2.6014562 -1.8888855
-4.79457 -2.9577098 -1.8902278
-4.7230563 -3.0732846 -1.8907162
-4.6488085 -3.1871653 -1.8912247
-4.4100294 -3.5179946 -1.8928684
-4.2379103 -3.7289276 -1.8940597
-3.9612303 -4.0296674 -1.8959836
-3.6635156 -4.3102512 -1.8980637
-3.5598438 -4.3990531 -1.8987901
-3.2363379 -4.6504831 -1.9010628
-3.1245313 -4.7291455 -1.9018502
-3.0108202 -4.8051586 -1.9026519
-2.895293 -4.8784699 -1.9034674
-2.7779784 -4.9490423 -1.9042963
-2.6589746 -5.0168214 -1.9051383
-2.4161327 -5.1438551 -1.9068584
-1.9129297 -5.3627305 -1.9104337
-1.6536621 -5.4540076 -1.9122806
-1.3900878 -5.5328526 -1.9141614
-1.2568653 -5.5675402 -1.9151134
-0.98790038 -5.6273236 -1.9170376
-0.71609372 -5.6741757 -1.9189852
-0.44208008 -5.7079539 -1.9209518
-0.028271483 -5.7338481 -1.9239279
0.11009765 -5.7358317 -1.9249243
0.38698241 -5.729785 -1.926921
0.52533203 -5.7217507 -1.9279196
0.6635254 -5.710371 -1.9289181
0.93912107 -5.6775889 -1.9309115
1.3492383 -5.6034398 -1.9338839
1.4847656 -5.5720997 -1.9348679
1.6195312 -5.5374718 -1.9358469
1.7535058 -5.4995637 -1.936821
1.8865918 -5.458396 -1.9377897
2.0187109 -5.4139929 -1.9387519
2.1497753 -5.3663721 -1.9397074
2.2796776 -5.3155565 -1.9406551
2.5358105 -5.2044492 -1.9425268
2.661875 -5.1442151 -1.943449
3.385205 -4.7193751 -1.94876
3.611953 -4.5545382 -1.9504321
3.7223144 -4.4679599 -1.9512473
4.7830176 -3.3489821 -1.9591503
5.1586914 -2.7531569 -1.9619958
5.2249413 -2.628608 -1.9625021
5.4588766 -2.1149704 -1.964307
5.5094137 -1.9830865 -1.9647018
5.7127147 -1.3068866 -1.9663239
5.7704883 -1.0301245 -1.9668045
5.8145995 -0.75077695 -1.967187
5.8448825 -0.46956357 -1.9674706
5.854795 -0.32846618 -1.9675748
5.8612695 -0.1871637 -1.9676543
5.8637304 0.09571594 -1.9677377
5.73457 1.2180645 -1.9670677
5.702949 1.3558899 -1.9668717
5.6295996 1.6289611 -1.9664065
5.5879002 1.7640289 -1.9661373
5.5429101 1.8980083 -1.9658444
5.4946289 2.0308204 -1.9655273
5.4430957 2.1623816 -1.9651867
5.3304586 2.4214318 -1.9644351
5.2693849 2.5487609 -1.9640247
5.2052245 2.6745257 -1.9635916
5.0678024 2.9210479 -1.9626586
4.918457 3.1604004 -1.9616381
4.8394628 3.2772069 -1.961096
4.7576466 3.3920031 -1.9605329
4.6730661 3.504724 -1.9599499
4.585752 3.61531 -1.9593463
4.495791 3.7236814 -1.9587231
4.403213 3.8297801 -1.9580806
4.308115 3.9335387 -1.9574195
4.2105274 4.0349011 -1.9567398
4.110527 4.133811 -1.9560422
3.687578 4.5037498 -1.9530805
3.3570018 4.5291553 -1.8916086
3.0365722 4.5391455 -1.8324155
2.7551172 4.5821228 -1.7939758
2.6426075 4.6451783 -1.7931796
2.528662 4.7054477 -1.7923726
2.1787794 4.8692079 -1.7898895
1.8184179 5.0068102 -1.7873248
1.6963086 5.0467553 -1.7864541
1.5733105 5.0836987 -1.7855765
1.4495312 5.1176343 -1.7846923
1.3250195 5.1485376 -1.7838025
1.1998535 5.1764002 -1.782907
0.94785154 5.2229481 -1.7811019
0.82119137 5.241611 -1.7801936
0.69416016 5.2572007 -1.7792819
0.43936524 5.2791162 -1.7774512
0.18408203 5.2886915 -1.7756137
-0.071113281 5.2859364 -1.773774
-0.32558593 5.2708898 -1.771937
-0.4524121 5.2587829 -1.7710202
-0.83016598 5.2042589 -1.7682856
