# .PCD v0.7 - Point Cloud Data file format
VERSION 0.7
FIELDS x y z
SIZE 4 4 4
TYPE F F F
COUNT 1 1 1
WIDTH 1498
HEIGHT 1
VIEWPOINT 0 0 0 1 0 0 0
POINTS 1498
DATA ascii
3.1036327 3.9727521 -1.9482275
3.00583 4.045085 -1.947552
2.7024219 4.2473307 -1.9454513
2.492461 4.3694963 -1.9439934
2.3853807 4.4266777 -1.9432489
2.2769725 4.4812102 -1.9424942
2.0300977 4.5235014 -1.9160846
1.9016503 4.5265765 -1.8973898
1.775498 4.5294061 -1.8800646
1.6515039 4.5319977 -1.8640509
1.529453 4.5343623 -1.8492987
1.4091992 4.5365019 -1.8357656
1.2905663 4.5384321 -1.8234097
1.1734082 4.5401545 -1.8121939
0.94326168 4.5446649 -1.7937155
0.83038086 4.5500007 -1.7873886
0.2748535 4.5873027 -1.7759434
-0.057626951 4.5890813 -1.7735903
-0.16826172 4.5843244 -1.7728062
-0.38892576 4.5668302 -1.7712402
-0.83304685 4.5393558 -1.783531
-1.06083 4.535594 -1.800087
-1.1764063 4.533411 -1.8099643
-1.2932519 4.5310187 -1.8209425
-1.4115527 4.5284123 -1.8330536
-1.5314159 4.5255852 -1.8463358
-1.6530468 4.5225272 -1.8608248
-2.0302246 4.5118899 -1.9120121
-2.1376562 4.4597831 -1.9112413
-2.4517479 4.2883782 -1.9089781
-2.7524023 4.0951176 -1.906805
-3.0381348 3.8810601 -1.9047329
-3.1298046 3.805285 -1.9040664
-3.219619 3.7273638 -1.9034126
-3.4773631 3.4812567 -1.901531
-3.6390038 3.3073614 -1.9003466
-3.71666 3.2176127 -1.8997762
-3.792119 3.1260712 -1.8992207
-3.8653417 3.0327911 -1.8986807
-4.0049806 2.8412132 -1.897648
-4.1353025 2.6433196 -1.8966795
-4.1968751 2.5421448 -1.8962201
-4.2559862 2.4395537 -1.8957778
-4.3126755 2.3356152 -1.8953525
-4.3668261 2.2303839 -1.8949447
-4.4675684 2.0162768 -1.894182
-4.5140624 1.9075238 -1.8938277
-4.5579686 1.7977178 -1.8934913
-4.5992675 1.686922 -1.8931732
-4.6738477 1.4625994 -1.8925931
-4.7377148 1.2350585 -1.8920883
-4.7655759 1.120235 -1.8918645
-4.7907028 1.0047997 -1.8916599
-4.813076 0.88881344 -1.8914746
-4.832705 0.77234191 -1.8913085
-4.8495603 0.65543944 -1.891162
-4.8834567 0.30286437 -1.8908403
-4.8891501 0.18492004 -1.8907727
-4.8920703 0.06688232 -1.8907244
-4.889492 -0.16922668 -1.8906878
-4.8840137 -0.28717712 -1.8906993
-4.8646874 -0.5225116 -1.8907815
-4.8508496 -0.63977474 -1.8908522
-4.8342185 -0.75668824 -1.8909427
-4.7927051 -0.98917842 -1.8911825
-4.7678027 -1.1046307 -1.891332
-4.7401757 -1.2194763 -1.8915009
-4.7098241 -1.3336413 -1.8916891
-4.6410837 -1.5596869 -1.8921233
-4.6026855 -1.6714495 -1.892369
-4.5616407 -1.7822821 -1.8926339
-4.2023144 -2.5270467 -1.8950044
-4.0772948 -2.7280643 -1.8958427
-3.8720899 -3.0180655 -1.8972278
-3.7991307 -3.1114352 -1.8977225
-3.4854589 -3.4670358 -1.8998601
-3.4017968 -3.5512054 -1.9004329
-3.3161426 -3.6333876 -1.9010202
-2.9543555 -3.9412525 -1.9035095
-2.8593652 -4.0127788 -1.9041651
-2.7626758 -4.0820427 -1.9048334
-2.6643164 -4.1490049 -1.9055141
-2.5643456 -4.2136207 -1.9062067
-2.462832 -4.2758579 -1.9069108
-2.3598242 -4.33567 -1.9076262
-2.2553515 -4.3930268 -1.9083523
-1.2602441 -4.7932358 -1.915303
-1.0283886 -4.8525767 -1.9169302
-0.91136718 -4.8780766 -1.9177526
-0.67553711 -4.9206228 -1.919412
-0.43771484 -4.951807 -1.9210882
-0.31822264 -4.9631062 -1.9219314
-0.19845703 -4.9715247 -1.9227771
0.16190429 -4.9794488 -1.9253262
0.40231445 -4.9702377 -1.92703
0.99991208 -4.8964319 -1.9312769
1.2360644 -4.8467059 -1.9329602
1.7003613 -4.7130823 -1.9362776
1.8143554 -4.6726475 -1.9370937
1.9274023 -4.6294374 -1.9379041
2.2600293 -4.4834027 -1.9402926
2.5815136 -4.3133111 -1.9426074
2.6858983 -4.2514067 -1.9433607
2.9897461 -4.0505557 -1.9455581
3.1840038 -3.904413 -1.9469671
3.5503905 -3.5842431 -1.9496347
3.6370311 -3.4986672 -1.9502679
3.8841894 -3.2293947 -1.9520799
3.9621582 -3.135649 -1.9526534
4.0378122 -3.0399988 -1.9532113
4.1111231 -2.9424875 -1.9537529
4.1820798 -2.8431857 -1.9542782
4.250576 -2.7421489 -1.9547863
4.4410253 -2.4292574 -1.9562073
4.5550585 -2.2131171 -1.9570646
4.6348925 2.0506182 -1.9586196
4.4719434 2.3792174 -1.9575427
4.3501368 2.5911365 -1.9567297
4.2181349 2.7967455 -1.9558432
4.1484079 2.8970256 -1.9553729
4.0762792 2.9955339 -1.9548852
4.0017872 3.0922215 -1.9543804
3.8458202 3.279928 -1.9533199
3.6809764 3.459671 -1.952195
3.5953515 3.5464227 -1.9516091
3.2326465 3.8715007 -1.9491171
3.0400097 4.0202155 -1.947788
2.8404491 4.1592646 -1.9464079
2.7382715 4.2250605 -1.9456999
2.5293555 4.3490081 -1.9442499
2.314785 4.4625602 -1.9427575
1.9460351 4.5255365 -1.9037317
1.5716602 4.533565 -1.8542845
1.3316211 4.5377851 -1.8275726
0.64510739 4.5568585 -1.7785571
0.42412108 4.5786624 -1.7769979
0.31335938 4.5855427 -1.7762157
-0.12983398 4.5862799 -1.7730787
-0.35065427 4.5706315 -1.7715122
-0.46065429 4.558826 -1.7707307
-0.57124025 4.5520868 -1.772952
-1.136084 4.5341911 -1.8064069
-1.3702344 4.5293436 -1.8287143
-1.8583593 4.5169501 -1.8875375
-2.1004686 4.4781842 -1.9115088
-2.3122559 4.3681355 -1.9099841
-2.6191015 4.1845636 -1.9077694
-2.9117088 3.9797199 -1.9056507
-3.0981543 3.831867 -1.9042969
-3.188623 3.7546856 -1.9036382
-3.3638086 3.5940521 -1.9023612
-3.4484277 3.5106964 -1.9017428
-3.6115332 3.3381195 -1.9005481
-3.7661426 3.1580882 -1.899412
-3.8401561 3.0654101 -1.8988665
-3.9119041 2.9710181 -1.8983368
-3.9813964 2.8749726 -1.8978225
-4.2357225 2.4753668 -1.8959296
-4.293252 2.3718884 -1.8954983
-4.3482714 2.2670977 -1.8950845
-4.4507813 2.0538158 -1.8943095
-4.5430079 1.835996 -1.8936062
-4.6247559 1.6141241 -1.8929759
-4.695869 1.3887036 -1.8924201
-4.7562013 1.1602136 -1.8919401
-4.805625 0.9291833 -1.8915368
-4.826201 0.81287962 -1.8913641
-4.8440232 0.69611752 -1.8912106
-4.8713279 0.46151978 -1.8909631
-4.8808103 0.34382141 -1.8908685
-4.8907423 -0.12821533 -1.8906884
-4.8862305 -0.2462036 -1.8906931
-4.8688574 -0.48167786 -1.8907614
-4.8559766 -0.59905517 -1.8908255
-4.8006835 -0.94891781 -1.8911356
-4.7500877 -1.1796319 -1.89144
-4.7206836 -1.2940429 -1.8916215
-4.6885939 -1.4077362 -1.8918223
-4.653789 -1.5206378 -1.8920425
-4.5762305 -1.7438647 -1.8925396
-4.4881053 -1.9632308 -1.8931124
-4.3366208 -2.283947 -1.8941102
-4.281074 -2.3884015 -1.8944792
-4.2230468 -2.491528 -1.894866
-4.1625781 -2.5932677 -1.8952703
-4.0997167 -2.6935558 -1.895692
-4.0344334 -2.7923539 -1.896131
-3.8247459 -3.0791826 -1.8975488
-3.7503221 -3.1714325 -1.8980541
-3.5949218 -3.3505445 -1.8991125
-3.5140526 -3.437324 -1.8996648
-3.2591796 -3.6859047 -1.9014111
-2.986953 -3.9158676 -1.9032845
-2.8925781 -3.9881759 -1.9039358
-2.6987109 -4.1259961 -1.9052762
-2.5992773 -4.1914291 -1.9059646
-2.3957617 -4.3151593 -1.9073764
-2.2918067 -4.373373 -1.9080987
-2.186455 -4.4291062 -1.9088316
-1.971748 -4.5329895 -1.9103271
-1.8625391 -4.5810809 -1.9110888
-1.6406738 -4.6693926 -1.912639
-1.4146386 -4.7470379 -1.9142208
-1.3002148 -4.781796 -1.9150229
-1.1849316 -4.8138127 -1.9158312
-0.95212889 -4.8695326 -1.917466
-0.83469725 -4.8931947 -1.9182919
-0.59813476 -4.9320502 -1.9199573
-0.47916016 -4.9472065 -1.9207958
-9.7656244e-05 -4.979115 -1.9241797
0.12011719 -4.9798689 -1.9250301
1.077168 -4.881475 -1.9318273
1.1951953 -4.856173 -1.9326687
1.3126074 -4.8280058 -1.9335063
1.545332 -4.7631454 -1.9351687
1.6605273 -4.7264795 -1.9359926
1.8882519 -4.6447687 -1.9376234
2.0006053 -4.5997581 -1.9384292
2.1118848 -4.5520205 -1.9392278
2.3309472 -4.4484324 -1.9408026
2.4386034 -4.3926411 -1.9415776
2.5448925 -4.3342209 -1.9423434
2.7531934 -4.2096415 -1.9438467
2.8550293 -4.1435447 -1.9445831
2.9553027 -4.0749688 -1.9453087
3.1507714 -3.9304962 -1.9467257
3.3390918 -3.7765448 -1.9480946
3.4304199 -3.6961367 -1.9487597
3.5198047 -3.6134832 -1.9494116
3.6924314 -3.4416788 -1.9506733
3.7755761 -3.3526163 -1.9512826
3.8565526 -3.2615294 -1.951877
4.0117774 -3.0734482 -1.9530194
4.1576853 -2.8778963 -1.9540975
4.2270408 -2.7774551 -1.9546118
4.2939353 -2.6753299 -1.9551089
4.3583007 -2.571557 -1.9555887
4.4793749 -2.3593719 -1.9564948
4.5359864 -2.2510784 -1.9569207
4.5899611 -2.1414165 -1.9573282
4.6521873 2.0117884 -1.9587332
4.1016407 2.9614966 -1.9550567
4.0279298 3.0588353 -1.9545578
3.8735838 3.2478716 -1.9535092
3.7930174 3.3394585 -1.95296
3.7102439 3.4290252 -1.952395
3.6253417 3.5165155 -1.9518144
3.2653809 3.8446929 -1.9493426
2.9756639 4.0666556 -1.9473433
2.8756542 4.1358099 -1.9466516
2.7739842 4.2024751 -1.9459475
2.3524511 4.4435835 -1.9430196
2.1209083 4.521215 -1.929916
1.9906738 4.524466 -1.9102361
1.4925878 4.535037 -1.845046
1.3728613 4.5371146 -1.831875
1.2546972 4.53898 -1.8198706
1.137959 4.5406389 -1.8089951
0.90876949 4.5463762 -1.7917023
0.79610348 4.5514679 -1.785617
0.46258789 4.5756412 -1.7772696
0.24105468 4.5885868 -1.7757045
0.13020508 4.5910382 -1.7749205
0.019384766 4.5908122 -1.7741361
-0.42246091 4.5632281 -1.7710022
-0.64375973 4.5489411 -1.7754556
-0.75524414 4.543488 -1.7799248
-1.095957 4.5349493 -1.8029835
-1.3291699 4.5302482 -1.8245128
-1.4479004 4.527576 -1.8369769
-1.5683007 4.5246782 -1.8506228
-1.6905175 4.5215507 -1.8654897
-1.8146777 4.5181804 -1.8816235
-2.1701367 4.4433894 -1.9110073
-2.3801172 4.3300724 -1.9094949
-2.4829493 4.2697172 -1.908753
-2.6840136 4.141789 -1.9073001
-2.7821484 4.074295 -1.9065896
-2.8786035 4.0045013 -1.9058908
-2.9733202 3.9324553 -1.9052037
-3.0662596 3.8581865 -1.9045285
-3.3339257 3.6225579 -1.9025793
-3.5025487 3.4552422 -1.9013468
-3.7398827 3.1898937 -1.8996054
-4.154336 2.6126239 -1.8965375
-4.2151661 2.5110145 -1.8960834
-4.3294435 2.3036609 -1.8952264
-4.433701 2.0912182 -1.8944391
-4.4820118 1.9832379 -1.8940721
-4.7167478 1.3144776 -1.8922552
-4.7735353 1.0851092 -1.8918
-4.797822 0.96949399 -1.8916012
-4.8193455 0.85334653 -1.8914218
-4.8854685 0.26691467 -1.8908176
-4.8916698 -0.08718811 -1.8906915
-4.8881249 -0.20519897 -1.8906893
-4.8817968 -0.32310486 -1.8907068
-4.8726759 -0.44083008 -1.890744
-4.8286033 -0.79224545 -1.8909744
-4.8083887 -0.90859556 -1.8910904
-4.7854099 -1.0244427 -1.8912262
-4.7312207 -1.2543548 -1.8915564
-4.6662011 -1.4814892 -1.8919637
-4.6296678 -1.5938592 -1.8921962
-4.5041599 -1.9254131 -1.8930076
-4.0573826 -2.7581918 -1.8959765
-3.9214842 -2.9521646 -1.8968936
-3.8500683 -3.0467179 -1.897377
-3.7764256 -3.1395619 -1.8978767
-3.622539 -3.3199527 -1.8989242
-3.5423925 -3.4073792 -1.899471
-3.460166 -3.4929063 -1.9000332
-3.201416 -3.7375515 -1.901808
-3.1112988 -3.8149538 -1.9024279
-3.019336 -3.8902209 -1.9030612
-2.9255664 -3.9632978 -1.9037081
-2.8300683 -4.0341382 -1.9043677
-2.5335741 -4.2328525 -1.9064201
-2.4315722 -4.2943544 -1.907128
-2.2232225 -4.4100175 -1.9085757
-2.0094335 -4.5156703 -1.9100645
-1.9006445 -4.564661 -1.9108232
-1.7906445 -4.6110454 -1.9115908
-1.6795312 -4.6548047 -1.9123672
-0.87557614 -4.8852868 -1.9180044
-0.75775391 -4.9071164 -1.9188333
-0.5205664 -4.9422607 -1.9205041
-0.40131834 -4.9555559 -1.9213449
-0.041845702 -4.9781733 -1.9238843
0.19857422 -4.9787955 -1.9255859
0.43894529 -4.9678111 -1.9272898
0.67873043 -4.94521 -1.9289923
0.79820311 -4.9295626 -1.9298415
0.91735351 -4.9110179 -1.9306893
1.3888378 -4.8080974 -1.9340506
1.7352246 -4.7010498 -1.9365273
1.8489453 -4.6597643 -1.9373416
1.9616797 -4.6157136 -1.9381499
2.0733299 -4.568922 -1.938951
2.1838868 -4.5194092 -1.9397452
2.2932324 -4.4672041 -1.9405313
2.4013379 -4.4123297 -1.9413092
2.5081055 -4.3548174 -1.9420782
2.6134863 -4.2947116 -1.9428381
2.717412 -4.2320261 -1.9435885
2.8198144 -4.1668019 -1.9443283
2.9206445 -4.0990829 -1.9450576
3.0198047 -4.0288959 -1.9457759
3.3068945 -3.803962 -1.9478604
3.6630175 -3.4721477 -1.950458
3.7469139 -3.3838031 -1.9510723
3.8286717 -3.2934151 -1.9516722
3.9854784 -3.1066799 -1.9528253
4.2032127 -2.8125572 -1.9544348
4.3989353 -2.5030103 -1.9558923
4.5715036 -2.179682 -1.9571887
4.6194334 2.084563 -1.9585184
4.4540329 2.4119153 -1.9574236
4.3306541 2.6228998 -1.9565991
4.1971288 2.8274951 -1.9557016
4.0538182 3.0252142 -1.9547331
3.9786034 3.1213353 -1.954223
3.8212793 3.3078496 -1.9531528
3.7392578 3.3981304 -1.9525931
3.5688281 3.5724492 -1.9514272
3.4804883 3.6563945 -1.9508215
3.2979002 3.8176055 -1.9495666
3.2037401 3.8947833 -1.948918
3.0100391 4.0420465 -1.9475812
2.9105957 4.1120548 -1.9468935
2.8094921 4.1795855 -1.9461935
2.6026464 4.3071012 -1.9447589
2.4970117 4.3670001 -1.9440253
2.3899803 4.4242926 -1.9432809
2.2816405 4.4789338 -1.9425267
2.1667969 4.5200214 -1.9370971
1.6567383 4.5318928 -1.8647066
1.2956152 4.5383563 -1.8239136
1.0625098 4.5416141 -1.8024952
0.94810545 4.5444207 -1.7940032
0.72287107 4.5543718 -1.7820693
0.61147457 4.5608759 -1.77832
0.39037108 4.5810418 -1.7767596
0.16873047 4.5904913 -1.775193
-0.16355468 4.5845842 -1.7728397
-0.27400389 4.5772758 -1.7720561
-0.60510743 4.5506558 -1.7740819
-0.71643555 4.5454717 -1.7782843
-1.0559278 4.5356827 -1.7996904
-1.1714355 4.5335078 -1.8095191
-1.2882421 4.531126 -1.8204498
-1.5262696 4.5257111 -1.845744
-1.771289 4.5193782 -1.87587
-2.0247169 4.5120573 -1.9111984
-2.3440528 4.3504791 -1.9097549
-2.4473729 4.2909732 -1.9090097
-2.6495409 4.1647038 -1.9075494
-2.7482421 4.0980158 -1.9068353
-3.1259375 3.8085601 -1.9040945
-3.3898046 3.5688543 -1.9021713
-3.4738379 3.4848845 -1.901557
-3.6356542 3.3111529 -1.9003713
-3.7133985 3.2214818 -1.8998001
-3.8622754 3.0368102 -1.8987035
-3.9333301 2.9419024 -1.8981783
-4.1326365 2.6476014 -1.8966993
-4.1942968 2.5464928 -1.8962393
-4.3103223 2.3400731 -1.8953701
-4.4163084 2.1284826 -1.8945708
-4.4655175 2.0208995 -1.8941977
-4.5121484 1.9121881 -1.8938425
-4.5561423 1.8024218 -1.8935052
-4.6723924 1.4674182 -1.8926046
-4.7364645 1.2399414 -1.8920983
-4.7644434 1.125152 -1.8918737
-4.7896872 1.0097375 -1.8916681
-4.8121972 0.8937701 -1.8914819
-4.8319335 0.77732301 -1.8913151
-4.8631053 0.54319215 -1.8910402
-4.8745017 0.42565978 -1.8909321
-4.8831348 0.3078894 -1.8908437
-4.8889451 0.18996154 -1.8907751
-4.8843064 -0.28214598 -1.8906983
-4.8761621 -0.39994016 -1.8907287
-4.8514938 -0.63478208 -1.8908486
-4.8157129 -0.86821228 -1.8910478
-4.7936816 -0.98424315 -1.8911767
-4.7689257 -1.0997137 -1.8913252
-4.7414255 -1.2145892 -1.8914932
-4.7111912 -1.328789 -1.8916807
-4.6782618 -1.4422412 -1.8918874
-4.6426563 -1.5549029 -1.8921133
-4.6043944 -1.6667041 -1.8923582
-4.563447 -1.7775707 -1.8926224
-4.4737597 -1.9962929 -1.8932062
-4.4250193 -2.1040313 -1.8935263
-4.3737597 -2.2106011 -1.8938644
-4.2636328 -2.4199915 -1.8945953
-4.2048731 -2.5226996 -1.8949873
-4.0800486 -2.7238414 -1.8958241
-3.8751464 -3.014046 -1.897207
-3.802285 -3.1074889 -1.897701
-3.7271776 -3.1992006 -1.8982115
-3.4054296 -3.5476522 -1.900408
-3.319834 -3.6299183 -1.9009948
-3.232285 -3.7101521 -1.9015957
-3.0515137 -3.8643115 -1.9028397
-2.9583592 -3.9381533 -1.9034818
-2.8634667 -4.009769 -1.9041369
-2.6685643 -4.1461935 -1.9054849
-2.5686426 -4.2109141 -1.906177
-2.2598534 -4.3906283 -1.908321
-2.1540723 -4.4456019 -1.909057
-1.9385742 -4.5479264 -1.9105585
-1.8290234 -4.5952129 -1.911323
-1.7182813 -4.6398954 -1.9120965
-1.4936426 -4.7212758 -1.9136676
-1.3798633 -4.757926 -1.9144644
-1.2651563 -4.7918506 -1.9152685
-0.79875976 -4.8998518 -1.9185448
-0.56191403 -4.9369702 -1.9202125
-0.44280273 -4.951262 -1.9210525
-0.32333007 -4.9626799 -1.9218954
-0.20358399 -4.9712243 -1.9227411
0.036562499 -4.9796524 -1.9244388
0.15677734 -4.9795213 -1.9252899
0.39720702 -4.9705515 -1.9269937
0.51726562 -4.9617124 -1.9278456
0.63712889 -4.9499726 -1.9286968
0.75672847 -4.9353323 -1.9295466
0.87597656 -4.9177933 -1.9303949
0.99483395 -4.8973684 -1.9312408
1.2310449 -4.8478875 -1.9329243
1.3482813 -4.818851 -1.933761
1.4647949 -4.7869701 -1.9345932
1.695498 -4.714747 -1.9362426
1.8095312 -4.6744275 -1.9370593
1.9226172 -4.6313334 -1.9378698
2.0346484 -4.5854983 -1.9386734
2.1455956 -4.5369282 -1.9394698
2.4711621 -4.3751049 -1.941812
2.5770311 -4.3158917 -1.942575
2.6814744 -4.2540965 -1.9433289
2.8857911 -4.1229029 -1.9448055
2.9855371 -4.0535674 -1.9455276
3.0836132 -3.9818087 -1.9462385
3.2744725 -3.8311093 -1.9476244
3.4578807 -3.671169 -1.9489597
3.5466406 -3.5878463 -1.9496074
3.8005176 -3.3250625 -1.9514654
3.8807909 -3.2333562 -1.952055
4.108047 -2.9466913 -1.9537301
4.2476954 -2.7464993 -1.954765
4.313828 -2.6438587 -1.9552569
4.4384766 -2.4337921 -1.956188
4.4969435 -2.3264928 -1.9566269
4.5527344 -2.217792 -1.9570471
4.6370215 2.0458527 -1.9586337
4.4149218 2.4814196 -1.9571627
4.3528318 2.5866907 -1.9567479
4.2881837 2.6903844 -1.9563142
4.1514549 2.8927746 -1.9553933
4.0794139 2.9913695 -1.9549066
3.8492382 3.276001 -1.9533432
3.6845605 3.4559233 -1.9522195
3.5113964 3.6274736 -1.9510336
3.3301659 3.7902434 -1.9497885
2.8448045 4.1563969 -1.9464381
2.5338964 4.3464799 -1.9442815
2.3194432 4.460247 -1.9427899
2.2102735 4.5131512 -1.9420295
1.8244727 4.5283294 -1.8866677
1.6996582 4.5310135 -1.8701472
1.5768554 4.5334659 -1.8549078
1.2189453 4.539506 -1.8164358
0.98753905 4.5425053 -1.796455
0.87436521 4.5480108 -1.7897635
0.76185542 4.5528669 -1.7839181
0.64993161 4.5569477 -1.7788525
0.31810546 4.5853033 -1.7762491
0.20725586 4.5896173 -1.7754655
0.096396483 4.5912542 -1.7746812
-0.014404297 4.5902095 -1.7738967
-0.12512694 4.5864983 -1.7731122
-0.23565429 4.5801177 -1.7723285
-0.45595703 4.5593853 -1.7707641
-0.67767578 4.5473599 -1.7767369
-0.78931642 4.5416727 -1.7814394
-0.90205073 4.5382929 -1.7881351
-1.016084 4.5363898 -1.7965264
-1.2474999 4.5319767 -1.8165259
-1.4844335 4.5267158 -1.8410102
-1.6053808 4.5237494 -1.8550241
-1.7281348 4.5205488 -1.87027
-1.8529589 4.5171037 -1.8868017
-1.9800097 4.5134039 -1.9046664
-2.0958886 4.480423 -1.9115416
-2.3077831 4.3705826 -1.9100163
-2.5140233 4.2508259 -1.9085287
-2.6148534 4.1873322 -1.9078002
-3.0018456 3.9100494 -1.9049966
-3.0942383 3.8351164 -1.9043252
-3.2734571 3.6788237 -1.9030203
-3.6081445 3.3418853 -1.9005731
-3.686621 3.2528491 -1.8999969
-3.8370116 3.0694067 -1.8988898
-3.9784667 2.8791106 -1.8978443
-4.1731248 2.5817902 -1.8963974
-4.2908397 2.3763182 -1.8955165
-4.3459959 2.271601 -1.8951018
-4.4487109 2.0584319 -1.8943253
-4.5411525 1.8406957 -1.8936203
-4.583457 1.7302765 -1.8932953
-4.6231346 1.6189001 -1.8929886
-4.7261033 1.279671 -1.8921809
-4.7550387 1.1651226 -1.8919495
-4.7812304 1.0499188 -1.8917373
-4.8046679 0.9341327 -1.8915446
-4.8253708 0.81785887 -1.8913711
-4.8804393 0.34884277 -1.8908721
-4.8908787 -0.12317138 -1.8906888
-4.8864942 -0.24116455 -1.8906924
-4.8793163 -0.3590222 -1.890716
-4.8227344 -0.82777035 -1.8910077
-4.7778416 -1.0596551 -1.8912714
-4.7512794 -1.1747479 -1.8914328
-4.721992 -1.289187 -1.8916134
-4.5779686 -1.739154 -1.8925283
-4.5353417 -1.8493725 -1.8928045
-4.490078 -1.9585898 -1.8930997
-4.2255664 -2.4871497 -1.8948491
-4.0372753 -2.788172 -1.896112
-3.8278711 -3.0752003 -1.8975275
-3.677002 -3.2580779 -1.898553
-3.1741405 -3.7613792 -1.9019955
-2.9909472 -3.9127328 -1.9032569
-2.8966308 -3.9851341 -1.9039078
-2.8006053 -4.0552883 -1.9045712
-2.1909864 -4.4267783 -1.9088
-1.8672265 -4.5790763 -1.9110563
-1.6454492 -4.6676211 -1.9126055
-1.532959 -4.7079053 -1.9133924
-0.95709962 -4.8684616 -1.9174312
-0.83969724 -4.8922458 -1.9182568
-0.60322267 -4.9313397 -1.9199215
-0.48423827 -4.9466181 -1.9207602
-0.3648828 -4.9590349 -1.9216021
-0.0052343747 -4.9790192 -1.9241432
0.11499023 -4.9798942 -1.9249939
0.23523436 -4.9778714 -1.9258456
0.3554492 -4.9729452 -1.9266976
0.47556639 -4.965117 -1.9275496
0.83458984 -4.9242148 -1.9301003
0.95358396 -4.9047923 -1.9309472
1.1901562 -4.8573108 -1.9326327
1.3075976 -4.829268 -1.9334704
3.1290624 -3.5316751 -1.9466647
3.2144139 -3.4562414 -1.9472864
3.29791 -3.3787236 -1.9478954
3.8936424 -2.6892009 -1.9522723
3.9583886 -2.5950952 -1.9527524
4.0208106 -2.499413 -1.9532166
4.1938477 -2.2034638 -1.95451
4.2466698 -2.1020465 -1.9549075
4.2534666 2.0938897 -1.95593
4.1459765 2.2958367 -1.9552161
4.0885448 2.3947484 -1.9548326
4.0287499 2.4922028 -1.9544319
3.8353417 2.7752507 -1.9531286
3.6951659 2.9556279 -1.9521784
3.6218555 3.043159 -1.9516796
3.5464258 3.1288512 -1.9511657
3.468955 3.212652 -1.9506367
3.3894823 3.2945061 -1.9500934
2.7813377 3.8092949 -1.9459082
2.687705 3.8740129 -1.9452604
2.5925391 3.936408 -1.9446014
2.1979589 4.1620893 -1.9418609
1.8890234 4.3053999 -1.9397073
1.7838964 4.348083 -1.9389732
1.4629883 4.4605646 -1.9367279
1.3543946 4.4927998 -1.9359666
1.2438672 4.5179191 -1.9332886
1.1277539 4.5196881 -1.9218374
1.0129199 4.5212455 -1.9115466
0.45287108 4.5260172 -1.8766018
0.014443359 4.5263824 -1.867438
-0.31367186 4.524683 -1.8712084
-0.42350584 4.523737 -1.8745
-0.53375977 4.5226016 -1.8788204
-0.75607419 4.5197406 -1.8906
-1.2053027 4.4896064 -1.9178475
-1.3127735 4.4574299 -1.9170794
-1.5250976 4.385417 -1.9155598
-1.6298633 4.3456292 -1.9148089
-1.7335546 4.30336 -1.9140652
-1.8362011 4.2586384 -1.9133282
-1.9376757 4.2114787 -1.9125991
-2.234746 4.0557327 -1.9104601
-2.3311327 3.9991655 -1.9097648
-2.4260936 3.9403312 -1.909079
-2.6115527 3.8160026 -1.9077374
-2.7019238 3.7505803 -1.9070824
-2.7907031 3.6830449 -1.9064382
-3.0468359 3.4681232 -1.9045755
-3.3628709 3.1544757 -1.9022655
-3.579248 2.9005151 -1.9006751
-3.6472363 2.8125548 -1.9001734
-4.1116209 2.0567322 -1.8967108
-4.2045116 1.8552636 -1.8960065
-4.2473145 1.7529645 -1.8956798
-4.2876658 1.6496881 -1.8953701
-4.263545 -1.7071612 -1.8947614
-4.1774511 -1.9114517 -1.8953234
-4.1307421 -2.0120296 -1.8956306
-3.9765429 -2.3068171 -1.8966537
-3.8621776 -2.4970043 -1.8974191
-3.8016014 -2.5900311 -1.8978262
-3.6738768 -2.7716963 -1.898688
-3.5375879 -2.9471674 -1.8996121
-3.4663281 -3.0324478 -1.9000967
-3.3930273 -3.1160314 -1.900596
-3.317744 -3.197865 -1.9011099
-3.2404883 -3.2779064 -1.9016382
-3.1613574 -3.3561075 -1.9021801
-2.9974902 -3.5068069 -1.9033048
-2.9129002 -3.579215 -1.903887
-2.7385547 -3.7179372 -1.9050888
-2.6488867 -3.7841671 -1.905708
-2.5576367 -3.8482602 -1.906339
-2.2749023 -4.0273328 -1.9082989
-2.1778319 -4.0825024 -1.9089731
-2.0794334 -4.1353474 -1.9096574
-1.9797363 -4.1858463 -1.9103512
-1.8788574 -4.2339568 -1.911054
-1.7767773 -4.2796583 -1.9117661
-1.6736425 -4.3229179 -1.912486
-1.4642187 -4.4020023 -1.91395
-1.3580956 -4.4377775 -1.914693
-1.2511231 -4.471005 -1.9154425
-1.1433008 -4.5016723 -1.9161984
-0.81563473 -4.5780778 -1.9185001
-0.70520508 -4.5982852 -1.919277
-0.59429687 -4.6158466 -1.9200579
-0.25915039 -4.6524634 -1.9224217
0.078173824 -4.6648035 -1.9248065
0.30340821 -4.6594572 -1.926402
0.86388671 -4.5985379 -1.9303832
0.97499996 -4.578229 -1.9311746
1.3052148 -4.5011883 -1.9335297
1.6293652 -4.4002509 -1.9358476
1.7357421 -4.3613663 -1.9366097
2.0490527 -4.2292876 -1.938858
2.2524316 -4.1286097 -1.940321
2.4508202 -4.0180836 -1.941751
2.8306932 -3.7684767 -1.9444978
3.0112598 -3.6299548 -1.9458081
3.0989842 -3.5573969 -1.9464458
3.1849706 -3.4826956 -1.9470718
3.4317088 -3.2461843 -1.9488733
3.6606932 -2.9920099 -1.9505531
3.7328515 -2.9035933 -1.9510844
3.870625 -2.7215288 -1.9521017
3.9361424 -2.6279836 -1.9525872
3.9993651 -2.5328438 -1.9530569
4.0602832 -2.4361625 -1.9535105
4.174922 -2.2384009 -1.954368
4.2286134 -2.1374452 -1.9547714
4.2711425 2.0582616 -1.9560467
4.1653514 2.2611272 -1.9553452
4.1087694 2.360534 -1.9549676
3.9884667 2.5549724 -1.9541613
3.790576 2.8348534 -1.9528255
3.720166 2.9247828 -1.952348
3.647578 3.0129426 -1.9518548
3.2538867 3.425385 -1.949164
2.9948144 3.6484528 -1.9473819
2.6257911 3.9149895 -1.9448316
2.3332715 4.0903997 -1.9428018
2.2330565 4.1440263 -1.9421051
2.1316504 4.1951861 -1.9413992
1.9253124 4.2899637 -1.9399606
1.8205469 4.3335428 -1.9392291
1.6080956 4.4129519 -1.9377438
1.3922364 4.4818974 -1.936232
1.1679492 4.5190973 -1.9256839
1.052705 4.5207281 -1.9149936
0.93859375 4.5221515 -1.9054443
0.82551754 4.5233722 -1.8970089
0.60196286 4.5252118 -1.8833919
0.49123046 4.5258441 -1.8781723
0.27123046 4.526535 -1.8708404
0.052402344 4.5264692 -1.8675903
-0.27554688 4.5249677 -1.8703048
-0.49540037 4.5230207 -1.8772013
-0.82920897 4.5186343 -1.895365
-1.1677734 4.5001874 -1.9181156
-1.2755274 4.4689021 -1.9173456
-1.3824316 4.4350481 -1.916581
-2.2009473 4.0748553 -1.910704
-2.2977929 4.0190864 -1.9100055
-2.4872754 3.9007378 -1.9086367
-2.5797656 3.8382354 -1.9079674
-2.6707129 3.7735651 -1.9073088
-2.7600586 3.7067559 -1.9066607
-2.8477538 3.637857 -1.906024
-3.0179882 3.4939446 -1.9047858
-3.1004393 3.4190204 -1.9041847
-3.2598047 3.2634466 -1.9030206
-3.4114647 3.1005523 -1.9019091
-3.4843261 3.0164728 -1.9013739
-3.5551269 2.9307098 -1.9008528
-3.754873 2.6637878 -1.899377
-3.8771875 2.4783318 -1.8984681
-3.990459 2.2873516 -1.897622
-4.0436621 2.1899292 -1.8972229
-4.2327147 1.7886316 -1.8957915
-4.2739062 1.6856878 -1.8954759
-4.2774806 -1.6712592 -1.8946711
-4.1930857 -1.8762405 -1.8952208
-4.1472459 -1.9771969 -1.8955218
-3.9954784 -2.2732284 -1.8965274
-3.9402244 -2.3694491 -1.896896
-3.8826854 -2.4643412 -1.8972814
-3.8229003 -2.5578585 -1.8976828
-3.6966991 -2.7405612 -1.8985337
-3.630332 -2.8296378 -1.8989828
-3.4913182 -3.003 -1.8999265
-3.4187207 -3.0871782 -1.9004208
-3.2675586 -3.2502942 -1.9014529
-3.1890819 -3.3291414 -1.9019901
-2.769336 -3.6944237 -1.9048764
-2.6802344 -3.7613895 -1.9054916
-2.4972851 -3.8889079 -1.9067569
-2.4035449 -3.9493835 -1.9074062
-2.3083203 -4.0076237 -1.9080669
-2.2117286 -4.0635867 -1.9087374
-1.9140625 -4.2175074 -1.9108088
-1.7095996 -4.3081617 -1.912235
-1.6057421 -4.349812 -1.9129604
-1.5008984 -4.3889771 -1.9136935
-1.3951074 -4.4256296 -1.9144337
-1.2883886 -4.4597459 -1.9151813
-1.1808691 -4.4913077 -1.915935
-1.0725487 -4.5202866 -1.9166949
-0.96355468 -4.5466676 -1.9174603
-0.85388672 -4.5704331 -1.9182311
-0.74365234 -4.5915647 -1.9190063
-0.41004881 -4.6390057 -1.9213568
-0.29811522 -4.6494603 -1.9221466
-0.1859082 -4.6572208 -1.9229391
0.0390625 -4.6646228 -1.9245297
0.37684569 -4.6553607 -1.9269229
0.60151368 -4.6355891 -1.9285177
0.93642575 -4.5855951 -1.9309
1.1575195 -4.5387726 -1.9324757
1.267246 -4.5113459 -1.9332587
1.3762695 -4.4812565 -1.9340374
1.4846191 -4.4485221 -1.9348119
1.9094726 -4.2914581 -1.9378556
2.1159179 -4.1975412 -1.9393388
2.3177245 -4.0936246 -1.9407912
2.4167285 -4.0379868 -1.941505
2.514375 -3.9799321 -1.9422097
2.6106153 -3.9195035 -1.9429049
2.7986522 -3.791636 -1.9442657
2.8903222 -3.7242644 -1.9449301
2.9803514 -3.6546664 -1.9455836
3.068701 -3.5828607 -1.9462256
3.2400486 -3.4328237 -1.9474734
3.4040136 -3.2745171 -1.9486706
3.4830565 -3.1923659 -1.9492493
3.560117 -3.1082809 -1.9498141
3.6351268 -3.0223165 -1.9503649
3.7080078 -2.9345257 -1.9509013
3.8473046 -2.7536561 -1.9519293
4.0987206 -2.3722756 -1.9537975
4.1556835 -2.2731779 -1.9542236
4.2102246 -2.1726847 -1.9546331
4.2377048 2.1250212 -1.9558256
4.1844335 2.2262554 -1.9554721
4.1286912 2.3261468 -1.9551007
4.0705762 2.4246142 -1.9547122
4.0100389 2.5216136 -1.9543062
3.9471679 2.6170866 -1.9538835
3.8145506 2.8031921 -1.9529879
3.5230174 3.1546075 -1.9510062
3.4449315 3.2378137 -1.9504727
3.3648632 3.3190656 -1.9499246
3.2828417 3.3983183 -1.9493626
3.1131639 3.550633 -1.948197
2.9364061 3.6943915 -1.9469792
2.7529297 3.8292694 -1.945712
2.6588378 3.8932867 -1.9450605
2.4661913 4.0142779 -1.9437252
2.1670411 4.1776848 -1.9416455
2.0648241 4.2272148 -1.9409335
1.8570703 4.3186846 -1.9394842
1.7516601 4.3605838 -1.9387478
1.5380273 4.4365997 -1.9372534
1.4299706 4.4706745 -1.9364965
1.0926172 4.520185 -1.9185791
0.86470699 4.5229707 -1.8998147
0.75224608 4.5240583 -1.8920954
0.52962887 4.5256462 -1.8798681
0.41926757 4.5261531 -1.8753277
0.19974609 4.5265946 -1.8693341
0.090390623 4.5265336 -1.8678641
-0.128125 4.5258512 -1.8679581
-0.23751953 4.5252275 -1.8695233
-0.34711912 4.524416 -1.8721038
-0.45707029 4.5234122 -1.875708
-0.56749022 4.5222173 -1.8803442
-0.67848629 4.5208244 -1.8860266
-0.90276366 4.5174408 -1.900592
-1.130127 4.5104556 -1.9183846
-1.2381641 4.4800701 -1.9176127
-1.3453808 4.4471049 -1.9168463
-1.5571485 4.3735528 -1.9153302
-1.7649609 4.2899871 -1.9138397
-2.06833 4.1463394 -1.911659
-2.1669629 4.0936966 -1.9109488
-2.264287 4.0387335 -1.910247
-2.3602245 3.9814703 -1.9095547
-2.5477831 3.8602045 -1.908199
-2.6392674 3.7962859 -1.9075366
-3.3856933 3.1293664 -1.9020982
-3.6001854 2.8738713 -1.9005206
-3.6675291 2.7854242 -1.9000235
-3.7327342 2.6954241 -1.899541
-3.8565819 2.5109727 -1.8986214
-3.9151464 2.4166236 -1.8981851
-4.2911716 -1.635241 -1.8945826
-4.2510448 -1.7385589 -1.8948426
-4.1634474 -1.9422363 -1.8954153
-4.0141501 -2.2394881 -1.8964032
-3.9596875 -2.3361545 -1.8967661
-3.9029589 -2.4315178 -1.8971456
-3.8439257 -2.5255158 -1.8975414
-3.5160644 -2.973346 -1.8997582
-3.3702734 -3.1411645 -1.9007514
-3.2165625 -3.3019497 -1.9018018
-3.0553026 -3.4553058 -1.9029078
-2.8867772 -3.600888 -1.9040667
-2.7999022 -3.6706579 -1.9046655
-2.4362988 -3.9286146 -1.9071794
-2.3416016 -3.987637 -1.907836
-2.04916 -4.1509962 -1.909868
-1.5374609 -4.3756475 -1.9134377
-1.2183398 -4.480628 -1.9156723
-1.0015038 -4.5377932 -1.9171935
-0.78203124 -4.584518 -1.9187366
-0.67144531 -4.6039233 -1.9195145
-0.44890624 -4.6347394 -1.9210827
-0.33706054 -4.6461329 -1.9218718
-0.11257812 -4.6608262 -1.9234571
0.22514647 -4.6625471 -1.9258473
0.45022461 -4.6501074 -1.9274434
0.56254882 -4.6398072 -1.9282408
0.78638673 -4.6110663 -1.929832
1.0087793 -4.5715013 -1.9314152
1.1192676 -4.5476804 -1.9322031
1.2291698 -4.5211802 -1.932987
1.338457 -4.4920163 -1.9337673
1.4470507 -4.4601979 -1.9345433
1.6618944 -4.3886719 -1.9360806
2.0803614 -4.214582 -1.9390831
2.480576 -4.0003824 -1.9419656
2.9492383 -3.6791081 -1.9453577
3.3760741 -3.3026009 -1.9484663
3.5335741 -3.1377196 -1.9496194
3.609287 -3.0524108 -1.9501752
3.7544141 -2.876281 -1.9512434
3.8237305 -2.7855806 -1.951755
3.8908203 -2.6931794 -1.9522512
3.9556639 -2.5991416 -1.9527322
4.0181932 -2.5035286 -1.953197
4.1915431 -2.207763 -1.9544928
4.2444725 -2.1063972 -1.9548907
4.2556543 2.0895288 -1.9559444
4.2032323 2.1912181 -1.955597
4.1483493 2.2915876 -1.9552319
4.0313377 2.4880724 -1.9544493
3.904912 2.6785138 -1.9535986
3.8382518 2.771328 -1.9531481
3.6250196 3.0394628 -1.9517013
3.3929002 3.291054 -1.9501166
3.3115625 3.3710051 -1.9495595
3.2283008 3.448925 -1.9489883
3.0562792 3.5984845 -1.9478053
2.8772752 3.7393792 -1.946571
2.7852733 3.8064837 -1.9459354
2.5966504 3.9337921 -1.9446298
2.202246 4.1598907 -1.9418907
2.1004784 4.2102799 -1.9411819
1.5754004 4.4241409 -1.937515
1.4676269 4.4591289 -1.9367602
1.0177832 4.5211844 -1.9119623
0.79123044 4.5237031 -1.8946557
0.1283789 4.5265765 -1.8682605
-0.19947265 4.5254669 -1.8688635
-0.30898437 4.5247197 -1.8710908
-0.4187988 4.5237837 -1.8743387
-0.63985348 4.5213313 -1.8839321
-0.75129879 4.5198088 -1.8903042
-0.97669917 4.51616 -1.9062876
-1.0908886 4.5140214 -1.9159422
-1.2007031 4.490921 -1.9178805
-1.3082031 4.4588494 -1.9171119
-1.4148535 4.4242229 -1.9163492
-1.6254003 4.3473797 -1.9148409
-1.8318359 4.2605925 -1.9133596
-1.9333984 4.2135391 -1.9126298
-2.3270605 4.0016279 -1.9097942
-2.6981053 3.7534137 -1.9071101
-2.7869627 3.6859722 -1.9064654
-2.959619 3.5448687 -1.9052105
-3.2834277 3.2390752 -1.9028476
-3.3596582 3.1579742 -1.9022894
-3.4338963 3.075103 -1.9017444
-3.5762987 2.9042304 -1.9006969
-3.6443846 2.8163426 -1.9001946
-3.7103221 2.7268763 -1.899707
-3.7741113 2.635896 -1.8992343
-3.8950682 2.4495616 -1.8983349
-4.0069337 2.2577813 -1.8974986
-4.0594044 2.1599786 -1.8971045
-4.1095119 2.0609851 -1.8967268
-4.2026172 1.8596129 -1.8960209
-4.1328025 -2.0077605 -1.895617
-3.9788768 -2.3027043 -1.8966382
-3.7415624 -2.677732 -1.8982307
-3.6766894 -2.7678814 -1.8986691
-3.6096776 -2.8564861 -1.8991228
-3.5405858 -2.9434836 -1.8995917
-3.4694042 -3.0288455 -1.9000757
-3.3961914 -3.1125042 -1.9005743
-3.320996 -3.1944094 -1.9010876
-3.2438378 -3.2745321 -1.9016153
-3.1647754 -3.3528063 -1.9021566
-3.0838377 -3.4292049 -1.9027117
-3.0010839 -3.5036721 -1.9032801
-2.9165528 -3.5761635 -1.9038616
-2.5615723 -3.8455701 -1.9063119
-2.4688768 -3.9075813 -1.9069536
-2.3746679 -3.9673781 -1.9076065
-2.2790234 -4.024931 -1.9082702
-1.5738964 -4.3620157 -1.913183
-1.4687402 -4.4004178 -1.9139184
-1.3626465 -4.4363008 -1.914661
-0.9301855 -4.554193 -1.9176947
-0.82033199 -4.5771556 -1.9184669
-0.70994139 -4.5974779 -1.9192437
-0.5990234 -4.6151514 -1.9200246
-0.15166016 -4.659049 -1.9231809
-0.03918945 -4.6632786 -1.9239761
0.18599609 -4.6636 -1.92557
0.29861328 -4.6596842 -1.9263681
0.41114256 -4.6530485 -1.9271661
0.74758786 -4.616837 -1.9295559
0.97025388 -4.5791526 -1.9311407
1.0809277 -4.5562644 -1.9319295
1.1910352 -4.5306916 -1.9327148
1.5174901 -4.438014 -1.9350473
1.6248046 -4.4018536 -1.9358151
1.7312207 -4.3630786 -1.9365774
1.8367187 -4.3217177 -1.9373336
1.9412402 -4.2777939 -1.9380838
2.0446875 -4.2313256 -1.9388267
2.1469922 -4.1823401 -1.9395623
2.4466307 -4.0205436 -1.9417208
2.5438769 -3.961761 -1.9424227
3.0074804 -3.633004 -1.9457806
3.095283 -3.5605354 -1.946419
3.1813183 -3.4859288 -1.9470452
3.3479004 -3.330447 -1.9482604
3.4283202 -3.2496741 -1.9488485
3.657578 -2.995744 -1.9505304
3.9333982 -2.6320071 -1.952567
4.1163573 -2.3422167 -1.9539294
4.1725488 -2.2426815 -1.9543502
4.226367 -2.1417758 -1.9547545
4.1112595 2.3563166 -1.9549844
4.0523634 2.4543488 -1.9545902
3.991123 2.5508897 -1.954179
3.9275584 2.645874 -1.9537512
3.86166 2.7392595 -1.9533066
3.7935448 2.830982 -1.9528457
3.7232225 2.9209814 -1.9523687
3.499414 3.1801763 -1.950845
3.3400292 3.3434453 -1.9497546
3.2574413 3.4220781 -1.9491884
3.1729686 3.4986491 -1.948608
3.0866699 3.5731049 -1.9480146
2.9986131 3.6454179 -1.9474081
2.9088573 3.715534 -1.9467891
2.8174412 3.7834184 -1.9461578
2.7244141 3.8490362 -1.9455144
2.6298437 3.9123371 -1.9448599
2.5337987 3.9732988 -1.944194
2.4363379 4.0318875 -1.9435179
2.3375096 4.0880561 -1.9428314
2.0334082 4.2418146 -1.9407147
1.9297656 4.2880497 -1.9399917
1.7193261 4.3728461 -1.9385219
1.6126758 4.4113665 -1.9377759
1.5051659 4.4472661 -1.9370233
1.3968652 4.4805374 -1.9362643
1.0575976 4.5206633 -1.9154263
0.83032227 4.5233231 -1.8973463
0.71811521 4.5243526 -1.8899565
0.38569334 4.5262666 -1.8741497
0.27589843 4.5265265 -1.8709539
0.16638671 4.526597 -1.8687783
0.057089843 4.5264773 -1.8676176
-0.1614453 4.5256815 -1.8683283
-0.38061523 4.5241275 -1.8730938
-0.71247071 4.5203619 -1.8879703
-0.82443357 4.5187078 -1.8950393
-1.0510644 4.5147905 -1.9124589
-1.163164 4.5014668 -1.9181486
-1.483955 4.4002619 -1.9158545
-1.5891016 4.3614507 -1.9151013
-1.796289 4.2763786 -1.9136149
-1.8982323 4.2301679 -1.9128827
-2.1967871 4.0771842 -1.9107339
-2.3892188 3.9635601 -1.9093454
-2.5758398 3.8409491 -1.9079958
-2.756289 3.7096477 -1.9066882
-3.0144434 3.4971013 -1.9048116
-3.1776562 3.345495 -1.9036208
-3.2564843 3.2668462 -1.9030448
-3.4812498 3.0200982 -1.9013964
-3.5521483 2.9344013 -1.9008749
-3.6876366 2.7581451 -1.8998748
-3.7521875 2.6676903 -1.8993969
-3.8145506 2.5757353 -1.8989341
-3.932539 2.3875847 -1.8980554
-4.0414257 2.1941071 -1.8972397
-4.0923634 2.0955231 -1.8968562
-4.1409473 1.9957708 -1.896489
-4.2308884 1.7930028 -1.8958054
-4.1492577 -1.9729077 -1.8955086
-3.8254979 -2.5539012 -1.8976654
-3.6332128 -2.8258703 -1.8989633
-3.5648241 -2.9134293 -1.8994272
-3.2708592 -3.246892 -1.9014304
-3.1924706 -3.3258092 -1.9019668
-3.1121678 -3.402869 -1.9025173
-3.0300586 -3.4780138 -1.9030812
-2.9461229 -3.5511935 -1.9036582
-2.8604686 -3.6223803 -1.904248
-2.684082 -3.7585728 -1.905465
-2.5012696 -3.8862765 -1.9067292
-2.407578 -3.9468493 -1.9073783
-2.2158692 -4.0612459 -1.9087088
-1.7140331 -4.3063221 -1.9122039
-1.6102148 -4.3480811 -1.9129291
-1.2929688 -4.4583426 -1.9151492
-1.1854589 -4.4900141 -1.9159026
-1.0771778 -4.5191059 -1.9166625
-0.85858399 -4.5694709 -1.9181979
-0.7483691 -4.5907168 -1.9189731
-0.63762695 -4.6093125 -1.9197527
-0.52643555 -4.6252418 -1.9205362
-0.19069335 -4.6569448 -1.9229052
-0.078291014 -4.6621175 -1.9236996
0.034257811 -4.664577 -1.9244958
0.25947264 -4.6613541 -1.9260906
0.48449218 -4.6472535 -1.9276866
0.59673828 -4.636127 -1.9284838
0.82039058 -4.605732 -1.9300739
1.0425098 -4.5645237 -1.9316556
1.152832 -4.5398841 -1.9324423
1.4800292 -4.4499693 -1.9347792
1.5875878 -4.4147182 -1.9355487
1.6943262 -4.3768482 -1.936313
1.800166 -4.3363853 -1.9370714
1.9050097 -4.2933545 -1.9378238
2.0088282 -4.2477674 -1.9385689
2.213125 -4.1490307 -1.9400381
2.3134668 -4.0959411 -1.9407607
2.6065624 -3.9221203 -1.9428756
2.7946973 -3.7944565 -1.944237
2.8864355 -3.7271965 -1.9449018
3.0649414 -3.5859723 -1.9461982
3.4005859 -3.2779689 -1.9486456
3.4797363 -3.1959002 -1.9492249
3.5568652 -3.1119127 -1.9497904
3.6319823 -3.026026 -1.9503421
3.7757909 -2.8488216 -1.951401
3.844414 -2.7575915 -1.9519081
3.9108202 -2.6646864 -1.9523996
3.9749706 -2.5701592 -1.9528756
4.036787 -2.4740694 -1.9533355
4.1533203 -2.2774222 -1.954206
4.2079587 -2.1769876 -1.9546161
4.2601075 -2.0752416 -1.9550089
4.2399216 2.1206641 -1.9558402
4.1311426 2.3219151 -1.9551171
4.0126657 2.5175171 -1.9543239
3.74791 2.8898907 -1.9525362
3.676162 2.9787488 -1.9520493
3.6022851 3.06581 -1.9515464
3.1168652 3.5474689 -1.9482223
2.9402537 3.6914067 -1.9470056
2.7569335 3.8264837 -1.9457394
2.6629004 3.8905973 -1.9450887
2.3719921 4.0688128 -1.9430709
2.2723143 4.1233978 -1.942378
2.1713769 4.1755142 -1.9416757
2.0692186 4.2251496 -1.9409643
1.9659179 4.2722673 -1.940244
1.7561718 4.3588471 -1.9387794
1.4345899 4.469274 -1.9365289
1.3258008 4.5008183 -1.9357661
1.2132715 4.5184026 -1.930171
1.0975195 4.5201178 -1.9190265
0.75702149 4.5240154 -1.8924024
0.64535153 4.5249152 -1.8857152
0.53436524 4.5256195 -1.8800844
0.09505859 4.5265412 -1.8679065
-0.12347656 4.5258746 -1.8679141
-0.34243163 4.5244536 -1.8719729
-0.67373043 4.5208869 -1.8857627
-1.4471874 4.4131584 -1.9161178
-1.5526659 4.3752265 -1.9153622
-1.8629199 4.2465057 -1.9131362
-2.0640819 4.1485343 -1.9116898
-2.1627929 4.0959892 -1.9109788
-2.4507518 3.9245355 -1.9089007
-2.5438378 3.8628912 -1.9082274
-2.7253613 3.733084 -1.9069124
-2.9003808 3.5948381 -1.9056416
-3.1498241 3.3723834 -1.9038244
-3.2293065 3.2943828 -1.9032437
-3.3068848 3.2145331 -1.9026759
-3.3824902 3.1328936 -1.9021219
-3.5277441 2.9643719 -1.9010545
-3.6647167 2.7892358 -1.9000442
-3.7931151 2.6078582 -1.8990933
-3.9126952 2.4206634 -1.8982034
-3.9690917 2.3250213 -1.897782
-4.0231833 2.2280805 -1.8973767
-4.0749316 2.1299231 -1.8969876
-4.1243458 2.0305676 -1.8966147
-4.2581444 1.7259814 -1.8955969
-4.2528124 -1.734165 -1.8948312
-4.1654391 -1.937929 -1.8954022
-4.1181149 -2.0382192 -1.8957139
-4.0164161 -2.2353296 -1.8963879
-3.9620702 -2.3320532 -1.8967501
-3.7853613 -2.6141934 -1.8979354
-3.6564941 -2.7950566 -1.8988056
-3.5191014 -2.9696879 -1.8997375
-3.2199512 -3.2985895 -1.9017788
-3.1403027 -3.3763018 -1.9023244
-3.0588086 -3.4521151 -1.9028838
-2.9754882 -3.5259905 -1.9034562
-2.8036425 -3.6677175 -1.9046397
-2.4402831 -3.9260552 -1.9071517
-2.2495995 -4.0420194 -1.9084743
-2.1521485 -4.0965848 -1.9091516
-2.0533984 -4.1488218 -1.9098386
-1.7498437 -4.2912378 -1.911954
-1.6464159 -4.3338532 -1.9126762
-1.4364843 -4.4116273 -1.914144
-1.3301269 -4.4467335 -1.9148887
-1.2229102 -4.4792953 -1.9156401
-1.1149024 -4.509285 -1.9163977
-1.006162 -4.5366855 -1.9171609
-0.7867285 -4.5836329 -1.9187033
-0.67619139 -4.603148 -1.9194812
-0.4536621 -4.6341968 -1.9210491
-0.22969726 -4.6545134 -1.9226297
-0.11738281 -4.6606269 -1.9234234
0.22035156 -4.6626954 -1.9258132
0.44542968 -4.650485 -1.9274093
0.55774415 -4.6403046 -1.9282068
0.7816211 -4.6117902 -1.9297981
1.1145605 -4.5487528 -1.9321693
1.224502 -4.522367 -1.9329536
3.0959277 -3.1717882 -1.9465137
3.1724803 -3.0970459 -1.9470729
3.2471874 -3.0204365 -1.9476196
3.320039 -2.9420013 -1.9481535
3.3909764 -2.8617928 -1.9486743
3.4599609 -2.7798526 -1.9491814
3.5269334 -2.6962349 -1.949675
3.591836 -2.6109807 -1.9501541
3.773916 -2.3459389 -1.9515045
3.8302441 -2.2546718 -1.9519244
3.9426951 2.0605621 -1.9537225
3.8911231 2.1547284 -1.9533795
3.8373046 2.247586 -1.95302
3.7812207 2.3390832 -1.9526443
3.6624706 2.5177643 -1.9518452
3.4683983 2.7742314 -1.950531
3.3996387 2.8564355 -1.9500635
3.1816602 3.0925109 -1.9485754
3.1052735 3.1675389 -1.948052
2.6111426 3.5762115 -1.9446493
2.4340038 3.6956975 -1.9434233
2.3433788 3.7521429 -1.9427949
2.2513866 3.8063481 -1.9421563
1.8714941 4.0001764 -1.9395123
1.7737793 4.042747 -1.9388305
1.6751171 4.0829215 -1.9381416
1.4750977 4.1559906 -1.9367428
1.3738867 4.1888394 -1.9360338
0.96230465 4.2953386 -1.9331454
0.43741211 4.3715644 -1.9294479
0.33166015 4.3791499 -1.9287009
0.22579101 4.3841753 -1.9279529
0.11989257 4.386641 -1.9272038
0.014003906 4.3865495 -1.9264541
-0.19750977 4.3787088 -1.9249554
-0.61766601 4.3325496 -1.9219705
-0.92840821 4.2715945 -1.9197569
-1.0308105 4.2463274 -1.9190261
-1.1325488 4.2186151 -1.9182996
-1.5316015 4.0837212 -1.9154437
-1.8210254 3.9579315 -1.9133657
-1.9153417 3.9114447 -1.9126875
-2.0084472 3.86273 -1.9120172
-2.1003613 3.8118181 -1.9113548
-2.4546776 3.5868132 -1.9087945
-2.5397069 3.5253949 -1.9081783
-2.7051368 3.3966119 -1.9069775
-2.7854686 3.3293219 -1.9063931
-2.8641405 3.2601526 -1.9058203
-3.0163379 3.1163464 -1.9047097
-3.0898046 3.0417912 -1.9041723
-3.1614354 2.9655292 -1.9036475
-3.2312109 2.8875988 -1.9031357
-3.3650196 2.726917 -1.9021511
-3.4289942 2.6442645 -1.901679
-3.5508983 2.4745653 -1.9007767
-3.6087694 2.3876159 -1.9003471
-3.718164 2.2097669 -1.8995315
-3.7696385 2.1189649 -1.8991461
-3.8189354 2.0269861 -1.8987756
-3.8379686 -1.9854058 -1.8977091
-3.7895896 -2.077796 -1.89803
-3.7390137 -2.1690242 -1.8983669
-3.6862597 -2.2590444 -1.8987194
-3.5744042 -2.4352355 -1.8994703
-3.3910742 -2.6891713 -1.9007089
-3.3259571 -2.7708695 -1.9011509
-3.1899707 -2.9295399 -1.9020767
-3.0464745 -3.0816262 -1.9030571
-2.9720213 -3.155092 -1.9035668
-2.8957911 -3.2267785 -1.9040899
-2.7382812 -3.364655 -1.9051727
-2.5742967 -3.4949279 -1.9063032
-2.4899609 -3.5571182 -1.9068857
-2.40416 -3.617291 -1.907479
-2.3168945 -3.6754208 -1.9080832
-2.2282422 -3.7314644 -1.9086977
-2.046953 -3.8371584 -1.9099563
-1.7658105 -3.9792495 -1.9119134
-1.669873 -4.0221105 -1.9125826
-1.474912 -4.1009169 -1.9139444
-1.3760059 -4.136807 -1.914636
-0.97231442 -4.2564573 -1.9174658
-0.76638669 -4.3016605 -1.9189129
-0.66262692 -4.3205442 -1.9196429
-0.34874022 -4.3621793 -1.921855
-0.24345702 -4.3710165 -1.9225982
-0.13796875 -4.3773136 -1.9233433
-0.032314453 -4.3810711 -1.9240903
0.073457032 -4.3822803 -1.9248388
0.17925781 -4.3809347 -1.925588
0.28502929 -4.377039 -1.9263376
0.39072266 -4.3705845 -1.9270872
0.4962793 -4.3615808 -1.9278363
0.70666993 -4.3359175 -1.9293317
1.1230273 -4.2541494 -1.9322976
1.2258301 -4.2274137 -1.9330314
1.3279687 -4.1981883 -1.9337612
1.6300195 -4.0957012 -1.9359231
1.7290235 -4.0566592 -1.936633
1.9241112 -3.971386 -1.9380337
2.2086914 -3.8258328 -1.9400817
2.301162 -3.7727163 -1.9407487
2.3923438 -3.7173483 -1.9414068
2.5706248 -3.5999792 -1.942696
2.6576073 -3.538048 -1.9433262
2.7430956 -3.4739928 -1.943946
2.8270116 -3.4078546 -1.9445555
3.0688965 -3.1973226 -1.9463165
3.2214258 -3.047272 -1.947431
3.3665526 -2.8898675 -1.9484948
3.4362011 -2.8085239 -1.9490066
3.5695019 -2.6407907 -1.9499893
3.6945117 -2.466665 -1.9509146
3.7538085 -2.3773303 -1.951355
3.8562791 2.2154663 -1.9531466
3.6837108 2.4871373 -1.9519885
3.5578711 2.6608148 -1.9511379
3.4918261 2.745266 -1.9506903
3.4237499 2.8280578 -1.9502276
3.3536913 2.9091461 -1.9497503
3.2816699 2.9884715 -1.9492592
3.1320312 3.1416814 -1.9482354
3.0544629 3.2154639 -1.9477035
2.8114452 3.4250531 -1.946032
2.7271581 3.4908588 -1.9454507
2.5539844 3.6161456 -1.9442542
2.3750196 3.7327776 -1.9430145
2.1907227 3.8404913 -1.9417349
2.0966992 3.8909259 -1.9410812
1.8078516 4.0282245 -1.9390686
1.7095214 4.0692339 -1.9383819
1.6102442 4.1078277 -1.9376882
1.5101074 4.1439934 -1.9369878
1.1020019 4.2639422 -1.9341269
0.57961911 4.3572893 -1.930451
0.26260743 4.382719 -1.9282131
0.050791014 4.3868718 -1.9267148
-0.055048827 4.3851128 -1.9259651
-0.37168944 4.3645453 -1.9237192
-0.58138669 4.3381658 -1.9222287
-0.68564451 4.3212042 -1.9214867
-0.78941405 4.3017402 -1.9207476
-0.89266598 4.279798 -1.9200119
-1.0972852 4.2285233 -1.9185516
-1.3987206 4.1334195 -1.9163958
-1.6921874 4.0169926 -1.9142915
-1.787998 3.9735589 -1.9136033
-1.8826855 3.9278569 -1.9129225
-1.9762304 3.879915 -1.9122492
-2.1596289 3.7774284 -1.9109272
-2.3378124 3.666358 -1.9096402
-2.5103221 3.5469694 -1.9083914
-2.6768456 3.4195502 -1.9071832
-2.836992 3.2844048 -1.9060181
-2.9145508 3.2140338 -1.9054528
-2.9903905 3.1418512 -1.9048992
-3.0644825 3.067899 -1.9043577
-3.1367383 2.9922252 -1.9038285
-3.2071776 2.9148693 -1.9033121
-3.3423243 2.7552855 -1.9023184
-3.4069922 2.6731591 -1.9018415
-3.4696581 2.5895367 -1.9013784
-3.6454003 2.3301647 -1.9000744
-3.6997654 2.2410393 -1.8996688
-3.8020313 2.0590825 -1.8989029
-3.8066504 -2.0458138 -1.8979168
-3.7568359 -2.1374536 -1.898248
-3.650703 -2.3170955 -1.8989577
-3.5944433 -2.4049964 -1.8993354
-3.4132323 -2.6604223 -1.9005587
-3.2141309 -2.9024315 -1.9019119
-2.9224803 -3.2020674 -1.9039067
-2.6854882 -3.4080036 -1.9055364
-2.6032324 -3.4728491 -1.9061035
-2.5194335 -3.5357296 -1.9066821
-2.3473828 -3.6554537 -1.9078723
-2.169668 -3.7668862 -1.9091041
-2.0788281 -3.8194089 -1.9097351
-1.8933984 -3.9179068 -1.9110246
-1.7989258 -3.9638207 -1.9116827
-1.6066992 -4.0488405 -1.9130236
-1.5090528 -4.0878906 -1.9137057
-1.3110352 -4.158946 -1.9150908
-1.1096387 -4.2204695 -1.916502
-1.0078613 -4.2476006 -1.9172162
-0.69874996 -4.3142629 -1.9193887
-0.59463865 -4.331521 -1.9201214
0.036689453 -4.3821492 -1.9245785
0.14249024 -4.3816919 -1.9253274
0.24826172 -4.3786807 -1.9260769
0.35399413 -4.3731189 -1.9268267
0.45958984 -4.3649988 -1.9275759
0.67020506 -4.3411083 -1.9290723
1.0871778 -4.2628541 -1.9320419
1.1901758 -4.2369905 -1.932777
1.2925683 -4.2086258 -1.9335083
1.4952344 -4.1444678 -1.9349579
1.6947168 -4.0705028 -1.9363869
1.7931055 -4.0298901 -1.9370927
1.8905078 -3.9868872 -1.9377922
1.9868652 -3.9415154 -1.9384848
2.0821385 -3.8937955 -1.9391702
2.1762598 -3.8437598 -1.9398479
2.2691698 -3.7914321 -1.9405178
2.451123 -3.6800222 -1.9418316
2.8808789 -3.3635998 -1.944947
2.9621289 -3.2940984 -1.9455383
3.1194432 -3.1491983 -1.9466854
3.1954393 -3.0738888 -1.9472408
3.2696092 -2.9967163 -1.9477838
3.3418748 -2.9177325 -1.9483137
3.6733983 -2.4973667 -1.9507579
3.7334471 -2.4085431 -1.9512036
3.9004004 -2.1335287 -1.952449
3.5150096 2.7160938 -1.9508474
3.3782518 2.8811619 -1.9499179
3.2336719 3.0392597 -1.9489312
3.1585643 3.1155822 -1.9484173
3.0029199 3.2625639 -1.9473495
2.9224706 3.3331354 -1.9467965
2.8403711 3.4016998 -1.9462314
2.7566309 3.4682245 -1.9456542
2.6713476 3.5326605 -1.9450654
2.4962108 3.6551604 -1.9438543
2.0347168 3.922586 -1.9406496
1.8417969 4.0134077 -1.9393052
1.545 4.1317019 -1.9372319
1.4443262 4.1662664 -1.9365274
1.0344921 4.2797151 -1.9336526
0.72135741 4.338388 -1.9314499
0.61624998 4.3528605 -1.9307092
0.29938477 4.3809514 -1.928473
0.19350585 4.3851995 -1.9277246
-0.018271483 4.3860126 -1.9262255
-0.1240625 4.3825922 -1.9254761
-0.22970703 4.3766141 -1.924727
-0.33510742 4.3680973 -1.9239788
-0.54503906 4.3434711 -1.9224871
-0.64946288 4.3273807 -1.9217443
-0.8568359 4.2877045 -1.9202673
-0.95968747 4.2641497 -1.919534
-1.4632519 4.1098919 -1.9159335
-1.5614452 4.0718913 -1.9152298
-1.6586425 4.0315518 -1.9145323
-2.5653319 3.5062749 -1.9079925
-2.6483691 3.4422588 -1.9073898
-2.7298045 3.3762944 -1.906798
-2.8096287 3.3084259 -1.9062173
-2.8878026 3.2386992 -1.9056479
-3.0389256 3.0938025 -1.9045445
-3.1118457 3.0187199 -1.9040109
-3.1829102 2.9419403 -1.9034899
-3.2520995 2.8635035 -1.9029821
-3.3847363 2.7018809 -1.9020057
-3.5094433 2.534193 -1.9010841
-3.6259961 2.3608398 -1.900219
-3.6811035 2.2721636 -1.8998083
-3.7340918 2.1822138 -1.8994122
-3.7849023 2.0910461 -1.8990315
-3.8335156 1.9987109 -1.8986659
-3.823457 -2.0136876 -1.8978053
-3.7743847 -2.1057336 -1.8981313
-3.7231641 -2.196605 -1.8984727
-3.6142285 -2.3745947 -1.8992026
-3.4968846 -2.5472705 -1.8999929
-3.4351757 -2.6314936 -1.9004101
-3.3057127 -2.7954705 -1.9012884
-3.0971582 -3.0295358 -1.9027102
-3.0239551 -3.1042149 -1.9032111
-2.9489453 -3.1771419 -1.9037253
-2.8722265 -3.2482719 -1.9042517
-2.7937987 -3.3175759 -1.9047908
-2.6320019 -3.4505291 -1.9059051
-2.4639647 -3.5756798 -1.9070654
-2.0188575 -3.8525109 -1.9101516
