# .PCD v0.7 - Point Cloud Data file format
VERSION 0.7
FIELDS x y z
SIZE 4 4 4
TYPE F F F
COUNT 1 1 1
WIDTH 1493
HEIGHT 1
VIEWPOINT 0 0 0 1 0 0 0
POINTS 1493
DATA ascii
-13.149824 -19.892595 -1.8159463
-12.473945 -19.897419 -1.7883878
-11.179648 -19.906103 -1.7386215
-9.0257025 -20.473339 -1.7038881
-7.0676074 -21.419092 -1.7176297
-5.9544625 -21.475813 -1.697145
-5.3926268 -21.445944 -1.68401
-1.1820215 -7.829278 -0.60297889
-2.2616014 -22.184929 -1.6982043
-1.7506055 -22.553192 -1.7226585
-1.2180469 -22.813129 -1.7397608
-0.66424805 -22.729618 -1.7316653
0.43006834 -22.590986 -1.7206781
2.1789062 -23.770308 -1.8177681
3.9217479 -23.730181 -1.8316379
4.5064158 -23.69875 -1.8370688
5.0929489 -23.658072 -1.842904
5.6813965 -23.608133 -1.8491555
6.8640623 -23.479832 -1.8628951
7.4585056 -23.401804 -1.8704398
8.0553026 -23.314611 -1.8784579
8.65415 -23.21768 -1.8869264
9.2546482 -23.1094 -1.8957237
12.904414 -22.244755 -1.9584075
15.313945 -21.352907 -2.0010457
16.403427 -20.687002 -2.0105295
16.937353 -20.33293 -2.0152504
17.51878 -20.028004 -2.0263369
7.1454883 -7.7818937 -0.80454457
20.645477 -17.651384 -2.0685122
21.541454 -16.688269 -2.075125
21.971357 -16.18858 -2.0783064
23.562412 -14.075998 -2.090143
23.926161 -13.521106 -2.0928655
15.746543 -7.9220581 -1.342397
24.931143 -11.798047 -2.1004324
23.995518 -8.6368189 -1.9420933
24.055811 -8.0085287 -1.9307723
24.426044 -7.4822693 -1.9454318
24.795557 -6.3048725 -1.9483404
27.260302 -5.5471482 -2.1184952
27.40118 -4.8905835 -2.1196523
27.524521 -4.230197 -2.1206856
27.718681 -2.9000421 -2.1223795
27.841923 -1.5606378 -2.12357
27.876728 -0.88868892 -2.1239746
27.892822 0.45697448 -2.1244028
27.873955 1.1297308 -2.1244247
27.619951 3.8080139 -2.1232369
27.512138 4.4719176 -2.1226227
25.218916 4.7262106 -1.9539267
25.087334 5.3310328 -1.9531292
24.776377 6.5283346 -1.9511907
22.208387 6.4285302 -1.7606651
17.609365 6.5106077 -1.4297242
16.406054 6.5197701 -1.3444089
10.698144 6.5170689 -0.9539547
10.138896 6.5168576 -0.91784275
9.6201849 6.5166602 -0.88486344
9.137207 6.5164771 -0.85465276
8.6858397 6.516305 -0.82689929
8.2626657 6.5161424 -0.80134827
7.4890428 6.5158458 -0.75595433
7.1338377 6.5157089 -0.73575437
6.7095509 6.431849 -0.70779693
6.3931832 6.4316354 -0.69059491
5.3323827 6.5150986 -0.64113325
5.074863 6.5149961 -0.6288904
4.5875683 6.5148044 -0.60678053
4.3563085 6.5147119 -0.59680867
4.1323633 6.5146227 -0.58749431
3.7042186 6.514452 -0.57068288
3.4989648 6.5143685 -0.56311506
3.2989843 6.5142879 -0.5560652
3.103828 6.5142088 -0.54950529
2.3640819 6.513906 -0.52770871
2.0141993 6.513761 -0.5192126
1.8432617 6.51369 -0.51551187
1.6746289 6.5136194 -0.51215839
1.4895898 6.4336963 -0.5029006
1.3261132 6.4296899 -0.49994159
0.3826367 6.5170116 -0.49713999
0.067753904 6.5168762 -0.49630225
-0.40442383 6.5166683 -0.4972142
-0.5625 6.5165992 -0.49809912
-0.88083982 6.5164585 -0.50075692
-1.5316015 6.5161681 -0.50974488
-1.698457 6.5160937 -0.51279563
-2.5693164 6.515697 -0.53336906
-2.7527051 6.5156116 -0.53864229
-3.3268554 6.5153465 -0.55709928
-3.8914549 6.4264636 -0.57212371
-4.10957 6.4311948 -0.58120292
-4.3846092 6.5100169 -0.59771329
-5.6331444 6.5094237 -0.65555394
-5.9135838 6.5092893 -0.66971618
-7.1740036 6.5086827 -0.73765641
-7.5311522 6.5085106 -0.75801146
-7.9088278 6.5083275 -0.77999061
-8.7351561 6.5079246 -0.82952529
-9.6730862 6.5055737 -0.88772869
-10.195488 6.5053172 -0.92099965
-10.758886 6.5050411 -0.95743489
-11.369111 6.5047398 -0.99748111
-12.033008 6.5044127 -1.0416543
-12.758808 6.5040565 -1.0905807
-13.556699 6.5036621 -1.1450355
-14.249326 6.4177976 -1.1901014
-16.517647 6.5004625 -1.351769
-17.761904 6.499845 -1.4403439
-20.274101 6.8692369 -1.6301465
-20.418369 6.3732972 -1.6289041
-20.552626 5.875051 -1.627831
-20.675713 5.3742456 -1.6268365
-22.866005 3.6385667 -1.7632192
-22.938671 3.0847509 -1.7625722
-23.047245 1.9736389 -1.7615392
-23.083124 1.4167731 -1.7611538
-23.10663 0.85939938 -1.7608566
-23.11791 0.30169126 -1.7606463
-23.116865 -0.25606507 -1.7605239
-23.039911 -1.9271731 -1.7606835
-22.989725 -2.4827478 -1.7609122
-22.765615 -4.1415524 -1.7621239
-22.666533 -4.691021 -1.7627026
-22.431932 -5.7835112 -1.7641212
-19.922382 -7.794961 -1.6291428
-19.742733 -8.2791929 -1.6303109
-19.552109 -8.7597399 -1.6315585
-20.288828 -11.554897 -1.7780588
-19.46084 -13.032444 -1.7836186
-19.162422 -13.513356 -1.7856344
-17.859375 -15.372663 -1.7944927
-17.506817 -15.82025 -1.7969024
-16.77043 -16.692999 -1.8019499
-15.589355 -17.942577 -1.8100802
-15.175918 -18.342329 -1.8129351
-13.878291 -19.487827 -1.821921
-13.42707 -19.851025 -1.8250538
-12.768672 -19.895338 -1.8002795
-11.458183 -19.904297 -1.7489874
-9.7041693 -20.09136 -1.6991392
-8.7578316 -20.616079 -1.7057648
-8.2744045 -20.86278 -1.7091544
-6.7748728 -21.504086 -1.7169458
-5.6386523 -21.459023 -1.6896408
-4.5415134 -21.443325 -1.6691916
-1.2662792 -7.8239989 -0.60357285
-2.9918847 -21.810019 -1.676452
-2.4863672 -22.065781 -1.691008
-1.976914 -22.386354 -1.7114187
-1.4611328 -22.8153 -1.7410113
-0.35647461 -22.700932 -1.7289562
0.19044921 -22.619144 -1.722574
0.73527342 -22.583988 -1.7207465
2.5031347 -23.768938 -1.820081
3.0832129 -23.759487 -1.8245261
4.2490234 -23.713764 -1.8346316
4.8347263 -23.677111 -1.8402857
5.4223437 -23.63125 -1.846354
6.0117478 -23.576103 -1.852839
7.1966991 -23.437119 -1.8670535
7.7925391 -23.354134 -1.874877
8.3904486 -23.261488 -1.8831469
8.9903612 -23.158394 -1.8918115
11.411172 -22.643433 -1.9309509
12.021563 -22.487743 -1.9418474
12.633994 -22.321146 -1.9532135
13.248798 -22.143366 -1.9650619
15.07079 -21.491718 -1.9989549
15.621797 -21.172165 -2.003706
17.233105 -20.128517 -2.0178871
18.496113 -19.604969 -2.0525467
19.490986 -18.758101 -2.0600226
20.442217 -17.856571 -2.0670152
21.348417 -16.904356 -2.073698
23.39784 -14.316835 -2.0889134
23.7679 -13.766467 -2.0916803
24.123817 -13.205917 -2.0943484
24.465302 -12.635572 -2.096916
25.400419 -10.869941 -2.1039946
25.681416 -10.264497 -2.1061389
24.122177 -8.3159447 -1.9430709
24.046045 -7.6459632 -1.9215215
24.887918 -5.9714799 -1.9490768
27.192881 -5.8345566 -2.1179473
27.586025 -3.8588772 -2.1212106
27.682041 -3.1935351 -2.12205
27.76038 -2.5256634 -2.1227639
27.820908 -1.8558649 -2.1233513
27.863583 -1.1844366 -2.123812
27.888544 -0.51200438 -2.1241465
27.895399 0.16094482 -2.124352
27.884384 0.83386409 -2.1244302
27.855595 1.5061548 -2.1243813
27.808817 2.1775177 -2.1242042
27.744228 2.8473303 -2.1238995
27.561728 4.1802626 -2.1229084
25.957861 4.5800376 -2.0072994
24.850166 6.2665319 -1.951656
23.458155 6.5213084 -1.8541518
21.409559 6.5120215 -1.7041525
19.688358 6.5113816 -1.5791943
18.201513 6.5108275 -1.4721093
14.760312 6.519155 -1.2287917
13.845898 6.5188122 -1.1654232
12.27125 6.5182214 -1.0581427
10.95831 6.517168 -0.97093505
10.379629 6.5169492 -0.93332213
8.880722 6.5163779 -0.83882207
8.4455175 6.516212 -0.81233138
8.036787 6.5160556 -0.78791034
7.6516309 6.5159082 -0.76534355
6.5303903 6.4316893 -0.69800305
6.2226562 6.431571 -0.68149871
5.7216797 6.5152512 -0.66031867
5.4488864 6.5151439 -0.64679307
5.186904 6.5150414 -0.63417244
4.9348631 6.5149412 -0.62239271
4.6918259 6.5148449 -0.61138844
4.4570994 6.5147533 -0.60111171
3.7962987 6.5144882 -0.57418376
3.5885937 6.5144053 -0.5663799
3.3863378 6.5143237 -0.55910468
3.1890917 6.5142431 -0.55233246
2.6236033 6.5140123 -0.53478122
2.4426465 6.513938 -0.52978158
2.0901854 6.5137925 -0.52095383
1.9181347 6.5137205 -0.51709592
1.3974121 6.429719 -0.50106865
0.92930663 6.5172448 -0.50132412
-0.020302733 6.5168371 -0.49627501
-0.33503905 6.5166988 -0.49691725
-0.49290037 6.5166306 -0.49767479
-0.6513086 6.5165601 -0.49872419
-0.810498 6.5164905 -0.50006962
-1.2946093 6.5162745 -0.50592911
-1.4588281 6.516201 -0.50850809
-2.1357813 6.5158944 -0.5221771
-2.6715722 6.5156493 -0.53627217
-2.8570409 6.515564 -0.54178184
-4.0110936 6.4264073 -0.57689118
-4.2330174 6.4311376 -0.58631402
-4.5136619 6.5099559 -0.60325462
-4.995039 6.5097289 -0.6248551
-6.0760741 6.5092125 -0.67809385
-6.6917477 6.5089159 -0.71089858
-7.3716893 6.5085864 -0.74886793
-8.5445118 6.5080175 -0.81793463
-8.8775387 6.4292908 -0.83471787
-9.3333588 6.4219518 -0.86275333
-9.9609957 6.5054321 -0.90599936
-14.971581 6.5012264 -1.2429816
-16.017353 6.5007091 -1.3163967
-17.195127 6.5001254 -1.399896
-18.533281 6.4994617 -1.4956338
-20.494911 6.094542 -1.6282934
-20.739794 5.0927062 -1.6263142
-22.739803 4.433248 -1.7643038
-22.908203 3.3285179 -1.762846
-23.114492 0.54703915 -1.7607278
-23.118828 -0.010738526 -1.7605669
-23.110897 -0.56842226 -1.7604938
-23.058144 -1.6824981 -1.7606106
-22.711592 -4.4495597 -1.7624376
-21.924833 -5.9698682 -1.7304289
-19.823036 -8.0666666 -1.6297879
-19.637285 -8.5488806 -1.6310003
-20.886679 -10.318199 -1.7740836
-20.141962 -11.834599 -1.7790408
-19.870918 -12.329565 -1.7808582
-18.674852 -14.251221 -1.7889391
-18.011133 -15.173528 -1.793457
-17.304747 -16.067747 -1.7982855
-16.16749 -17.352032 -1.8060956
-15.768184 -17.76404 -1.8088468
-15.358974 -18.167566 -1.8116707
-14.94002 -18.562412 -1.814566
-14.511806 -18.94825 -1.8175296
-14.074238 -19.325037 -1.8205618
-13.067411 -19.893194 -1.812528
-12.393955 -19.897976 -1.7851967
-11.740009 -19.902435 -1.75967
-11.104111 -19.906586 -1.7358431
-10.484707 -19.910448 -1.7136204
-9.4419527 -20.242495 -1.7009737
-8.9683294 -20.504307 -1.7042898
-8.4878902 -20.755556 -1.707657
-7.0071774 -21.444843 -1.7180544
-5.8864551 -21.472197 -1.6954995
-1.1650976 -7.8717442 -0.60598582
-2.7091796 -21.94767 -1.6840624
-2.2002246 -22.221727 -1.7005252
-1.6882226 -22.599184 -1.7257893
-1.1510644 -22.801859 -1.7386398
-0.59808594 -22.721754 -1.7309245
-0.049589843 -22.645596 -1.7245303
1.0836328 -23.508667 -1.7921559
3.4090624 -23.750292 -1.8271936
3.9920995 -23.726919 -1.8322697
4.5769238 -23.694345 -1.8377491
5.163662 -23.652548 -1.8436342
6.3428903 -23.541101 -1.8566576
6.9354296 -23.470879 -1.8637735
9.9297848 -22.975733 -1.9060824
10.535693 -22.847769 -1.9160016
11.143555 -22.708744 -1.926329
11.752725 -22.557533 -1.9369922
12.978408 -22.223505 -1.959844
13.592451 -22.036406 -1.9716952
15.380234 -21.314491 -2.0016172
16.468065 -20.64518 -2.0110984
17.001093 -20.289371 -2.0158174
7.0540137 -8.0173512 -0.81322312
7.2282028 -7.8262639 -0.81129634
20.700644 -17.594912 -2.0689187
21.153124 -17.117941 -2.0722558
23.606903 -14.009788 -2.0904758
24.316963 -12.887563 -2.0957994
25.271923 -11.133659 -2.1030171
25.559853 -10.531761 -2.1052098
23.787157 -9.1365137 -1.9404913
26.110731 -5.8929543 -2.0384226
27.416864 -4.811347 -2.1197827
27.538212 -4.1505442 -2.1208017
27.641981 -3.4864788 -2.1216962
27.796474 -2.1506898 -2.1231084
27.847021 -1.4798694 -2.123625
27.879696 -0.8078137 -2.1240146
27.700283 3.2217076 -2.1236732
27.497978 4.5514927 -2.1225402
25.203915 4.7991405 -1.9538369
25.0704 5.4035192 -1.9530255
24.755653 6.599812 -1.9510597
21.998554 6.4369774 -1.7455008
20.413164 6.5116525 -1.6316983
16.268114 6.5197191 -1.3346511
15.195068 6.5193176 -1.2591535
14.23622 6.51896 -1.1923877
13.373466 6.5186353 -1.1329689
12.592168 6.5183411 -1.0797905
9.0812693 6.5164547 -0.85118741
8.6335545 6.516284 -0.82371885
7.8182616 6.5159726 -0.77505028
7.4452829 6.5158286 -0.75344265
7.0923438 6.5156932 -0.73342431
6.6706152 6.4317431 -0.70565331
6.1354685 6.5154123 -0.68153256
5.5674706 6.5151901 -0.65262508
5.3008986 6.5150867 -0.63961798
5.04457 6.5149851 -0.62747413
4.7976465 6.5148864 -0.6161353
4.3289647 6.5147009 -0.59565413
4.1058688 6.5146117 -0.58641595
3.889492 6.5145249 -0.5777927
3.6792381 6.5144405 -0.569745
3.275244 6.5142784 -0.55525082
2.7042871 6.5140452 -0.53710896
2.1666894 6.5138254 -0.5227654
1.9935254 6.5137525 -0.51874816
1.6544921 6.5136108 -0.5117783
0.9865039 6.4295435 -0.49535522
0.83958006 6.5172057 -0.50040191
0.20613281 6.5169358 -0.49652755
0.048837889 6.5168662 -0.49628815
-0.10838867 6.516798 -0.49633831
-0.26575196 6.5167308 -0.49667743
-0.58155274 6.5165906 -0.49822602
-0.90008789 6.5164499 -0.50095457
-1.0608691 6.5163794 -0.5027706
-1.5515722 6.5161595 -0.51009321
-1.718662 6.5160837 -0.51318479
-1.8878906 6.5160084 -0.51661623
-2.0595019 6.5159302 -0.52039909
-2.233711 6.5158505 -0.5245443
-2.4108593 6.515769 -0.52906626
-2.9626367 6.5155149 -0.54505688
-3.5519726 6.5152426 -0.56509525
-3.7074609 6.4265499 -0.56499767
-4.1358886 6.4311838 -0.58228451
-9.8606052 -7.7683115 -1.2408227
-14.195527 -11.749326 -1.8214604
-13.922187 -12.10073 -1.8233273
-13.640664 -12.446186 -1.8252544
-13.053251 -13.118531 -1.8292863
-12.747637 -13.445034 -1.8313894
-12.434238 -13.76485 -1.8335496
-11.784638 -14.383695 -1.8380374
-10.755263 -15.257204 -1.8451737
-10.398046 -15.533103 -1.8476566
-10.034023 -15.801023 -1.8501898
-9.6634369 -16.060852 -1.8527719
-9.2863569 -16.312435 -1.8554019
-8.9029684 -16.555552 -1.8580788
-8.1178713 -17.01582 -1.8635699
-7.3099804 -17.440392 -1.8692316
-6.8978415 -17.63891 -1.872124
-5.630918 -18.177626 -1.8810319
-5.1992188 -18.337751 -1.8840728
-4.7630758 -18.487957 -1.8871478
-3.4307032 -18.877666 -1.8965572
-2.06708 -19.173412 -1.9062103
-1.6052148 -19.232676 -1.907699
-1.1421875 -19.289345 -1.910028
-0.67767578 -19.343113 -1.9131737
0.25575194 -19.329231 -1.9107993
0.72016603 -19.269892 -1.9060959
1.6517285 -19.247322 -1.9095272
2.119287 -19.235691 -1.9128892
3.0554297 -19.179199 -1.9197069
3.9913182 -19.078159 -1.9266375
4.9246583 -18.93206 -1.9336478
5.3898044 -18.842175 -1.9371862
5.8534765 -18.741022 -1.9407437
6.3154688 -18.628641 -1.944319
6.7755075 -18.504972 -1.9479101
7.6885448 -18.223957 -1.9551302
8.140976 -18.066618 -1.9587557
8.5903416 -17.898113 -1.9623889
9.0362988 -17.718456 -1.9660269
9.4786224 -17.527718 -1.9696684
9.9169922 -17.325945 -1.9733107
11.205546 -16.655046 -1.9842215
11.625215 -16.409794 -1.9878451
12.03956 -16.153912 -1.991459
12.448203 -15.887468 -1.9950602
7.0291696 -7.7449284 -1.0338489
14.396406 -14.400957 -2.0127971
15.479209 -13.390664 -2.023139
15.82416 -13.035134 -2.0265222
16.160654 -12.670524 -2.0298691
16.488428 -12.297002 -2.0331774
17.162334 -11.554755 -2.0450954
17.454649 -11.14925 -2.0472741
17.736797 -10.735994 -2.0493822
16.823427 -9.1046429 -1.8908454
17.274004 -8.2975254 -1.8942459
17.483778 -7.8850174 -1.8958378
17.683037 -7.4669318 -1.8973559
17.87163 -7.0435572 -1.8987991
18.049316 -6.6151605 -1.9001657
18.901787 -5.9102578 -1.9575866
20.107275 -5.7585602 -2.0674429
20.383232 -4.7871337 -2.0696366
20.502323 -4.2960291 -2.0706
20.608711 -3.8018019 -2.0714736
20.782871 -2.8053746 -2.0729473
20.850517 -2.3038812 -2.0735464
20.905146 -1.8006676 -2.074053
20.975048 -0.79057735 -2.0747867
20.992451 0.22205688 -2.0751464
20.981327 0.72841001 -2.0751848
20.919735 1.7393523 -2.074981
20.869287 2.2432408 -2.0747387
20.729092 3.2459924 -2.0739725
20.63957 3.7441454 -2.0734499
18.10161 6.5734057 -1.9036083
16.686953 6.5195236 -1.7708714
15.567197 6.5191259 -1.6682452
13.674062 6.5184507 -1.4973567
11.456308 6.5170984 -1.3028224
10.838886 6.5168748 -1.2501307
9.7412109 6.5164771 -1.158471
9.2500486 6.5162973 -1.1184313
6.4676852 6.4314857 -0.90159231
6.2182126 6.4891562 -0.88838172
5.9483886 6.5151649 -0.8720383
5.6662402 6.5150595 -0.85347509
5.1357908 6.5148568 -0.82000566
4.8855858 6.5147619 -0.80492139
4.6442871 6.5146704 -0.79083252
3.966748 6.5144067 -0.75390905
3.3465624 6.5141625 -0.72390091
2.958545 6.5140085 -0.70718372
2.770957 6.5139332 -0.69971192
2.5871875 6.5138597 -0.69279671
2.406914 6.5137877 -0.68641174
2.2298436 6.5137157 -0.68053693
1.7149512 6.5135045 -0.66577661
1.365039 6.429575 -0.64970213
1.0438379 6.429441 -0.64384598
0.89730465 6.5171032 -0.65026748
0.73759764 6.5170345 -0.64829469
-0.20893554 6.5166268 -0.64447254
-0.52442384 6.5164881 -0.64621079
-0.84233397 6.5163474 -0.64947301
-1.0026855 6.5162745 -0.65168744
-1.1642382 6.5162024 -0.65429997
-1.3271778 6.516129 -0.6573174
-1.6580957 6.5159788 -0.66460389
-1.8265234 6.515902 -0.66889703
-1.9972363 6.5158238 -0.67363966
-2.1704786 6.5157447 -0.67884886
-2.3465331 6.5156627 -0.68454099
-2.5256836 6.5155783 -0.69073462
-2.7081835 6.5154943 -0.69744915
-2.8943944 6.5154061 -0.70471078
-3.0846386 6.5153174 -0.71254361
-4.0540624 6.426239 -0.75104934
-4.3298435 6.5098901 -0.77281159
-4.5600195 6.509779 -0.78563154
-5.0448241 6.5095434 -0.81405348
-5.5673046 6.5092869 -0.84665525
-7.090693 6.5085349 -0.95138711
-7.4432321 6.5083594 -0.97733098
-8.2104588 6.5079746 -1.035604
-8.6299505 6.5077648 -1.0683969
-8.957695 6.4219189 -1.0894712
-9.4324799 6.423573 -1.1280373
-11.217256 6.5045614 -1.2817171
-11.86746 6.5042295 -1.3376869
-14.126249 6.4612598 -1.535462
-15.47498 6.6315145 -1.6641862
-15.883828 5.4846959 -1.6610299
-16.002501 5.0970716 -1.6600933
-16.112274 4.7070837 -1.65922
-17.797022 3.8278515 -1.7994064
-17.87747 3.3961449 -1.7987323
-17.948154 2.9629064 -1.7981274
-18.009033 2.5283337 -1.7975923
-18.060106 2.0926056 -1.7971268
-18.132725 1.2186145 -1.7964053
-18.165947 0.34252807 -1.7959646
-18.167772 -0.095783077 -1.7958496
-17.539492 -4.8664746 -1.799219
-17.424023 -5.2902813 -1.7999438
-16.697401 -5.9633889 -1.7525851
-15.38168 -6.7843699 -1.6617544
-15.056015 -7.528089 -1.6639035
-14.880468 -7.8946304 -1.6650698
-14.696484 -8.2573595 -1.6662973
-14.313086 -11.592913 -1.8206586
-14.043427 -11.946882 -1.8224987
-13.765508 -12.294971 -1.8243994
-12.883027 -13.302231 -1.8304571
-12.255332 -13.940998 -1.8347842
-11.930068 -14.25001 -1.8370315
-11.597363 -14.551881 -1.8393337
-11.257343 -14.846381 -1.8416895
-10.555996 -15.412707 -1.8465585
-10.194981 -15.684148 -1.8490695
-9.0723629 -16.449667 -1.8568957
-8.6855078 -16.687983 -1.8595986
-6.6646676 -17.746031 -1.8737615
-4.9554396 -18.423134 -1.8857912
-4.516953 -18.567699 -1.8888841
-4.0744529 -18.702145 -1.8920078
-3.6281347 -18.826313 -1.8951614
-2.2687597 -19.136044 -1.9047821
-1.3459473 -19.263931 -1.9088184
-0.41627929 -19.353149 -1.9134381
0.51634765 -19.301788 -1.9085993
1.4462891 -19.248959 -1.908059
2.381377 -19.224329 -1.9147863
3.3176661 -19.15539 -1.9216372
4.2530274 -19.041786 -1.9285911
4.7197461 -18.96805 -1.9320984
5.1853709 -18.883099 -1.9356273
5.6496677 -18.786901 -1.9391763
6.1124706 -18.679457 -1.9427444
7.9423242 -18.137209 -1.95716
9.7246971 -17.416061 -1.9717087
10.592353 -16.989248 -1.9789901
11.019326 -16.759533 -1.9826248
11.857988 -16.267782 -1.9898707
13.07375 -15.450942 -2.0006483
7.031992 -7.9152255 -1.0465612
14.231914 -14.541801 -2.0112593
15.673447 -13.192658 -2.0250382
16.013691 -12.83199 -2.0284014
16.668154 -12.083974 -2.0350134
17.030224 -11.730349 -2.0440691
17.327333 -11.32858 -2.0463247
17.613983 -10.918708 -2.0484641
17.890272 -10.501225 -2.0505309
16.718906 -9.2788076 -1.8900596
17.178379 -8.4771051 -1.8935223
17.392792 -8.0671625 -1.8951466
17.596739 -7.6515231 -1.8966976
18.304502 -5.9374499 -1.9021432
19.790762 -5.895864 -2.0412166
20.189629 -5.4880667 -2.0680931
20.326836 -5.0020514 -2.0691845
20.563477 -4.0195608 -2.0711005
20.662676 -3.5237441 -2.0719233
20.748993 -3.0253284 -2.0726547
20.822363 -2.524704 -2.0732944
20.882704 -2.0222108 -2.0738416
20.93001 -1.518208 -2.074296
20.96419 -1.0130334 -2.0746574
20.985214 -0.5070892 -2.0749252
20.993086 -0.00071960449 -2.0750992
20.987831 0.50571471 -2.0751796
20.893047 2.0217688 -2.0748565
20.835262 2.5248265 -2.0745616
20.764385 3.0261462 -2.074173
20.583778 4.0220728 -2.073117
18.480761 5.504231 -1.9060628
18.174921 6.3825464 -1.9040867
16.04331 6.5192957 -1.7117547
14.056455 6.5185862 -1.5315677
13.211103 6.5182848 -1.4561715
11.594628 6.433917 -1.3107163
9.9686031 6.5165586 -1.1772237
8.9893847 6.5162024 -1.0974638
8.1325684 6.5158873 -1.0300702
6.6065135 6.4315381 -0.91137594
5.7888474 6.5151048 -0.86148155
4.7493653 6.5147104 -0.79691201
4.5127149 6.5146189 -0.78335094
4.2838669 6.5145297 -0.77068746
3.6379395 6.5142784 -0.73751694
3.4344335 6.5141978 -0.72791368
2.6675682 6.5138912 -0.69577247
2.3073535 6.5137463 -0.68305945
1.9592675 6.5136046 -0.67234027
1.601289 6.4336133 -0.65533704
1.1139941 6.4294715 -0.6449967
0.49008787 6.5169296 -0.64599103
0.3322168 6.5168614 -0.6450029
0.17475586 6.5167933 -0.64439017
0.0175 6.516726 -0.64415413
-0.13973632 6.5166574 -0.64429283
-0.61314452 6.516449 -0.64696944
-1.0930078 6.5162339 -0.65310228
-1.5846777 6.5160117 -0.66285521
-1.9218554 6.5158591 -0.67149776
-3.1930957 6.5152659 -0.71719295
-3.3903515 6.515173 -0.72597641
-3.592617 6.5150781 -0.73541105
-3.7486424 6.426383 -0.73539823
-3.9593945 6.4262829 -0.74610287
-4.1796288 6.4310117 -0.75814164
-4.4578319 6.5098276 -0.77988446
-5.1870704 6.5094738 -0.82273555
-6.0056348 6.5090709 -0.87542152
-6.3028903 6.5089254 -0.8955977
-6.614336 6.5087705 -0.91726929
-6.9414454 6.5086093 -0.94057727
-8.0339546 6.5080638 -1.0219944
-8.8768158 6.5076404 -1.0879742
-9.8355465 6.5052624 -1.1656191
-10.37044 6.5049901 -1.2100576
-11.574609 6.5043783 -1.3123844
-12.257265 6.5040317 -1.3715924
-13.004863 6.5036488 -1.4372698
-13.828154 6.5032272 -1.5104781
-15.409199 6.7977562 -1.6647778
-15.828837 5.6544056 -1.6614615
-15.951366 5.2678699 -1.6604977
-16.275888 4.5170813 -1.6696292
-17.664062 4.4463267 -1.8004985
-17.918251 3.15364 -1.798385
-17.983477 2.7196319 -1.7978191
-18.038847 2.2843909 -1.797323
-18.146006 0.97338742 -1.7962537
-18.162031 0.5353058 -1.7960372
-18.168182 0.09701477 -1.7958915
-17.935516 -2.959558 -1.7968391
-17.7808 -3.8230836 -1.7977412
-17.355185 -5.5266175 -1.8003794
-16.037226 -5.9731846 -1.6916122
-15.44874 -6.6190152 -1.661315
-15.293925 -6.9940324 -1.6623315
-14.778438 -8.0982876 -1.6657499
-14.589833 -8.458847 -1.6670108
-14.39292 -8.8153219 -1.6683319
-14.935497 -10.705872 -1.816427
-13.888789 -12.142619 -1.8235558
-13.60623 -12.487329 -1.8254904
-13.315566 -12.825925 -1.8274841
-12.710332 -13.483862 -1.8316463
-12.396015 -13.802854 -1.8338133
-11.744599 -14.419994 -1.8383144
-11.063749 -15.008088 -1.8430322
-10.712675 -15.290809 -1.8454696
-9.6183987 -16.091553 -1.8530858
-8.8564358 -16.584215 -1.8584042
-7.6681542 -17.258104 -1.86672
-6.8478222 -17.662149 -1.8724753
-6.4298434 -17.85014 -1.8754116
-5.5792284 -18.197386 -1.8813958
-3.8249023 -18.772961 -1.8937707
-1.2036328 -7.8186536 -0.78195494
-1.549336 -19.236536 -1.9076266
-1.0864356 -19.296391 -1.9104054
-0.6216113 -19.347576 -1.9134271
-0.15469727 -19.351633 -1.9129041
0.77576172 -19.259295 -1.9052615
1.2409961 -19.248478 -1.9065973
1.7079492 -19.246515 -1.9099298
3.1117675 -19.174391 -1.9201208
3.579834 -19.128094 -1.9235764
4.5145702 -19.001854 -1.930553
5.4456348 -18.830603 -1.9376129
5.909121 -18.728096 -1.941173
6.3708982 -18.614361 -1.9447501
8.1952143 -18.046947 -1.9591926
8.6441603 -17.877069 -1.9628261
9.0896969 -17.696096 -1.9664648
10.403056 -17.08687 -1.9773895
11.256309 -16.626108 -1.9846576
12.089013 -16.122414 -1.9918929
12.898906 -15.576562 -1.9990768
13.294609 -15.288083 -2.0026441
14.065986 -14.680744 -2.009716
14.441152 -14.362154 -2.0132167
15.521152 -13.34843 -2.0235476
16.527206 -12.251479 -2.0335724
16.875097 -11.88948 -2.0404799
17.198008 -11.506424 -2.0453613
17.48913 -11.099945 -2.0475314
17.770039 -10.685767 -2.0496309
18.040419 -10.264138 -2.051657
15.732197 -7.9721789 -1.743342
17.299765 -8.2482023 -1.894441
17.508329 -7.8350143 -1.8960245
17.893583 -6.9922862 -1.8989675
18.069912 -6.5633202 -1.9003247
18.235292 -6.129622 -1.9016049
19.086523 -5.9072723 -1.9749326
20.398251 -4.7282162 -2.0697572
20.51582 -4.2367587 -2.0707102
20.857792 -2.2434356 -2.0736122
20.91081 -1.7400689 -2.0741076
20.9508 -1.2353662 -2.0745101
20.977596 -0.72973567 -2.0748191
20.97913 0.78926754 -2.0751834
20.914354 1.80005 -2.0749569
18.672733 4.8621802 -1.9072824
12.772861 6.5181274 -1.4174472
9.6802931 6.5164547 -1.1534685
8.311904 6.5159531 -1.0439675
7.1753321 6.5155344 -0.95803314
6.430254 6.4314709 -0.89896995
4.8561034 6.5147495 -0.80317527
4.6158104 6.514658 -0.78920209
4.3836131 6.5145688 -0.7761519
4.1588283 6.5144811 -0.76396179
3.5232909 6.5142322 -0.73205388
3.1269922 6.5140758 -0.71423554
2.9357715 6.513999 -0.70625556
2.3854687 6.5137792 -0.68567884
1.8636523 6.5135655 -0.66967559
1.5092578 6.4335752 -0.65319777
1.184414 6.4295006 -0.64622384
0.87804687 6.5170932 -0.65000868
0.71844727 6.5170264 -0.6480841
0.55969727 6.5169601 -0.64654619
0.40161133 6.516892 -0.64539069
0.086650386 6.5167551 -0.64421213
-0.070546873 6.5166869 -0.64418578
-0.38543946 6.5165491 -0.64525962
-0.86157227 6.5163388 -0.6497187
-1.346875 6.5161204 -0.65770727
-1.5116308 6.5160446 -0.6611895
-2.0179296 6.5158153 -0.6742419
-2.1914842 6.5157347 -0.67950743
-2.5474412 6.5155697 -0.69151276
-2.7303808 6.5154843 -0.69829285
-2.9170604 6.5153966 -0.70562309
-3.1078026 6.5153074 -0.71352631
-3.3029883 6.5152149 -0.72203487
-3.5030077 6.5151196 -0.73117906
-3.8659375 6.4263282 -0.74130094
-4.5882225 6.5097656 -0.78723323
-4.8273044 6.5096493 -0.80107158
-5.3324118 6.5094028 -0.83175945
-5.6000586 6.5092721 -0.84876281
-6.1704493 6.5089903 -0.88654411
-7.8620019 6.5081491 -1.0088488
-8.259551 6.5079503 -1.0394096
-10.130215 6.5051122 -1.1900136
-10.688369 6.5048289 -1.2367818
-11.949502 6.5041866 -1.3448035
-12.667363 6.5038218 -1.4075195
-15.636992 6.2063022 -1.6629577
-15.772148 5.8236279 -1.6619051
-16.016161 5.0502601 -1.6599851
-17.097597 4.49719 -1.747525
-17.718164 4.2062049 -1.8000567
-17.955976 2.9106982 -1.7980595
-18.015713 2.4759624 -1.7975324
-18.135849 1.1659478 -1.796371
-18.1562 0.72804075 -1.796124
-18.167324 -0.14851013 -1.7958406
-18.158106 -0.58669311 -1.7958041
-18.138994 -1.0245751 -1.7958386
-18.110088 -1.4619037 -1.7959429
-18.07128 -1.8985528 -1.7961181
-17.964296 -2.7688162 -1.7966783
-17.818153 -3.6337283 -1.7975191
-17.633135 -4.4917359 -1.7986385
-17.409492 -5.3411102 -1.8000355
-17.283262 -5.7620749 -1.8008374
-16.55167 -5.9655552 -1.7391003
-15.656513 -6.0735455 -1.6599603
-15.514121 -6.4530411 -1.6608874
-15.203447 -7.2026615 -1.6629281
-14.673808 -8.300725 -1.666449
-14.279023 -9.0131474 -1.669098
-15.042255 -10.542607 -1.8157037
-14.797099 -10.912346 -1.8173656
-12.846142 -13.341429 -1.8307114
-12.216592 -13.978547 -1.8350519
-11.556855 -14.587684 -1.839614
-10.867969 -15.167373 -1.8443911
-10.151114 -15.716298 -1.8493747
-9.782568 -15.978718 -1.8519413
-9.0261812 -16.478764 -1.8572183
-8.6385841 -16.716051 -1.8599267
-7.845654 -17.164349 -1.8654761
-7.4405661 -17.375 -1.8683153
-7.0300879 -17.576498 -1.8711953
-5.7679586 -18.124336 -1.8800673
-4.9029002 -18.441053 -1.8861618
-4.4639549 -18.584425 -1.889258
-3.5742383 -18.840557 -1.8955423
-3.1239355 -18.953077 -1.8987269
-2.6703222 -19.055101 -1.9019375
-1.7535156 -19.220232 -1.9077489
-1.2902832 -19.27103 -1.9091448
-0.82633787 -19.327114 -1.9121662
0.10676757 -19.340271 -1.9117498
1.0358984 -19.245857 -1.9051424
1.5024512 -19.248735 -1.9084598
2.4376757 -19.221443 -1.9151951
2.9058106 -19.191256 -1.9186094
3.3739746 -19.149849 -1.922053
4.7757711 -18.958401 -1.9325216
5.2412791 -18.872149 -1.9360532
6.6287303 -18.545725 -1.9467608
7.0872264 -18.414438 -1.950361
7.9967089 -18.118113 -1.9575964
8.4470606 -17.95318 -1.9612271
10.212861 -17.18236 -1.9757885
10.643935 -16.9622 -1.9794273
11.070322 -16.731153 -1.9830613
11.907734 -16.236837 -1.9903054
13.121347 -15.41624 -2.0010774
7.0308981 -7.8678856 -1.0429957
13.898701 -14.817778 -2.0081687
14.27704 -14.503479 -2.0116804
15.011592 -13.845639 -2.0186238
15.367285 -13.502351 -2.0220509
16.054052 -12.788018 -2.0288033
17.647743 -10.868887 -2.0487163
17.922792 -10.45048 -2.0507748
16.981279 -8.8328056 -1.8920343
17.204746 -8.4281244 -1.8937219
17.41785 -8.0174513 -1.8953369
17.620546 -7.6011243 -1.896879
17.99375 -6.752584 -1.8997375
18.163935 -6.3209109 -1.9010516
18.426348 -5.9179306 -1.9130118
20.206816 -5.4298215 -2.068229
20.342558 -4.9433622 -2.0693102
20.465683 -4.4533086 -2.070302
20.576113 -3.9600737 -2.0712044
20.889051 -1.9616354 -2.0739009
20.986885 -0.44617307 -2.0749512
20.966269 1.0726837 -2.0751576
20.886826 2.0823846 -2.0748262
20.827431 2.5852196 -2.0745199
20.755009 3.0863123 -2.07412
20.66959 3.5852039 -2.0736272
20.57128 4.0816355 -2.0730417
20.36001 4.5528197 -2.0622244
18.72661 4.6645813 -1.9076205
18.600918 5.112855 -1.9068285
18.463661 5.5574951 -1.9059533
16.829706 6.4261756 -1.7807105
15.910654 6.519248 -1.6996151
14.876328 6.5188794 -1.6054633
13.114951 6.5182505 -1.4476531
12.357217 6.5179796 -1.3809717
10.446435 6.5167322 -1.2170389
9.9057026 6.5165367 -1.1720215
9.4033108 6.5163522 -1.1308533
8.0843744 6.5158701 -1.0263561
7.3302341 6.5155921 -0.96942669
6.9832907 6.5154624 -0.94406003
6.5682321 6.4315233 -0.9086675
6.2587204 6.431406 -0.88705838
6.0411716 6.5152001 -0.87825209
5.4809666 6.5149889 -0.84156477
4.2568259 6.5145187 -0.76922077
4.0359473 6.5144334 -0.75749081
3.8215721 6.5143504 -0.74654156
3.6131835 6.5142689 -0.73632628
3.2124999 6.5141101 -0.71793729
3.019336 6.5140328 -0.70969224
2.8304687 6.5139575 -0.70203841
2.6455274 6.5138831 -0.69494843
2.46417 6.5138111 -0.68839622
2.2861035 6.5137377 -0.68236035
2.1110253 6.5136666 -0.6768195
1.9386621 6.5135961 -0.67175525
1.0947851 6.4294629 -0.64467269
0.62943357 6.5169883 -0.64717573
0.31327146 6.5168529 -0.64490831
-0.0014160156 6.5167174 -0.64415056
-0.31608397 6.5165796 -0.64489514
-0.47387695 6.51651 -0.64583218
-0.79130858 6.5163693 -0.64884824
-0.9513281 6.5162988 -0.6509378
-1.1124706 6.5162253 -0.65342206
-1.2749413 6.5161524 -0.65630811
-1.6047168 6.5160031 -0.66332531
-2.8344629 6.5154357 -0.70232815
-3.2165821 6.515255 -0.71821636
-3.4144042 6.515161 -0.72707695
-3.6173143 6.5150647 -0.73659241
-3.7736719 6.4263721 -0.73664641
-3.9851561 6.4262705 -0.74743688
-4.2062206 6.4309998 -0.75957555
-4.7211227 6.5097008 -0.79486889
-4.9649801 6.5095825 -0.8092466
-5.7548728 6.5091944 -0.85881603
-6.0406933 6.5090561 -0.87777448
-6.3395996 6.5089073 -0.89812368
-6.9819236 6.5085888 -0.94349879
-7.3284764 6.5084167 -0.96882534
-8.8793354 6.4699574 -1.0859722
-9.2752829 6.4217587 -1.1151276
-9.8977928 6.5052304 -1.1707538
-11.020732 6.5046606 -1.2649528
-12.343515 6.5039868 -1.3791273
-13.932929 6.5031748 -1.5198525
-15.427334 6.7523727 -1.6646148
-15.965498 5.2211962 -1.6603862
-16.078144 4.8319626 -1.6594921
-17.769247 3.9654663 -1.7996365
-18.044872 2.2319477 -1.7972677
-18.089247 1.7956054 -1.79685
-18.123798 1.3584393 -1.7965016
-18.148466 0.92072874 -1.7962239
-18.168282 0.044276122 -1.7958785
-18.163368 -0.39396057 -1.7958118
-18.045273 -2.1427364 -1.7962466
-17.927305 -3.0116594 -1.7968855
-17.853622 -3.4440749 -1.7973101
-17.677158 -4.3037066 -1.7983685
-17.095791 -5.9574533 -1.7895285
-15.577803 -6.2865057 -1.660472
-15.274707 -7.0389285 -1.6624579
-14.937461 -7.777894 -1.6646905
-14.756201 -8.1418915 -1.6658984
-14.368662 -8.8579178 -1.6684948
-14.162587 -9.2095757 -1.6698824
-15.147324 -10.378317 -1.8149929
-10.080371 -7.6463494 -1.2506368
-9.7916012 -7.8064685 -1.2378209
-14.130517 -11.834381 -1.8219039
-13.57169 -12.528388 -1.825727
-13.280097 -12.866218 -1.8277277
-12.672919 -13.522593 -1.8319043
-12.357705 -13.840766 -1.8340777
-12.034814 -14.152031 -1.8363075
-11.704492 -14.456179 -1.8385919
-11.021904 -15.042509 -1.8433225
-10.311084 -15.598281 -1.8482615
-9.5733004 -16.122149 -1.8534002
-9.1946869 -16.371717 -1.8560417
-8.4188671 -16.845198 -1.8614633
-8.0220509 -17.068796 -1.8642406
-7.2112403 -17.489004 -1.8699241
-6.7978806 -17.685276 -1.8728259
-5.9557028 -18.04944 -1.878746
-5.527451 -18.217012 -1.8817607
-5.0946484 -18.374813 -1.8848099
-4.6575489 -18.522594 -1.8878921
-3.7711718 -18.787773 -1.8941504
-3.3224511 -18.904894 -1.8973227
-1.1822168 -7.8305264 -0.78279287
-2.4149022 -19.107603 -1.9037466
-1.9564745 -19.191933 -1.9068884
-1.4937598 -19.244249 -1.9079522
-0.56545895 -19.349295 -1.9134299
0.36775389 -19.318554 -1.9099209
0.83129883 -19.248549 -1.904428
1.2970898 -19.248814 -1.9069961
2.2318554 -19.231237 -1.913703
3.1680858 -19.16942 -1.920535
4.5706835 -18.992825 -1.930975
5.0366697 -18.911472 -1.9344969
5.9647555 -18.715004 -1.9416021
6.4263182 -18.599894 -1.9451815
6.885859 -18.473555 -1.9487759
7.7976365 -18.187136 -1.9560015
8.6979294 -17.855913 -1.9632635
9.1430759 -17.673576 -1.9669029
10.021826 -17.275747 -1.9741867
10.454912 -17.060375 -1.9778274
10.883379 -16.834124 -1.9814636
11.7254 -16.34923 -1.9887155
13.341767 -15.252703 -2.0030718
7.1142774 -7.7478971 -1.0397376
14.111485 -14.642929 -2.0101385
15.211777 -13.654509 -2.0205472
15.562978 -13.305979 -2.0239563
15.905869 -12.948232 -2.0273306
16.240294 -12.581445 -2.0306685
16.565928 -12.205834 -2.033967
16.922636 -11.849637 -2.0420623
17.233574 -11.457904 -2.0456259
17.803114 -10.635428 -2.0498784
18.072206 -10.212932 -2.0518954
16.879726 -9.0088577 -1.8912692
17.325399 -8.1988153 -1.8946354
17.532675 -7.7849369 -1.8962097
17.729414 -7.3655376 -1.8977102
17.915371 -6.9409509 -1.899135
18.254395 -6.0771585 -1.9017533
19.274549 -5.9042306 -1.9926062
20.143145 -5.6425314 -2.0677257
20.284355 -5.1577868 -2.0688453
20.413086 -4.6692843 -2.0698769
20.529091 -4.1774216 -2.0708187
20.632372 -3.6824811 -2.0716703
20.722792 -3.1848445 -2.0724306
20.800331 -2.6849236 -2.0730999
20.916317 -1.6794311 -2.0741608
20.992022 -0.16258301 -2.0750539
20.990967 0.3438977 -2.0751641
20.976719 0.85018551 -2.0751805
20.949316 1.3558788 -2.0751028
20.908817 1.860711 -2.0749316
20.855156 2.364223 -2.074666
20.788446 2.8661418 -2.0743072
20.616083 3.863606 -2.0733106
19.212938 4.5697474 -1.9521124
18.657587 4.9160948 -1.9071869
18.525429 5.362401 -1.9063486
18.381796 5.8048973 -1.9054273
18.226816 6.2433419 -1.9044244
18.060606 6.6773825 -1.9033402
15.316835 6.5190368 -1.6454414
10.697734 6.5168238 -1.238188
10.138525 6.5166211 -1.1913198
9.1369038 6.5162559 -1.109306
8.6855564 6.5160923 -1.0732833
7.864326 6.5157895 -1.0095075
7.1336327 6.5155187 -0.95498443
6.1710935 6.5152502 -0.88703781
5.8793845 6.5151401 -0.86745423
5.0747361 6.5148339 -0.81628203
4.587461 6.5146484 -0.78758544
4.3562012 6.5145578 -0.7746408
4.1322656 6.5144711 -0.76255214
3.9150779 6.5143857 -0.75126404
3.7041309 6.5143042 -0.74073178
3.4988866 6.5142236 -0.73090941
3.1037598 6.5140662 -0.71324509
2.9130468 6.5139904 -0.70533371
2.1876757 6.5136986 -0.67919624
1.6745801 6.5134873 -0.66476953
1.4895703 6.4335666 -0.65275323
1.3260839 6.4295578 -0.64891249
0.85878903 6.517086 -0.64975721
0.54064453 6.5169516 -0.64638698
0.38261718 6.5168819 -0.64527649
0.22503906 6.5168152 -0.64454406
0.067744136 6.5167465 -0.64418882
-0.24679688 6.5166101 -0.64460289
-0.5625 6.5164709 -0.64652139
-0.72123045 6.5164013 -0.64805287
-1.0414257 6.5162582 -0.65228027
-1.2033007 6.5161853 -0.65498847
-1.3666112 6.5161119 -0.65810513
-1.6984179 6.5159607 -0.66559625
-1.8673632 6.5158834 -0.66999692
-2.038662 6.5158043 -0.67484969
-2.5692675 6.5155587 -0.69230032
-2.7526464 6.5154724 -0.69914633
-3.3267772 6.5152035 -0.72310024
-4.1094823 6.4310446 -0.75438499
-4.3845115 6.5098619 -0.77581447
-4.6165428 6.5097508 -0.78884834
-4.8566599 6.509635 -0.8028025
-5.105547 6.5095129 -0.81774175
-5.6330075 6.5092564 -0.85088772
-5.9134374 6.5091171 -0.86927038
-6.2064157 6.5089731 -0.88899267
-6.8351269 6.5086608 -0.93294257
-7.5309277 6.5083151 -0.983872
-7.9085937 6.5081263 -1.012398
-8.3090038 6.507926 -1.0432527
-8.7348633 6.5077124 -1.0766915
-9.0683298 6.4218616 -1.0983709
-10.195127 6.5050802 -1.1954167
-13.556093 6.5033679 -1.4861909
-14.248652 6.4174914 -1.5446945
-15.653691 6.1604247 -1.662828
-15.913154 5.3916698 -1.660799
-16.029716 5.0034447 -1.6598775
-16.137363 4.6129346 -1.6590191
-17.286503 4.4932823 -1.7654936
-17.89539 3.2920408 -1.7985803
-18.070936 1.9876623 -1.7970251
-18.109814 1.5508196 -1.7966461
-18.138819 1.1133026 -1.7963376
-18.166718 -0.20123169 -1.7958326
-18.156338 -0.63937253 -1.7958047
-18.105907 -1.5144622 -1.7959605
-18.066006 -1.9510103 -1.7961434
-17.887226 -3.2540677 -1.7971148
-17.808134 -3.6855352 -1.7975783
-17.719316 -4.1152959 -1.7981116
-17.620781 -4.543076 -1.7987145
-17.512627 -4.9686475 -1.7993869
-17.267431 -5.8125334 -1.8009387
-16.408144 -5.9676867 -1.725835
-15.639814 -6.119348 -1.6600686
-15.014541 -7.6165905 -1.6641784
-14.836963 -7.9822459 -1.6653596
-14.254229 -9.0554581 -1.6692649
-14.043535 -9.4046497 -1.6706859
-14.248964 -11.678596 -1.8210958
-13.409326 -12.718401 -1.8268405
-13.113213 -13.052669 -1.8288741
-12.80914 -13.380503 -1.8309659
-12.177763 -14.015981 -1.8353198
-11.850683 -14.323298 -1.8375806
-11.516211 -14.623398 -1.8398956
-11.174473 -14.91613 -1.8422641
-10.825635 -15.201308 -1.844685
-10.469775 -15.47874 -1.8471578
-10.107129 -15.748293 -1.8496809
-9.7378216 -16.009747 -1.8522532
-9.3619728 -16.26296 -1.8548743
-8.9798927 -16.507765 -1.8575418
-8.1973047 -16.97155 -1.8630136
-7.7972264 -17.190155 -1.8658154
-7.3915038 -17.399712 -1.8686596
-6.9803514 -17.600101 -1.8715446
-6.564043 -17.791101 -1.8744687
-6.1426659 -17.972647 -1.8774307
-4.8502731 -18.458845 -1.8865325
-2.6155565 -19.066654 -1.9023254
-2.1585643 -19.156736 -1.9055629
-1.2345898 -19.278028 -1.909471
-0.30391601 -19.353306 -1.913247
0.16283202 -19.336657 -1.9114344
0.62794918 -19.28717 -1.9074817
1.0919141 -19.246777 -1.9055392
1.5586327 -19.248329 -1.908861
2.9621191 -19.186808 -1.9190222
3.430244 -19.144127 -1.9224688
4.3653903 -19.025042 -1.929433
4.8317771 -18.948654 -1.9329448
5.2971482 -18.860985 -1.936479
6.2235351 -18.651928 -1.9436049
6.6840038 -18.530525 -1.9471933
7.1422458 -18.39785 -1.9507949
7.5979781 -18.253958 -1.9544086
8.0510054 -18.098858 -1.9580321
8.9477053 -17.755136 -1.9653015
9.3907909 -17.566593 -1.9689425
10.264921 -17.156498 -1.976226
10.695498 -16.934984 -1.9798647
11.121289 -16.702641 -1.9834982
11.542031 -16.45952 -1.9871238
12.771103 -15.66658 -1.9979331
7.0298338 -7.8208861 -1.0394647
13.944551 -14.780529 -2.0085919
14.322041 -14.46505 -2.0121007
16.423798 -12.372154 -2.0325212
16.744404 -11.991626 -2.0357974
17.102909 -11.634622 -2.0446532
17.681366 -10.818997 -2.0489676
16.776318 -9.1837139 -1.890491
17.442812 -7.9677234 -1.8955264
17.644209 -7.5507202 -1.8970593
17.834902 -7.1283512 -1.8985174
18.014795 -6.7009192 -1.8998997
18.183641 -6.268683 -1.9012042
18.602568 -5.9150891 -1.9295216
20.223808 -5.371511 -2.0683637
20.479649 -4.3941503 -2.0704155
20.767813 -2.9051094 -2.0728166
20.895273 -1.9010711 -2.0739594
20.97044 -0.89142025 -2.0747302
20.988329 -0.38532165 -2.0749757
20.984589 0.62753356 -2.0751846
20.880371 2.1429071 -2.0747943
20.819405 2.6455901 -2.0744765
18.446415 5.6106834 -1.9058429
18.296387 6.0509629 -1.9048758
14.759589 6.5188379 -1.594898
13.845263 6.5185118 -1.5126513
12.270722 6.5179477 -1.3734127
10.9579 6.5169163 -1.2602284
10.379248 6.5167074 -1.2114091
9.3452244 6.5163317 -1.1261374
8.0365334 6.5158529 -1.0226772
7.6514063 6.5157113 -0.99338573
6.9427633 6.5154476 -0.94113553
6.5302048 6.4315085 -0.90598363
6.0061231 6.5151868 -0.87589836
5.7215233 6.515079 -0.8570739
5.1867771 6.5148778 -0.82313645
4.6917186 6.5146875 -0.79356545
4.4569921 6.5145969 -0.78022635
4.2298923 6.5145092 -0.76776737
4.0098143 6.5144224 -0.75613356
3.7962205 6.5143394 -0.74527609
3.38625 6.5141783 -0.72570324
2.9964159 6.5140233 -0.70874077
2.8080273 6.5139475 -0.7011565
2.4425879 6.5138011 -0.68764341
1.7485156 6.5135179 -0.66662985
1.5616894 6.4335971 -0.6544022
1.3973827 6.4295883 -0.65037614
1.2357422 6.4295225 -0.64716405
0.9292773 6.5171165 -0.65070617
0.76935548 6.5170484 -0.64865804
0.61035156 6.5169811 -0.64699614
0.4520703 6.5169139 -0.64571804
0.13693359 6.516777 -0.64429885
-0.17756836 6.5166407 -0.64438325
-0.33503905 6.516571 -0.64498723
-0.49289063 6.5165014 -0.64596951
-0.65128905 6.5164318 -0.64733231
-0.81048828 6.5163608 -0.64907813
-1.1319433 6.5162168 -0.65374708
-1.4587988 6.5160694 -0.66003156
-2.3112206 6.5156784 -0.68336731
-2.4897363 6.5155969 -0.68945885
-2.8569825 6.5154247 -0.70321846
-3.4385545 6.5151501 -0.72818542
-4.0110059 6.4262586 -0.74878728
-4.2329197 6.4309864 -0.76102155
-4.9949121 6.5095677 -0.8110429
-5.2491016 6.5094433 -0.82656896
-6.3764548 6.5088892 -0.90066725
-7.022656 6.5085678 -0.94644612
-7.3714647 6.5083957 -0.97200567
-7.7397852 6.5082102 -0.99957508
-8.1298828 6.5080161 -1.0293772
-8.5442286 6.5078073 -1.0616473
-9.3330469 6.4217296 -1.1198196
-9.9606447 6.5051975 -1.1759492
-10.505263 6.5049229 -1.2213628
-11.094091 6.5046239 -1.271201
-11.733408 6.5042992 -1.3260859
-12.43082 6.5039425 -1.3867674
-14.038867 6.5031199 -1.5293462
-15.591952 6.3280163 -1.6633072
-15.729912 5.9462037 -1.6622348
-15.859131 5.5616307 -1.6612239
-16.613829 4.5071778 -1.7015817
-17.687666 4.3432603 -1.8003062
-17.862196 3.4823401 -1.7988614
-17.934834 3.0493701 -1.7982426
-17.997675 2.6150255 -1.7976935
-18.164394 0.42988586 -1.7959961
-18.084745 -1.7590972 -1.7960544
-18.039288 -2.1951327 -1.7962769
-17.918955 -3.0637898 -1.7969329
-17.84412 -3.4959347 -1.797366
-17.665312 -4.3551731 -1.7984408
-17.561367 -4.7817497 -1.7990828
-17.324648 -5.6278167 -1.8005737
-16.943907 -5.9597187 -1.7754327
-15.560547 -6.3321137 -1.6605843
-15.089971 -7.4545841 -1.6636785
-14.916094 -7.8218737 -1.6648327
-14.876396 -10.794766 -1.8168277
-13.537031 -12.569358 -1.8259646
-13.244413 -12.906465 -1.8279727
-12.943887 -13.237089 -1.8300385
-12.319238 -13.878558 -1.8343431
-11.325703 -14.788257 -1.8412155
-10.627168 -15.357646 -1.8460639
-10.267461 -15.630705 -1.848565
-9.1487398 -16.401129 -1.8563625
-8.7631245 -16.641182 -1.859056
-7.9738669 -17.09511 -1.864578
-7.1619239 -17.513081 -1.87027
-6.7478123 -17.708233 -1.8731774
-5.9044137 -18.070107 -1.8791069
-5.0423727 -18.393116 -1.8851782
-4.16292 -18.676147 -1.8913832
-3.2681835 -18.918261 -1.8977065
-2.3599315 -19.118446 -1.9041361
-1.9010937 -19.200846 -1.9072168
-0.042363279 -19.348143 -1.9125026
2.2880957 -19.228771 -1.9141101
3.6923828 -19.115326 -1.9244115
4.1599903 -19.055077 -1.9278958
6.4817677 -18.5853 -1.9456135
8.3035154 -18.007074 -1.9600662
8.7516994 -17.834558 -1.9637015
9.1963282 -17.65093 -1.9673404
9.6372557 -17.456198 -1.9709824
10.07415 -17.250423 -1.9746249
11.775331 -16.318686 -1.9891502
12.187675 -16.058973 -1.9927599
12.594209 -15.788732 -1.9963564
12.994678 -15.508061 -1.9999368
7.0337987 -7.9943705 -1.0525403
14.156895 -14.604989 -2.0105605
14.530313 -14.28401 -2.014055
17.557655 -11.001016 -2.0480433
17.752354 -7.3147435 -1.8978856
18.110731 -6.4594207 -1.9006399
18.273418 -6.024642 -1.9019012
20.160801 -5.5844297 -2.0678649
20.300518 -5.0991812 -2.068974
20.542187 -4.1180487 -2.0709255
20.732832 -3.1248391 -2.0725162
20.808729 -2.624608 -2.0731738
20.871729 -2.1225171 -2.0737398
20.921612 -1.618764 -2.0742128
20.958427 -1.1137915 -2.0745928
20.98208 -0.60795468 -2.0748792
20.992588 -0.10162354 -2.0750721
20.989931 0.40476379 -2.075171
20.847813 2.4247265 -2.0746279
18.508759 5.4157834 -1.906242
18.207422 6.2957969 -1.9042983
18.039843 6.7293148 -1.9031986
16.267256 6.5193734 -1.732287
15.194316 6.5189939 -1.6343042
14.235546 6.518651 -1.5476485
12.591631 6.5180626 -1.4015124
11.72622 6.4334083 -1.3220793
10.074111 6.5165977 -1.1859668
9.5599508 6.5164099 -1.1436166
9.0809765 6.5162363 -1.1048077
8.6332808 6.5160718 -1.0691538
8.2132416 6.5159178 -1.0363069
7.818027 6.5157723 -1.005986
7.4450583 6.5156345 -0.97794169
6.6704297 6.431561 -0.91591442
6.3560252 6.4314427 -0.89379334
5.5673141 6.5150218 -0.8470872
5.0444336 6.514823 -0.81444281
4.7975292 6.5147276 -0.79972625
3.4745703 6.5142136 -0.72977334
3.2751758 6.5141344 -0.72070098
3.0805762 6.5140562 -0.71226102
2.7042284 6.513906 -0.69715524
2.1666503 6.513689 -0.67853743
1.9934765 6.5136194 -0.67332399
1.8228222 6.5135498 -0.66857433
1.654453 6.5134788 -0.66427612
1.4699023 6.433558 -0.65231794
1.1458789 6.4294834 -0.64554352
0.98648435 6.4294162 -0.642959
0.83956051 6.5170774 -0.6495105
0.68017578 6.5170093 -0.64767873
0.20613281 6.5168066 -0.64448225
0.048837889 6.5167394 -0.64417106
-0.10838867 6.5166712 -0.64423585
-0.26575196 6.5166016 -0.644674
-0.42338866 6.5165329 -0.64549053
-0.58153319 6.5164623 -0.64668596
-0.90007812 6.5163207 -0.65022719
-1.0608398 6.5162487 -0.65258348
-1.3863477 6.5161023 -0.65850675
-1.718623 6.5159521 -0.66610199
-2.5911326 6.5155492 -0.69309568
-2.7749512 6.5154624 -0.70000595
-3.154336 6.5152855 -0.71551657
-3.3506541 6.5151916 -0.72417474
-3.916914 6.4263034 -0.7439068
-4.1357908 6.4310327 -0.75578594
-9.8454981 -7.7564063 -1.5246294
-10.730859 -8.8816986 -1.694428
-10.522275 -9.1456642 -1.6958537
-10.95372 -10.489798 -1.8448684
-10.195273 -11.286299 -1.8500909
-9.9298534 -11.540368 -1.8519243
-8.8085642 -12.495659 -1.8596969
-8.5139456 -12.718525 -1.8617458
-8.2138577 -12.934692 -1.8638352
-7.9084568 -13.144067 -1.8659641
-7.5978904 -13.346498 -1.8681314
-7.2823238 -13.541874 -1.8703359
-6.6367188 -13.910878 -1.8748535
-5.9728122 -14.25007 -1.8795084
-5.6344237 -14.408195 -1.8818845
-4.2419434 -14.961557 -1.8916844
-3.8849609 -15.079573 -1.8942022
-3.1611912 -15.288357 -1.8990424
-1.2253906 -7.8092728 -0.96155745
-0.92988276 -15.70396 -1.913601
-0.55152345 -15.742878 -1.9161661
0.58955079 -15.774548 -1.920184
1.3471386 -15.698059 -1.9165581
2.4895701 -15.627136 -1.9248834
2.8700194 -15.585329 -1.9277029
4.3842478 -15.326871 -1.9391638
4.7597852 -15.239441 -1.9420664
5.1337204 -15.142881 -1.9449815
5.5057907 -15.037189 -1.9479071
5.8757911 -14.922407 -1.9508413
6.2434278 -14.798659 -1.953782
6.9708982 -14.524004 -1.9596782
7.3302636 -14.37324 -1.9626298
8.0390921 -14.04507 -1.968532
8.7331934 -13.681785 -1.9744201
10.392217 -12.623919 -1.9889853
10.70915 -12.387397 -1.9918569
11.326406 -11.890307 -1.9975442
11.626269 -11.629968 -2.0003562
12.488359 -10.80336 -2.0086424
12.762529 -10.513115 -2.0113487
12.473564 -8.8426085 -1.8598907
12.907969 -8.2450304 -1.8631272
13.502617 -7.3074608 -1.8675854
14.025331 -6.3252959 -1.8715413
14.182979 -5.9889641 -1.8727435
14.999853 -5.9117408 -1.9612037
16.334257 -3.8362012 -2.0409877
16.512011 -3.0460582 -2.042439
16.702421 -1.8455347 -2.0440762
16.745352 -1.4423627 -2.044476
16.777979 -1.0381732 -2.0448029
16.800196 -0.63321656 -2.0450554
16.813524 0.17785767 -2.0453391
16.8046 0.58340454 -2.0453699
16.755575 1.3931274 -2.0452089
16.715536 1.7967547 -2.0450172
16.665165 2.1991785 -2.0447519
16.604502 2.6001141 -2.0444126
16.361357 3.7913196 -2.0429561
14.509199 5.2688537 -1.8776901
14.223974 5.9565649 -1.8758163
13.903965 6.6279783 -1.8736373
12.864385 6.5178757 -1.7542378
11.971933 6.4332275 -1.653218
11.45585 6.5168357 -1.6032034
10.838467 6.5166245 -1.5383611
9.740859 6.5162449 -1.4255725
9.2497358 6.5160742 -1.3763068
8.791152 6.515914 -1.3310791
8.3615131 6.5157642 -1.2894554
7.5770116 6.5154858 -1.2155786
7.2171192 6.5153589 -1.182719
6.2167578 6.4876342 -1.0929965
5.6660938 6.5148888 -1.0502687
4.1853905 6.5143409 -0.94186872
3.96666 6.5142565 -0.92774647
3.3464842 6.5140195 -0.89081872
3.1502147 6.5139427 -0.88015717
2.9584765 6.5138693 -0.87024868
2.7708983 6.5137949 -0.86105508
2.4068651 6.5136509 -0.84468812
1.3650098 6.4294457 -0.79951465
1.2036816 6.4293785 -0.79566342
1.0438184 6.4293127 -0.79230726
0.89728516 6.5169725 -0.8002094
0.73757809 6.5169053 -0.79778218
0.57875001 6.5168381 -0.79583311
0.42057616 6.5167713 -0.79435474
0.1055664 6.5166345 -0.79279298
-0.05165039 6.5165672 -0.79270488
-0.36645508 6.516428 -0.79391623
-0.84231442 6.5162158 -0.79923218
-1.002666 6.5161448 -0.80195791
-1.3271484 6.5159984 -0.80888438
-1.4916992 6.5159225 -0.81310743
-1.8264941 6.5157676 -0.82313508
-1.9971973 6.5156894 -0.82897145
-2.3464844 6.5155258 -0.84238446
-2.7081347 6.5153561 -0.85826933
-2.8943262 6.5152659 -0.8672058
-3.0845702 6.5151758 -0.87684566
-3.4786131 6.5149865 -0.89838016
-4.0539646 6.4260874 -0.92422611
-4.3297362 6.5097351 -0.95100552
-4.7979879 6.5095043 -0.98367244
-5.0446973 6.5093808 -1.0017576
-5.3007908 6.5092525 -1.0211245
-5.5671582 6.5091195 -1.0418749
-5.8447165 6.5089779 -1.0641179
-6.4378905 6.508678 -1.1135954
-7.090488 6.5083447 -1.1707528
-7.8154979 6.5079722 -1.2371337
-8.6296577 6.5075512 -1.3147361
-10.065527 6.5049081 -1.457814
-11.216825 6.5043039 -1.5772307
-12.167509 6.6686411 -1.6877939
-12.31664 6.3689413 -1.6866707
-12.458681 6.0660715 -1.6855873
-12.593672 5.7602296 -1.6845536
-12.721514 5.4515719 -1.6835703
-12.955664 4.8264475 -1.6817552
-13.111494 4.5274119 -1.6873111
-14.115869 4.4961462 -1.8020784
