# .PCD v0.7 - Point Cloud Data file format
VERSION 0.7
FIELDS x y z
SIZE 4 4 4
TYPE F F F
COUNT 1 1 1
WIDTH 1500
HEIGHT 1
VIEWPOINT 0 0 0 1 0 0 0
POINTS 1500
DATA ascii
10.311298 1.8126532 -1.9983635
10.263124 2.0606499 -1.9980816
10.208731 2.3073003 -1.997756
10.081582 2.7960315 -1.9969739
9.8455467 3.5152862 -1.9954782
9.0963669 4.5475678 -1.9411722
8.5989552 4.561491 -1.8579835
8.2526464 4.901978 -1.8321735
7.9991503 5.2895122 -1.8304776
7.5839939 5.8453021 -1.8276819
7.285078 6.1975126 -1.8256576
7.1292868 6.3678069 -1.8245996
6.9693942 6.5340667 -1.8235117
6.6380563 6.8544292 -1.8213165
6.0124903 6.5160637 -1.6923404
5.7275782 6.5159736 -1.6559329
5.4544921 6.5158854 -1.6219777
4.9399118 6.5157185 -1.5607232
4.6966696 6.5156379 -1.5331053
4.2344236 6.5154839 -1.4832158
4.0141501 6.5154095 -1.4607173
3.5924609 6.515264 -1.4201264
3.3900487 6.5151944 -1.4018674
3.1926661 6.5151238 -1.384868
2.9999022 6.5150542 -1.3690643
2.4142382 6.4310651 -1.3111782
2.0930469 6.5148125 -1.3061191
1.9208887 6.5147476 -1.2964337
1.7511816 6.5146832 -1.2876348
1.5836426 6.5146184 -1.2796943
1.4180664 6.5145526 -1.2725869
1.2542285 6.5144892 -1.2662914
0.77099609 6.5142951 -1.2520969
0.45375976 6.5141644 -1.2464063
-0.49104491 6.5137591 -1.2468433
-0.80859375 6.5136199 -1.2528324
-0.96869141 6.5135465 -1.2569499
-1.1299413 6.5134745 -1.2618304
-1.2925586 6.5133991 -1.2674906
-1.4567089 6.5133233 -1.2739468
-1.622666 6.5132465 -1.2812196
-1.9608105 6.5130863 -1.2983049
-2.1334667 6.5130048 -1.3081716
-2.8177733 6.4288945 -1.339811
-3.0456738 6.5164995 -1.3729893
-3.2394629 6.5164018 -1.3890388
-3.4379296 6.5163016 -1.4062958
-3.6415331 6.5161991 -1.4248284
-3.8506835 6.5160928 -1.4447051
-4.2876563 6.5158682 -1.4888369
-4.9984469 6.5154948 -1.5674638
-5.2528515 6.5153604 -1.5974652
-6.0294333 6.7810955 -1.7320178
-6.4913769 6.3147879 -1.7286162
-7.0529199 5.6463113 -1.724504
-7.1831346 5.4714398 -1.7235458
-7.3091016 5.2936773 -1.722617
-7.6612401 4.7439322 -1.7200079
-7.7698045 4.5555596 -1.7191991
-8.6194916 4.5096979 -1.8568456
-8.7620506 4.3182559 -1.8645562
-8.8601656 4.1039386 -1.8638151
-8.9532127 3.8874907 -1.8631091
-9.041172 3.6689994 -1.8624384
-9.1239452 3.4486113 -1.8618039
-9.2015429 3.2264025 -1.8612056
-9.4028511 2.5502448 -1.8596298
-9.4593744 2.3220458 -1.8591784
-9.510498 2.0926702 -1.8587648
-9.5966988 1.6307794 -1.8580498
-9.6317091 1.3985052 -1.857749
-9.6612692 1.1655158 -1.8574865
-9.68542 0.93195921 -1.857262
-9.7041016 0.69790649 -1.8570759
-9.7173529 0.46352294 -1.8569279
-9.7016211 -0.70942563 -1.8567657
-9.6821089 -0.94334227 -1.8568488
-9.6571875 -1.1767755 -1.8569702
-9.6267967 -1.4095647 -1.8571301
-9.503252 -2.1030071 -1.8578391
-9.4513283 -2.332103 -1.8581518
-9.3940821 -2.5599453 -1.858502
-9.2637014 -3.0114925 -1.8593154
-9.1906347 -3.2349563 -1.8597784
-9.1123438 -3.4566917 -1.8602785
-9.0288963 -3.6766288 -1.8608153
-8.9403028 -3.8946092 -1.8613888
-8.7478905 -4.3243074 -1.8626443
-8.6441498 -4.5357928 -1.8633261
-8.5354977 -4.7448721 -1.8640431
-8.0523138 -5.5549803 -1.8672589
-6.7625389 -5.9858117 -1.7238427
-6.4732614 -6.3122783 -1.7258048
-6.1685839 -6.6251712 -1.7278787
-6.0106835 -6.7763128 -1.7289562
-5.8491602 -6.9237847 -1.7300601
-5.684082 -7.0675225 -1.7311895
-5.5155663 -7.207428 -1.7323445
-5.3437009 -7.3434038 -1.7335237
-4.9902148 -7.6032896 -1.7359539
-4.8087401 -7.7270575 -1.737204
-4.6242576 -7.8465786 -1.7384759
-4.2466893 -8.0726166 -1.7410836
-3.8582518 -8.2808714 -1.7437719
-3.6601758 -8.3781605 -1.745145
-3.0519531 -8.6418238 -1.7493691
-2.6358299 -8.7935305 -1.7522659
-2.4249315 -8.8620014 -1.7537359
-1.7821192 -9.0372581 -1.7582242
-1.5648828 -9.0854702 -1.7597438
-1.1267383 -9.1663504 -1.7628121
-0.90599608 -9.1989346 -1.7643597
-0.68439454 -9.2262421 -1.7659149
-0.46196288 -9.2482443 -1.767477
0.20882812 -9.2821484 -1.7721956
0.88193357 -9.2674904 -1.7769415
1.7773144 -9.1719236 -1.7832726
2.2216504 -9.0915241 -1.7864221
2.4425488 -9.0432005 -1.7879897
2.6623437 -8.9894714 -1.789551
3.0982811 -8.8658962 -1.7926513
3.1028709 -7.6692429 -1.5791535
3.9516895 -8.5549688 -1.7987368
4.1604004 -8.4641466 -1.8002286
4.367002 -8.3681602 -1.8017067
4.5713673 -8.267065 -1.8031701
4.9728026 -8.0497303 -1.8060491
5.3637009 -7.812582 -1.8088586
5.7430468 -7.5561032 -1.8115911
5.9280372 -7.4207993 -1.8129263
6.2881932 -7.1363993 -1.8155301
6.8018064 -6.6765432 -1.8192559
6.965488 -6.51475 -1.8204471
7.2808785 -6.1789179 -1.8227475
7.4323535 -6.0050759 -1.8238549
7.7081442 -5.9262815 -1.8558856
8.5009174 -5.9058981 -1.9757808
8.6818256 -5.7260141 -1.9851277
8.9571381 -5.3059378 -1.9871652
9.552002 -4.1986084 -1.9916143
9.6542768 -3.968457 -1.9923886
9.8415432 -3.5005822 -1.993817
9.9263964 -3.2631543 -1.9944701
10.260556 -2.0473418 -1.9971075
10.309023 -1.7995379 -1.9975066
10.351289 -1.5505291 -1.9978625
10.387334 -1.3005248 -1.9981747
10.41707 -1.0496417 -1.9984425
10.457685 -0.54596496 -1.9988459
10.471191 0.21189941 -1.9991175
10.463047 0.4645105 -1.9991189
10.448574 0.71681029 -1.9990758
10.427783 0.96868587 -1.9989878
10.327676 1.719959 -1.9984573
10.229727 2.2155652 -1.9978824
10.107129 2.7054918 -1.9971328
9.9602051 3.1884766 -1.99621
9.8777924 3.4269633 -1.9956847
9.6952343 3.8972125 -1.994508
9.2932615 4.5420027 -1.974391
8.7792768 4.556468 -1.8880122
8.4154491 4.6287174 -1.8332571
7.7790036 5.5949616 -1.8289976
7.6377635 5.7780132 -1.828045
7.4920797 5.9574261 -1.8270602
7.1878319 6.3048124 -1.8249975
6.8668551 6.6361074 -1.8227664
6.7008786 6.7959623 -1.8217157
6.1219239 6.516098 -1.7065796
5.8322949 6.5160065 -1.6692004
5.5549512 6.5159173 -1.6343565
4.7862887 6.5156684 -1.5431756
4.095459 6.5154376 -1.4689214
3.2656446 6.5151505 -1.3910589
3.0712304 6.51508 -1.3748169
2.3037598 6.4310236 -1.3039105
2.1578612 6.5148368 -1.3099618
1.8141406 6.5147076 -1.2908114
1.4795507 6.5145769 -1.2751395
0.99075192 6.5143838 -1.2577335
0.83046871 6.514318 -1.2534869
0.35474607 6.5141215 -1.2452276
0.040009763 6.5139899 -1.2433836
-0.43217772 6.5137858 -1.2460539
-0.59033203 6.5137162 -1.248404
-0.908916 6.5135736 -1.2553266
-1.069707 6.5135016 -1.2599216
-1.3953613 6.5133514 -1.2714469
-1.5606054 6.5132742 -1.2784132
-2.2431836 6.5129523 -1.3148314
-2.5675097 6.4290166 -1.3213806
-2.9345605 6.4288373 -1.3489044
-3.1667285 6.5164385 -1.3829211
-3.3633983 6.5163383 -1.3997192
-4.4303904 6.5157938 -1.5039741
-4.6641212 6.5156717 -1.5294878
-4.906045 6.5155449 -1.5567971
-5.1569333 6.5154119 -1.5860465
-5.4175587 6.515274 -1.6173693
-6.4358201 6.3743997 -1.7290215
-6.5836425 6.2133732 -1.7279426
-7.0033593 5.7107034 -1.7248683
-7.1350975 5.5369549 -1.7238996
-7.6196485 4.8135052 -1.7203172
-7.7298923 4.6260319 -1.7194967
-8.4450197 4.5155854 -1.8279305
-8.7242088 4.397552 -1.8648415
-8.9191408 3.9684002 -1.863368
-9.1732321 3.3094084 -1.8614242
-9.4389162 2.4072301 -1.8593423
-9.5398731 1.9481976 -1.8585241
-9.6192865 1.4851489 -1.8578568
-9.6770411 1.0190637 -1.8573413
-9.7228708 0.31634766 -1.8568548
-9.7075195 -0.62214172 -1.8567445
-9.6387501 -1.3229095 -1.857066
-9.5658197 -1.7867767 -1.8574718
-9.5212498 -2.017345 -1.8577322
-9.4713373 -2.2468674 -1.8580307
-9.4160347 -2.4751811 -1.858367
-9.3554487 -2.7022147 -1.8587412
-9.2895803 -2.9278281 -1.8591528
-9.2184858 -3.1518753 -1.8596015
-9.1421089 -3.3742774 -1.8600879
-9.0605955 -3.5948868 -1.860611
-8.973896 -3.813621 -1.8611709
-8.8821192 -4.0303283 -1.8617671
-8.7852631 -4.2449217 -1.8623996
-8.6833982 -4.4572597 -1.8630679
-8.5765524 -4.6672583 -1.8637719
-8.226758 -5.28195 -1.8660934
-8.1005268 -5.4813938 -1.8669363
-7.9696679 -5.6779318 -1.8678128
-7.8341894 -5.8714285 -1.8687223
-7.5376368 -5.9385614 -1.8316506
-6.6734862 -6.0896325 -1.7244459
-6.5283298 -6.2524586 -1.7254308
-6.2264938 -6.5679431 -1.7274841
-6.0699315 -6.7204142 -1.7285516
-5.9097557 -6.8692698 -1.7296456
-5.7460155 -7.0144043 -1.7307657
-4.876699 -7.681426 -1.7367355
-4.507041 -7.919364 -1.7392846
-4.125947 -8.1398916 -1.7419186
-3.9313965 -8.2434559 -1.7432654
-3.332793 -8.5264692 -1.7474172
-3.1285839 -8.6114035 -1.7488363
-2.9223046 -8.6915102 -1.750271
-2.0779493 -8.9627266 -1.7561572
-1.8626758 -9.0179701 -1.7576611
-1.427959 -9.1130877 -1.7607019
-0.76703125 -9.2166891 -1.7653347
-0.3220996 -9.2593269 -1.7684599
-0.098603517 -9.2726345 -1.7700317
1.246914 -9.2391138 -1.7795198
1.4707714 -9.214529 -1.7811029
1.6942188 -9.1844959 -1.7826841
2.3603222 -9.0618458 -1.7874063
2.7996385 -8.9530172 -1.790527
3.0174217 -8.8905544 -1.7920761
3.2338476 -8.8227415 -1.7936167
4.4954686 -8.3053331 -1.8026265
4.6983495 -8.2010565 -1.8040801
4.8987989 -8.0917273 -1.805518
5.0966015 -7.9774437 -1.8069384
5.4839649 -7.7341971 -1.8097243
5.6732712 -7.6053324 -1.8110882
6.2221289 -7.1907525 -1.8150518
6.5709081 -6.8917975 -1.817579
6.7398338 -6.7357888 -1.8188055
7.0661521 -6.4111333 -1.8211803
7.5707712 -5.9297361 -1.8355763
9.2867966 -4.7335944 -1.9896213
9.4023924 -4.5101061 -1.9904876
10.051786 -2.8723433 -1.9954444
10.120908 -2.6296875 -1.9959881
10.183965 -2.3853214 -1.9964892
10.291689 -1.8920345 -1.997363
10.465234 -0.38760132 -1.9989361
10.472099 -0.13499145 -1.9990432
10.472627 0.1177246 -1.9991058
10.466836 0.37037474 -1.9991238
10.411513 1.1263757 -1.9989098
10.299609 1.8759357 -1.9982959
10.249853 2.1235857 -1.9980029
10.193915 2.3699231 -1.997666
10.063633 2.8577843 -1.9968617
9.9091988 3.3383477 -1.9958854
9.8230371 3.575479 -1.9953336
9.7310352 3.810313 -1.9947399
9.6331835 4.0427017 -1.9941046
8.4907618 4.5712066 -1.8406391
8.3421869 4.7543268 -1.83277
8.221426 4.9520488 -1.8319653
8.0958595 5.1466169 -1.8311257
7.9654784 5.3379374 -1.8302517
7.8305078 5.5258331 -1.8293444
7.5469041 5.8909855 -1.8274311
7.245791 6.2412601 -1.8253911
7.0889549 6.4105315 -1.8243253
6.7631836 6.7368913 -1.8221107
6.2332129 6.5161319 -1.7212002
5.6569238 6.5159512 -1.6470555
5.1270895 6.5157795 -1.582572
4.8771482 6.5156989 -1.5535107
3.9591112 6.5153899 -1.4552313
3.7468262 6.5153179 -1.4345955
3.1431639 6.5151081 -1.380734
2.7284667 6.4311795 -1.3334619
2.5470996 6.4311123 -1.3203164
2.2230859 6.5148625 -1.3139334
-0.21585937 6.5138788 -1.2440218
-0.37336913 6.5138116 -1.2453665
-0.53133786 6.513742 -1.2474422
-0.68989259 6.5136709 -1.2502533
-1.1712402 6.513454 -1.2631979
-1.6652637 6.5132256 -1.283205
-2.0045409 6.5130658 -1.3007324
-2.3358788 6.4626007 -1.3116539
-2.5008495 6.4293232 -1.3167704
-2.865 6.4288702 -1.3434519
-3.2895606 6.5163774 -1.3933182
-4.3452439 6.5158377 -1.4949031
-5.3192282 6.5153251 -1.6054437
-5.9096971 6.8920975 -1.7329432
-6.0699315 6.7426763 -1.7317041
-6.5290332 6.2737589 -1.7283415
-6.6743946 6.1106424 -1.7272793
-6.8158102 5.9442582 -1.7262442
-7.086494 5.6020379 -1.7242571
-7.2156153 5.4264326 -1.7233065
-7.3405175 5.247951 -1.722385
-7.4611425 5.0666509 -1.7214929
-7.6893163 4.6961784 -1.719799
-8.2758398 4.5212688 -1.8000387
-8.7875195 4.2638788 -1.8643641
-8.8843555 4.0490189 -1.8636318
-8.9761324 3.832011 -1.8629345
-9.0627537 3.613034 -1.8622732
-9.2204885 3.1695185 -1.8610587
-9.357275 2.7194531 -1.8599902
-9.4177341 2.4922473 -1.8595113
-9.5670996 1.8033295 -1.8582987
-9.6061134 1.5716894 -1.8579696
-9.6397362 1.3392053 -1.8576788
-9.6906834 0.87238526 -1.857211
-9.7198439 0.40375853 -1.8568965
-9.7262497 0.1691101 -1.8567969
-9.7271576 -0.065609127 -1.8567358
-9.7126465 -0.53483456 -1.8567288
-9.697197 -0.76904601 -1.8567832
-9.6762981 -1.0028491 -1.8568759
-9.6499701 -1.2361523 -1.8570071
-9.6181927 -1.4687688 -1.8571768
-9.5810347 -1.7005993 -1.8573846
-9.4905567 -2.161489 -1.857915
-9.2455759 -3.0685811 -1.8594298
-9.1711817 -3.2916064 -1.8599023
-9.0915718 -3.5128889 -1.8604116
-9.0067968 -3.7323568 -1.8609579
-8.8219433 -4.1652093 -1.8621595
-8.5070114 -4.7977476 -1.8642313
-8.3921967 -5.003653 -1.8649925
-8.2725582 -5.2069049 -1.8657882
-8.1481152 -5.4074278 -1.8666183
-7.6744823 -5.9352727 -1.8518536
-6.9729295 -5.9518628 -1.7498991
-6.7265821 -6.0281186 -1.7240863
-6.582871 -6.1921825 -1.7250606
-6.4352832 -6.3529072 -1.726063
-6.2838964 -6.51021 -1.7270932
-5.2993751 -7.3774071 -1.7338281
-5.1234083 -7.5083642 -1.7350374
-4.761992 -7.7579198 -1.7375261
-4.3887205 -7.9904308 -1.7401019
-3.8080175 -8.3060904 -1.7441201
-3.6093359 -8.4021873 -1.7454977
-2.7918358 -8.7392855 -1.7511793
-1.9431152 -8.997983 -1.7570993
-1.7269043 -9.0500336 -1.7586105
-0.84960938 -9.2063923 -1.7647554
-0.18199219 -9.2683029 -1.7694448
0.04178711 -9.2782354 -1.7710196
0.4903613 -9.2819481 -1.7741793
0.71470702 -9.2756844 -1.7757614
1.1633984 -9.2468824 -1.7789297
1.6110644 -9.1963196 -1.7820956
2.7181444 -8.9749269 -1.7899476
3.1533983 -8.8486261 -1.7930437
3.1735938 -7.7074156 -1.5910008
4.0050683 -8.532321 -1.7991183
4.2132616 -8.4401817 -1.8006066
4.6230369 -8.2404976 -1.8035405
5.0232029 -8.0206041 -1.8064111
5.7904782 -7.5220847 -1.8119333
6.1555467 -7.2445059 -1.8145703
6.3330564 -7.0988693 -1.8158549
6.5070114 -6.9488211 -1.8171154
6.6773338 -6.7944131 -1.8183515
7.0065722 -6.4728632 -1.8207461
7.1652536 -6.3059254 -1.821903
7.3198533 -6.1350031 -1.8230321
7.470283 -5.9601722 -1.8241329
7.8038278 -5.9238615 -1.8701184
8.718008 -5.6732821 -1.9853948
8.8569136 -5.4641137 -1.9864221
8.9907227 -5.2514386 -1.9874145
9.1191702 -5.0354013 -1.9883698
9.3599701 -4.5937238 -1.9901693
9.5786133 -4.140214 -1.9918154
9.7744818 -3.6760485 -1.9933035
9.8637209 -3.4403219 -1.9939874
9.9470797 -3.2023189 -1.99463
10.09584 -2.7203064 -1.9957904
10.22042 -2.2311614 -1.9967818
10.273496 -1.9843447 -1.9972134
10.3204 -1.7362188 -1.9976016
10.361054 -1.486958 -1.9979461
10.461044 -0.48166198 -1.9988847
10.469746 0.27625549 -1.9991223
-8.6921387 0.31155151 -1.8641164
-8.6967182 0.10171875 -1.8640352
-8.6912403 -0.31795898 -1.8639761
-8.6214943 -1.1542901 -1.8642728
-8.5181055 -1.7754309 -1.8648568
-8.4250679 -2.1849706 -1.865417
-8.3713675 -2.3880506 -1.8657479
-8.1819429 -2.9892163 -1.8669428
-8.1094532 -3.1865604 -1.8674074
-8.0323439 -3.3822067 -1.8679054
-7.6784863 -4.1457286 -1.8702209
-7.5789161 -4.3313284 -1.8708793
-7.4749312 -4.5146003 -1.8715693
-7.3666501 -4.6954551 -1.8722901
-7.2541404 -4.8737931 -1.8730414
-7.1373925 -5.0495191 -1.873823
-7.0165038 -5.2225266 -1.8746346
-6.7625585 -5.5600262 -1.8763455
-6.492744 -5.8855247 -1.8781707
-5.677197 -5.9490752 -1.7624365
-5.440156 -5.9832673 -1.7331606
-5.2971482 -6.1162362 -1.7341374
-5.1510057 -6.2458696 -1.735137
-4.849453 -6.4948373 -1.7372036
-4.5360937 -6.729558 -1.739357
-4.3751559 -6.8414068 -1.7404649
-4.2115235 -6.9494791 -1.7415926
-3.8764942 -7.1540604 -1.7439058
-3.7052636 -7.250443 -1.7450899
-3.5316503 -7.3427887 -1.7462915
-3.3558202 -7.4310436 -1.7475101
-3.1777735 -7.515162 -1.7487447
-2.9976366 -7.5950799 -1.7499954
-2.2583301 -7.8716984 -1.7551403
-2.0692773 -7.929852 -1.7564588
-1.6868457 -8.0326471 -1.7591293
-0.7105273 -8.2090731 -1.7659675
-0.31414062 -8.2467747 -1.7687516
-0.11515625 -8.2584858 -1.770151
0.084218748 -8.2654047 -1.7715542
0.28385741 -8.2675247 -1.7729603
0.88321286 -8.2449589 -1.7771887
1.0827637 -8.227767 -1.7785985
2.269248 -8.0231972 -1.7870061
2.4640918 -7.9722815 -1.7883908
2.8502049 -7.856173 -1.7911384
3.2307811 -7.7211928 -1.7938513
3.4187012 -7.6467023 -1.7951928
3.6048925 -7.5675955 -1.7965231
3.7892284 -7.4838939 -1.7978414
4.5056834 -7.1041088 -1.802978
4.6790037 -6.9981499 -1.8042239
5.1833787 -6.6547618 -1.8078576
5.3459177 -6.5319896 -1.8090314
5.661953 -6.2743974 -1.8113183
5.8152637 -6.139719 -1.8124298
5.9653025 -6.0012155 -1.8135191
6.1863866 -5.9303021 -1.8366761
6.7978125 -5.9142485 -1.9311428
7.2357225 -5.7059569 -1.9749432
7.3750587 -5.5325689 -1.9759653
7.5101852 -5.3556895 -1.9769586
7.6409764 -5.1754441 -1.977922
7.7672753 -4.9919224 -1.9788547
7.8890524 -4.8052311 -1.9797561
8.2263966 -4.2273765 -1.9822674
8.3292475 -4.029212 -1.9830383
8.6079779 -3.4198272 -1.985144
8.6907415 -3.212153 -1.9857756
8.8407421 -2.7907577 -1.9869305
8.9696484 -2.3621924 -1.9879385
9.1973438 -1.2665673 -1.9897979
9.2499609 -0.82156795 -1.9902722
9.2583885 0.745368 -1.9906963
9.210556 1.1910278 -1.9904629
9.1405859 1.6336768 -1.9900731
8.9945116 2.2895372 -1.9891964
8.9349995 2.5054357 -1.9888275
8.8701267 2.7197406 -1.98842
8.7999411 2.9323206 -1.9879751
8.6438665 3.3517597 -1.986973
8.5580959 3.5583539 -1.9864169
8.3713083 3.9646513 -1.9851953
7.1003613 4.7242727 -1.8278277
6.4510059 5.519671 -1.8196231
6.0252633 5.9623175 -1.8167263
5.7241111 6.2389822 -1.8146687
5.5686426 6.3715482 -1.8136041
5.2482419 6.6245489 -1.8113545
4.9166598 6.8618326 -1.8091944
3.9885254 6.5152469 -1.6372348
3.5682421 6.5151052 -1.592033
3.1696386 6.5149689 -1.552778
2.977412 6.5149016 -1.535187
2.7535155 6.4311371 -1.4993502
2.0725684 6.5146661 -1.4651856
1.9007226 6.5146012 -1.4544299
1.3986425 6.514411 -1.4279916
1.235 6.5143461 -1.4210293
1.0728515 6.5142827 -1.4149548
0.91198242 6.5142179 -1.4097476
0.59332031 6.5140886 -1.4018847
0.12011719 6.5138907 -1.3963007
-0.35179687 6.5136871 -1.3980533
-0.50966793 6.5136185 -1.4002713
-0.8273828 6.5134768 -1.4071913
-1.1490136 6.5133305 -1.4174973
-1.3117969 6.5132546 -1.4239572
-1.4761523 6.5131793 -1.4313128
-1.6423242 6.5131011 -1.4395864
-1.9809765 6.5129385 -1.458999
-2.153955 6.5128555 -1.470198
-2.3297167 6.5127702 -1.4824401
-2.839541 6.4287419 -1.5062312
-3.0682225 6.5163407 -1.5436577
-3.8756444 6.5159259 -1.624859
-4.3275585 6.8915973 -1.744089
-4.4894333 6.7804132 -1.7428668
-4.6485643 6.6655817 -1.7416825
-4.8049412 6.5472293 -1.7405531
-4.9583497 6.4252872 -1.7394437
-5.1087303 6.2998261 -1.738355
-5.6785545 5.7643814 -1.7342154
-6.0705857 5.3297195 -1.7313519
-6.1941991 5.1789789 -1.730446
-6.4303613 4.8692255 -1.7287097
-6.6547461 4.5512505 -1.7279199
-6.9768848 4.5284123 -1.7826632
-7.338779 4.5154386 -1.8467474
-7.6527147 4.213737 -1.8723483
-7.8411617 3.836729 -1.8709327
-7.9286423 3.6451252 -1.8702717
-8.1636915 3.0591455 -1.8684793
-8.2328024 2.8604596 -1.867946
-8.4118166 2.2557812 -1.8665441
-8.4619722 2.0517163 -1.8661431
-8.5073538 1.8465723 -1.8657755
-8.5478907 1.6404656 -1.8654418
-8.6778126 0.59929991 -1.8642843
-8.6955957 0.17991577 -1.8640614
-8.6722946 -0.65895748 -1.8640302
-8.631299 -1.0766888 -1.8642218
-8.5708103 -1.4921148 -1.8645513
-8.5332909 -1.698681 -1.8647674
-8.4909763 -1.9043444 -1.865018
-8.2738571 -2.7157662 -1.8663589
-7.9816403 -3.5040381 -1.8682342
-7.8970895 -3.6966999 -1.8687854
-7.8080173 -3.8873847 -1.8693684
-7.7144823 -4.0759997 -1.8699834
-7.6165233 -4.2624283 -1.8706305
-7.5141797 -4.4465818 -1.8713086
-7.2965527 -4.8076358 -1.872758
-7.0620213 -5.1583867 -1.8743289
-6.8110838 -5.4980268 -1.8760179
-6.6795897 -5.6634583 -1.8769058
-6.544209 -5.8258271 -1.8778219
-6.3490133 -5.9328051 -1.8623693
-5.777998 -5.9466972 -1.7770519
-5.3508005 -6.0670762 -1.7337707
-5.2058496 -6.1979618 -1.7347616
-5.0577245 -6.3254666 -1.7357757
-4.9065428 -6.4495063 -1.7368121
-4.7523828 -6.5700231 -1.7378701
-4.4354396 -6.8001666 -1.7400497
-4.2728224 -6.909656 -1.7411702
-4.1075392 -7.0153351 -1.7423102
-3.7693455 -7.2149954 -1.7446464
-3.5966113 -7.3088479 -1.7458416
-3.4215918 -7.3986387 -1.747054
-3.0650096 -7.5657964 -1.7495276
-2.8836327 -7.6430449 -1.7507876
-2.7003417 -7.716013 -1.7520621
-2.5152245 -7.7846465 -1.7533505
-2.3283789 -7.8488979 -1.754652
-1.9499218 -7.9640493 -1.7572917
-1.7585351 -8.0148716 -1.7586285
-1.5658203 -8.0611372 -1.7599756
-1.176914 -8.1398649 -1.7626975
-0.98093748 -8.1722603 -1.7640709
-0.18935546 -8.2546816 -1.7696291
0.20944336 -8.2673006 -1.772436
0.60903317 -8.2606745 -1.7752531
1.0084473 -8.2347336 -1.7780734
1.2078027 -8.214509 -1.7794828
1.6052442 -8.1595554 -1.7822958
1.8030566 -8.124836 -1.783698
2.7786522 -7.8792462 -1.7906289
2.9702148 -7.8158512 -1.7919935
3.3488965 -7.675004 -1.7946943
3.5357225 -7.597611 -1.7960289
3.720742 -7.5156107 -1.7973516
5.6040235 -6.3235826 -1.8108985
5.7585254 -6.1903558 -1.8120183
6.0788574 -5.9330478 -1.8205235
6.3717284 -5.9255114 -1.8648574
6.6791892 -5.917418 -1.9124877
7.0027828 -5.9087138 -1.9637315
7.1826954 -5.7696524 -1.9745544
7.5927539 -5.2429981 -1.9775665
7.7207518 -5.0606856 -1.9785107
7.8442087 -4.8751655 -1.9794238
8.0773439 -4.4949646 -1.9811549
8.3912592 -3.9035726 -1.9835044
8.6605177 -3.289783 -1.9855444
8.7400484 -3.080801 -1.9861535
8.814394 -2.8698449 -1.9867263
8.8834572 -2.6570411 -1.9872627
8.9472561 -2.4425256 -1.9877621
9.0587006 -2.0089242 -1.9886483
9.2418356 -0.9046759 -1.9901956
9.2618551 -0.68148255 -1.9903886
9.2763186 -0.4578363 -1.9905425
9.2783203 0.43835753 -1.9907653
9.2648335 0.66210204 -1.9907223
9.0153217 2.2087121 -1.9893243
8.8948927 2.6400805 -1.9885763
8.8267088 2.8533177 -1.9881454
8.753232 3.0647435 -1.9876769
8.5906343 3.4816253 -1.9866284
8.4076166 3.8896892 -1.9854336
8.3085842 4.0900846 -1.9847826
8.2046385 4.28789 -1.9840962
7.3683591 4.5579705 -1.8569299
7.1283593 4.6509724 -1.8241934
6.7641797 5.1474628 -1.8217428
6.5015817 5.4624677 -1.8199661
6.3646579 5.6148868 -1.8190368
6.0798731 5.9091067 -1.8170986
5.7812109 6.1885881 -1.8150594
5.4694724 6.4526935 -1.8129241
4.9792967 6.8188934 -1.8096038
4.5207028 6.515419 -1.6996042
4.291533 6.5153446 -1.6720773
4.069531 6.5152726 -1.6463711
3.6447852 6.515131 -1.5999819
3.441035 6.5150628 -1.5791098
3.2424219 6.5149932 -1.5596702
2.638994 6.4310074 -1.4898338
2.4593945 6.430943 -1.4756378
2.283076 6.4308767 -1.4625549
2.1372657 6.514689 -1.4694542
1.7941504 6.5145621 -1.4481899
1.626084 6.5144987 -1.4390316
1.460039 6.5144339 -1.4308169
1.295791 6.5143704 -1.4235185
0.9717871 6.5142412 -1.4115875
0.81162107 6.5141778 -1.4069195
0.65243161 6.5141144 -1.4030955
0.49400389 6.5140481 -1.400105
0.1787207 6.5139151 -1.3965937
-0.45078123 6.5136456 -1.3993492
-0.60901368 6.5135746 -1.4020834
-0.76793945 6.513504 -1.405648
-0.92778319 6.5134306 -1.4100535
-1.0887305 6.5133586 -1.4153149
-1.2509766 6.5132828 -1.4214462
-1.4147167 6.5132074 -1.4284652
-1.5801758 6.5131292 -1.4363945
-1.7475976 6.5130496 -1.4452587
-1.9171875 6.5129704 -1.4550844
-2.4116015 6.4328938 -1.4724023
-2.9566209 6.4286809 -1.5165327
-4.0103712 6.5158548 -1.6397955
-4.7470212 6.5917544 -1.7409717
-4.9015331 6.471138 -1.7398547
-5.2015233 6.219357 -1.7376825
-5.4889059 5.9540129 -1.7355958
-5.6277146 5.8164496 -1.7345856
-5.8951073 5.53195 -1.7326355
-6.611455 4.6094451 -1.7273734
-7.2009473 4.520401 -1.8222206
-7.7137399 4.0963993 -1.871891
-7.8965816 3.7167473 -1.8705145
-7.9812207 3.5239203 -1.869873
-8.0613089 3.3292205 -1.8692635
-8.2076073 2.9346728 -1.8681408
-8.2737303 2.735028 -1.8676285
-8.3351955 2.5339422 -1.8671488
-8.4438381 2.1278856 -1.8662884
-8.4910059 1.9231329 -1.8659085
-8.6035347 1.3032751 -1.8649713
-8.6313572 1.0951538 -1.8647268
-8.6542969 0.88646668 -1.8645167
-8.6723337 0.67731625 -1.8643411
-8.6854982 0.46782592 -1.8641995
-8.6937599 0.25810486 -1.8640924
-8.6891308 -0.37138245 -1.8639785
-8.6777925 -0.58094662 -1.8640096
-8.6615524 -0.79019165 -1.8640754
-8.6404104 -0.99900997 -1.8641757
-8.5835638 -1.4149297 -1.8644793
-8.2329588 -2.8411057 -1.8666177
-8.1639252 -3.039645 -1.867058
-8.0902443 -3.2365694 -1.8675314
-7.929121 -3.6251369 -1.8685763
-7.5528221 -4.3782339 -1.8710521
-7.4477634 -4.5609088 -1.87175
-7.1069822 -5.0938549 -1.874027
-6.9850388 -5.2661581 -1.8748461
-6.4572654 -5.9260883 -1.8784112
-5.8804588 -5.9442554 -1.7920507
-5.4040332 -6.0174522 -1.7334073
-5.2602243 -6.1495786 -1.7343897
-4.9632325 -6.4036965 -1.7364233
-4.8101563 -6.5255356 -1.7374734
-4.3337402 -6.8693018 -1.7407502
-4.1694236 -6.9764075 -1.7418832
-4.0025392 -7.0796618 -1.743035
-3.8331053 -7.1789975 -1.7442056
-3.3106639 -7.4528723 -1.7478231
-3.1320801 -7.5359192 -1.7490622
-2.9514453 -7.6147594 -1.7503164
-2.584414 -7.7595806 -1.7528688
-2.3981934 -7.82547 -1.7541656
-2.0208886 -7.9439507 -1.7567965
-1.8300097 -7.99646 -1.7581292
-1.4442968 -8.0878267 -1.7608256
-1.249707 -8.1265993 -1.7621876
0.33473632 -8.2672911 -1.7733189
0.93407226 -8.2410326 -1.7775478
1.5313574 -8.171258 -1.7817726
2.5135448 -7.9585495 -1.7887427
3.0263379 -7.614387 -1.7561071
3.4662988 -7.6269927 -1.7955329
3.8358691 -7.4618454 -1.7981753
4.0176854 -7.3724451 -1.7994769
4.3749218 -7.1802425 -1.8020388
4.5500779 -7.0775256 -1.803297
5.3868361 -6.5000701 -1.8093274
6.0029197 -5.9653349 -1.8137927
6.8802242 -5.9120321 -1.9441928
7.2716112 -5.6621237 -1.9752061
7.4099121 -5.4878464 -1.9762211
7.5439353 -5.3100944 -1.9772067
7.6735644 -5.1290083 -1.9781623
7.7987399 -4.9446597 -1.9790872
7.9193554 -4.7571836 -1.9799807
8.4513178 -3.7769601 -1.9839572
8.7110252 -3.1589088 -1.9859308
8.7873049 -2.9486835 -1.9865172
8.8583593 -2.7365463 -1.9870672
8.9240913 -2.522666 -1.9875802
8.9845209 -2.3071425 -1.9880563
9.1333885 -1.6522284 -1.9892575
9.2550583 -0.76470822 -1.9903213
9.287734 0.13084534 -1.99076
9.2705173 0.57876462 -1.9907429
9.2535353 0.80224854 -1.9906753
9.2028809 1.2476032 -1.990422
9.1692476 1.469151 -1.9902368
9.1300974 1.6897888 -1.9900122
9.0854683 1.9093353 -1.9897488
9.0353804 2.1276886 -1.9894466
8.8527536 2.7740564 -1.9883105
8.7044725 3.1963947 -1.9873638
8.62251 3.4045978 -1.9868346
8.4432516 3.814373 -1.9856672
8.2439451 4.2144842 -1.984356
7.5115333 4.5536418 -1.8826071
7.1710057 4.5873957 -1.8244792
6.9353318 4.9237356 -1.822897
6.6834764 5.2476959 -1.8211977
6.4161325 5.5584893 -1.8193862
5.9876466 5.9983892 -1.8164697
5.5285153 6.4046869 -1.8133291
5.041543 6.7753606 -1.8100101
4.1514454 6.5152993 -1.655744
3.9336717 6.5152264 -1.6311243
3.7221191 6.5151567 -1.608145
3.5163574 6.5150886 -1.5867175
3.3158691 6.5150189 -1.5667521
3.1202538 6.5149517 -1.548172
2.8914745 6.4311857 -1.5112422
2.0285547 6.5146503 -1.4623495
1.1935546 6.5143304 -1.4193983
0.87118161 6.5142007 -1.4085598
0.71166015 6.5141363 -1.4044219
0.39492187 6.5140066 -1.3986511
0.23734374 6.5139408 -1.3969998
0.080068357 6.5138736 -1.3961648
-1.3534961 6.5132351 -1.4257447
-1.5183105 6.5131583 -1.4333313
-2.0247948 6.512918 -1.4617547
-2.1984766 6.5128336 -1.4732168
-2.3458593 6.4329252 -1.4675218
-2.5217676 6.4288993 -1.4800568
-2.8868945 6.4287176 -1.5103561
-3.3127637 6.5162177 -1.5666794
-3.7186913 6.5160074 -1.6079397
-3.9300389 6.5158963 -1.6308435
-4.3690429 6.8636355 -1.7437762
-4.6886621 6.6357803 -1.7413931
-4.9969335 6.3936591 -1.7391646
-5.1465721 6.2673149 -1.7380807
-5.2930369 6.1375589 -1.7370186
-5.5763865 5.8680801 -1.7349594
-5.7130466 5.7285309 -1.7339638
-5.8463473 5.5858784 -1.7329916
-5.9761424 5.4402094 -1.7320431
-6.1024218 5.2915874 -1.7311187
-6.3440919 4.9859052 -1.7293447
-6.4593649 4.8290081 -1.7284961
-6.5708885 4.6695218 -1.7276732
-6.7258396 4.5394425 -1.7390997
-7.066709 4.5252118 -1.7984701
-7.5779686 4.3519745 -1.872907
-7.6777048 4.1661882 -1.872161
-7.773037 3.978205 -1.8714455
-7.8638768 3.7880962 -1.8707614
-7.9502149 3.5959966 -1.8701082
-8.032012 3.4019792 -1.8694869
-8.1091986 3.2061822 -1.8688973
-8.3713284 2.4071088 -1.8668646
-8.4250488 2.2039025 -1.8664385
-8.4739943 1.9995587 -1.8660463
-8.518115 1.7941552 -1.8656875
-8.5574512 1.5878088 -1.8653622
-8.5919428 1.3806585 -1.8650711
-8.666172 0.7552948 -1.8644024
-8.6811714 0.54592896 -1.864248
-8.6964455 0.12646484 -1.8640429
-8.6967287 -0.083417967 -1.863992
-8.6825781 -0.50288939 -1.8639941
-8.6488571 -0.92125607 -1.8641343
-8.5956049 -1.3376422 -1.8644125
-8.4310646 -2.1609502 -1.8653802
-8.3200684 -2.5661297 -1.8660681
-8.1182518 -3.163389 -1.8673511
-7.9605174 -3.5533004 -1.8683717
-7.7846093 -3.9356351 -1.8695221
-7.6899314 -4.1237092 -1.8701456
-7.3796482 -4.6742663 -1.8722036
-7.2676072 -4.8529129 -1.8729513
-6.9064646 -5.3728113 -1.875375
-6.7779684 -5.5404649 -1.8762414
-6.6454687 -5.7051105 -1.8771365
-6.5090623 -5.8666887 -1.87806
-5.4567871 -5.9673767 -1.7330471
-5.1683788 -6.2307677 -1.735018
-5.0194726 -6.357399 -1.7360379
-4.8675489 -6.4805431 -1.7370794
-4.230957 -6.936934 -1.7414587
-3.0189843 -7.5858774 -1.7498471
-1.9013085 -7.977428 -1.7576312
-1.709541 -8.0270948 -1.7589707
-1.5165331 -8.0721893 -1.7603204
-0.93084961 -8.1797562 -1.7644219
-0.33754882 -8.2450857 -1.7685874
0.46010742 -8.2654028 -1.7742027
1.2585351 -8.2085876 -1.7798415
2.0502441 -8.0744543 -1.7854512
2.2462206 -8.0288801 -1.7868426
2.4411719 -7.9785242 -1.7882279
2.6350098 -7.9234033 -1.7896066
3.1992869 -7.7075005 -1.7885472
3.3966405 -7.655726 -1.7950354
3.5830371 -7.5771585 -1.7963668
4.1307225 -7.3140717 -1.8002871
4.6587305 -7.0108628 -1.804078
4.829824 -6.901123 -1.8053091
5.1640134 -6.6689663 -1.8077178
5.4868064 -6.4203329 -1.81005
5.6436715 -6.2900147 -1.8111858
5.7973633 -6.1558013 -1.8122997
5.9478321 -6.0177379 -1.8133923
6.1521583 -5.931179 -1.831517
6.4486032 -5.9235044 -1.8766646
7.0749412 -5.8955293 -1.973766
7.2189941 -5.7261662 -1.9748205
7.8749413 -4.8274026 -1.9796515
8.3173628 -4.0527134 -1.9829491
8.4158888 -3.8522766 -1.9836898
8.5094137 -3.6493928 -1.984396
8.6812696 -3.2367477 -1.9857031
8.7594919 -3.0272408 -1.9863031
8.9002142 -2.6025546 -1.9873935
8.9626369 -2.3876207 -1.9878832
9.0196877 -2.1711681 -1.9883355
9.0713472 -1.9532989 -1.9887502
9.1583099 -1.5139282 -1.9894652
9.2232714 -1.0706341 -1.9900262
9.2474604 -0.8478772 -1.9902486
9.2660837 -0.62454343 -1.9904317
9.2791309 -0.40081787 -1.9905757
9.2847357 0.27143797 -1.9907718
9.2754202 0.49539793 -1.9907581
9.260498 0.71902955 -1.9907049
9.2400293 0.9422363 -1.9906127
9.1453419 1.6076837 -1.9901004
9.1027346 1.8276684 -1.9898515
9.054678 2.0464678 -1.9895637
8.878047 2.6945691 -1.9884701
8.808486 2.9073486 -1.9880296
8.7336817 3.1183002 -1.9875516
8.6536427 3.3272722 -1.9870363
8.5684566 3.5341179 -1.9864842
8.4781837 3.7387371 -1.9858958
8.282588 4.1407256 -1.9846112
8.177392 4.3378434 -1.9839158
7.2732711 4.5611873 -1.8399885
7.0988083 4.69419 -1.8239954
6.6012402 5.346652 -1.8206414
6.4670897 5.5016265 -1.8197321
6.3291798 5.6531668 -1.8187957
6.0425878 5.9455414 -1.8168445
5.8940916 6.0862103 -1.8158309
5.5871191 6.3561196 -1.8137307
5.4288769 6.4852033 -1.8126458
4.9365039 6.8483062 -1.8093243
4.2343163 6.5153251 -1.6653603
3.8002343 6.5151834 -1.6165204
3.3899608 6.5150442 -1.5740247
3.1925879 6.514976 -1.5549387
2.9998436 6.5149102 -1.5371928
2.7751954 6.4311457 -1.5011859
2.5929003 6.4309902 -1.4861087
2.092998 6.5146747 -1.4665202
1.9208398 6.5146098 -1.4556451
1.5836035 6.5144815 -1.4368502
1.0918847 6.5142889 -1.4156246
0.93087888 6.5142255 -1.4103177
0.77097654 6.5141606 -1.4058654
0.61201173 6.5140972 -1.4022545
0.45374021 6.5140314 -1.3994753
0.13864258 6.5138984 -1.3963799
-0.018554688 6.5138321 -1.396055
-0.33321288 6.5136957 -1.397846
-0.49102539 6.5136271 -1.3999677
-0.64941406 6.5135565 -1.4029123
-0.8085742 6.5134854 -1.4066899
-0.96868163 6.5134134 -1.4113137
-1.1299218 6.513339 -1.4167941
-1.2925292 6.5132647 -1.4231488
-1.4566797 6.5131879 -1.4303979
-1.6226367 6.5131106 -1.4385628
-1.7905663 6.5130291 -1.4476687
-1.9607617 6.5129485 -1.4577459
-2.4568067 6.4328704 -1.4758252
-2.8177147 6.4287529 -1.5043477
-3.4378612 6.5161529 -1.5789973
-4.0657811 6.5158257 -1.6460458
-4.7866306 6.5613751 -1.7406853
-5.3833299 6.0544376 -1.7363631
-5.5245996 5.9192743 -1.7353363
-5.79708 5.6393924 -1.7333511
-6.0557909 5.3473101 -1.7314602
-6.1797948 5.1968951 -1.7305514
-6.3001852 5.0436969 -1.7296677
-6.5297852 4.7292509 -1.7279767
-6.638916 4.5681767 -1.7271703
-6.9358301 4.5298734 -1.7754623
-7.294785 4.5170255 -1.838904
-7.5396872 4.4206204 -1.8731927
-7.6410546 4.2356839 -1.8724356
-7.7380176 4.0485187 -1.871709
-7.8305664 3.859179 -1.8710126
-8.0020599 3.4744964 -1.8697146
-8.0809469 3.27934 -1.8691134
-8.2248926 2.8839507 -1.8680072
-8.4055758 2.2797661 -1.8665936
-8.4563084 2.0758197 -1.8661886
-8.5022364 1.8708148 -1.8658172
-8.5433588 1.6648059 -1.8654796
-8.579648 1.4579498 -1.8651757
-8.6593456 0.83322567 -1.8644687
-8.688076 0.41442686 -1.8641688
-8.697197 -0.0052062985 -1.8640069
-8.6944036 -0.21506713 -1.8639779
-8.6866989 -0.42478514 -1.8639832
-8.6741018 -0.63428771 -1.8640232
-8.5749121 -1.4677087 -1.8645282
-8.5379686 -1.6743706 -1.8647403
-8.4962206 -1.880154 -1.8649865
-8.3983002 -2.2885883 -1.8655815
-8.3421774 -2.4910347 -1.8659297
-8.2158003 -2.891835 -1.866727
-8.1455956 -3.0899639 -1.8671755
-8.0707321 -3.2864654 -1.8676571
-7.8187594 -3.8650091 -1.8692981
-7.7257323 -4.0538764 -1.8699095
-7.5264645 -4.4249988 -1.871227
-6.6952929 -5.6441197 -1.8767997
-6.3843942 -5.9319239 -1.8677847
-6.0906444 -5.9391766 -1.823251
-5.5420213 -5.9522276 -1.7430508
-5.2230859 -6.1827025 -1.7346438
-4.9245019 -6.4350739 -1.7366889
-4.292129 -6.8969479 -1.7410371
-3.9595897 -7.105341 -1.7433316
-3.7895508 -7.2036667 -1.7445068
-3.6171093 -7.297996 -1.7456998
-3.4423535 -7.3882699 -1.7469101
-3.2653613 -7.4744229 -1.7481371
-2.5371289 -7.7767849 -1.7531979
-2.3504784 -7.8415475 -1.754498
-1.781162 -8.0091152 -1.7584704
-1.5886133 -8.0559254 -1.7598163
-1.3948437 -8.0981417 -1.7611717
-1.004082 -8.1686831 -1.7639084
-0.60977536 -8.2204847 -1.7666748
-0.4115625 -8.2392931 -1.768067
0.38563475 -8.2667503 -1.7736776
0.58545899 -8.2616005 -1.7750869
1.3833301 -8.1926556 -1.7807246
1.7797852 -8.1291761 -1.7835326
2.1732812 -8.0464211 -1.7863247
2.368623 -7.9978514 -1.7877123
2.5629296 -7.9445024 -1.7890939
3.09583 -7.6517959 -1.7690915
3.5137889 -7.6069717 -1.795872
3.6990526 -7.5255256 -1.7971963
4.0637012 -7.3489609 -1.7998068
4.2428708 -7.2539372 -1.8010914
4.4197559 -7.1544943 -1.8023608
4.766367 -6.9425187 -1.8048524
4.9358397 -6.8300991 -1.8060727
5.2665234 -6.5927219 -1.8084579
5.427588 -6.467875 -1.8096218
5.5856051 -6.3390374 -1.810765
6.0452638 -5.9339023 -1.8155019
6.3364453 -5.9264283 -1.8594629
6.6421485 -5.9184027 -1.906691
7.3072457 -5.6180644 -1.9754674
7.4444823 -5.4428802 -1.9764751
7.577373 -5.2642789 -1.9774532
7.7058983 -5.0823402 -1.9784009
7.949316 -4.7089429 -1.9802032
8.0641308 -4.5176997 -1.9810565
8.1741695 -4.3236027 -1.9818771
8.2793941 -4.1267328 -1.9826643
8.4751368 -3.7252681 -1.9841369
8.5655079 -3.5209072 -1.9848213
9.0527344 -2.0346429 -1.9886001
9.1810646 -1.3752393 -1.9896579
9.2390814 -0.93094665 -1.9901701
9.2598047 -0.70782405 -1.990368
9.2667084 0.63573116 -1.9907293
9.2483206 0.85911924 -1.9906518
9.1597853 1.5254601 -1.9901831
9.1192379 1.7458209 -1.9899486
9.0732126 1.9650891 -1.9896754
9.0217476 2.183095 -1.9893637
8.9648533 2.3997302 -1.9890131
8.8350286 2.8282769 -1.9881982
8.6840725 3.2496409 -1.9872326
8.6008101 3.457288 -1.9866943
8.5124121 3.6627545 -1.9861194
8.4189548 3.8659086 -1.9855081
8.2171583 4.2647138 -1.9841789
7.0250683 4.7998123 -1.8235003
6.9041114 4.9657135 -1.8226867
6.77916 5.1284833 -1.8218441
6.5175195 5.4442682 -1.8200741
5.9498048 6.0342364 -1.8162113
5.7991991 6.1725321 -1.8151824
5.6453028 6.3070135 -1.8141292
5.4882226 6.4375687 -1.8130529
5.3280468 6.5641375 -1.8119537
5.1648731 6.6865702 -1.8108131
4.9990134 6.8051872 -1.8097327
4.5482225 6.5154276 -1.7029738
4.3181543 6.5153532 -1.6752237
3.4647851 6.5150714 -1.5814946
3.2655663 6.5150018 -1.5618896
2.8440623 6.43117 -1.5071008
2.6603906 6.4310136 -1.491585
2.3037207 6.4308844 -1.46404
1.3150781 6.5143781 -1.4243332
0.83044922 6.514185 -1.4074249
0.67114258 6.5141201 -1.4035021
0.5126465 6.5140557 -1.4004143
0.35474607 6.5139899 -1.3981537
-0.1171875 6.5137897 -1.3962665
-0.4321582 6.5136528 -1.3990805
-0.59032226 6.5135832 -1.4017184
-1.0696875 6.5133657 -1.4146512
-1.395332 6.513217 -1.4275912
-1.5605664 6.5131378 -1.435412
-1.7277441 6.5130596 -1.4441639
-1.8970605 6.512979 -1.4538751
-2.3907616 6.4329033 -1.4708395
-2.5674608 6.4288764 -1.4836552
-2.9344921 6.4286919 -1.514558
-3.9848633 6.5158682 -1.6369389
-4.4103613 6.8354144 -1.7434644
-5.1841893 6.2345829 -1.7378082
-5.4723144 5.9700236 -1.7357165
-5.747334 5.6924844 -1.733714
-5.8797364 5.5490518 -1.7327478
-6.0086427 5.4026299 -1.7318053
-6.2557516 5.1010981 -1.7299941
-6.3738084 4.9461894 -1.7291262
-6.4881444 4.78862 -1.728284
-7.5007811 4.488925 -1.8734829
-7.6037989 4.3048725 -1.8727142
-7.7965918 3.9299834 -1.8712686
-8.0521088 3.3522735 -1.8693337
-8.2661915 2.758637 -1.867687
-8.5286131 1.7416834 -1.8656013
-8.6518354 0.91110229 -1.8645397
-8.6704683 0.70199829 -1.8643599
-8.6842089 0.49253416 -1.8642143
-8.693037 0.28283936 -1.8641033
-8.6969919 0.072991334 -1.8640265
-8.6793747 -0.55625242 -1.8640041
-8.6637201 -0.76554871 -1.8640658
-8.617734 -1.1827776 -1.8642925
-8.5123529 -1.8035797 -1.8648907
-8.4675684 -2.0087457 -1.8651584
-8.4180079 -2.2128289 -1.8654602
-8.3636427 -2.415741 -1.865796
-8.3045702 -2.6173763 -1.8661654
-8.2407904 -2.8175952 -1.8665682
-8.0991793 -3.2134368 -1.8674737
-7.9391208 -3.6024344 -1.868511
-7.7609177 -3.9837472 -1.8696777
-7.6651268 -4.1712666 -1.8703091
-7.5649219 -4.3565392 -1.870972
-7.3515038 -4.7200136 -1.872391
-7.2383981 -4.8980012 -1.8731467
-6.9996481 -5.245985 -1.8747479
-6.8741307 -5.4158039 -1.8755927
-6.6110935 -5.7465744 -1.8773692
-6.473701 -5.907341 -1.8782998
-5.2773438 -6.134182 -1.7342727
-4.8283691 -6.5113473 -1.7373483
-4.5142283 -6.7450876 -1.7395074
-4.0223436 -7.0676885 -1.7428982
-3.8532128 -7.1674919 -1.7440667
-3.5077343 -7.3551078 -1.7464572
-3.1532323 -7.5263505 -1.7489152
-2.7904785 -7.6807604 -1.7514352
-2.6062305 -7.7515316 -1.7527169
-2.420244 -7.8179259 -1.754012
-2.0433006 -7.9374609 -1.75664
-1.8525976 -7.9905038 -1.7579714
-1.6605273 -8.0390072 -1.7593135
-1.4671777 -8.0829525 -1.7606655
-1.2727149 -8.1222744 -1.7620267
-1.0771972 -8.156951 -1.7633961
-0.68346679 -8.2122612 -1.7661575
-0.087910153 -8.2597132 -1.7703427
0.51097655 -8.2640905 -1.7745614
1.110039 -8.2250376 -1.7787914
1.3092188 -8.2023525 -1.7802001
1.507959 -8.1748285 -1.781607
1.706123 -8.1424723 -1.7830105
1.9035742 -8.105298 -1.7844107
2.2959862 -8.0165091 -1.7871962
2.6841893 -7.9086132 -1.7899566
3.0213866 -7.6653991 -1.7658828
3.2565918 -7.7112789 -1.7940356
3.4442675 -7.6361566 -1.7953755
3.8142869 -7.4720864 -1.7980208
4.1763182 -7.2898755 -1.8006141
4.3541307 -7.1920562 -1.8018897
5.0407715 -6.7574267 -1.8068289
5.3679099 -6.5148783 -1.8091903
5.5270801 -6.3875017 -1.8103415
5.8360057 -6.1209955 -1.8125802
5.9855566 -5.9819818 -1.8136663
6.5264549 -5.9214611 -1.8886918
7.1120114 -5.852747 -1.9740372
7.2550387 -5.6824288 -1.9750847
7.5283494 -5.3312354 -1.9770921
8.3429098 -4.0019026 -1.9831408
8.4401655 -3.8008416 -1.9838729
8.5324221 -3.597321 -1.9845703
8.6195993 -3.3915362 -1.9852325
8.7785835 -2.9735844 -1.98645
8.850234 -2.7616429 -1.987004
8.9166212 -2.5479648 -1.9875216
8.9776754 -2.3326426 -1.9880019
9.0333691 -2.1158233 -1.9884448
9.0836325 -1.897597 -1.9888498
9.1284666 -1.6781842 -1.9892169
9.2527342 -0.79103822 -1.9902989
9.2815619 -0.34376219 -1.9906061
9.2875776 -0.11972228 -1.9907006
9.2828808 0.32848206 -1.9907718
9.2721386 0.55239683 -1.9907483
9.1734962 1.4430834 -1.9902606
9.0910053 1.8834972 -1.9897817
9.0415525 2.1020219 -1.9894842
8.7899218 2.9612775 -1.9879113
8.7137794 3.1717193 -1.9874237
8.5459661 3.5864325 -1.9863379
8.4543753 3.7904789 -1.9857401
6.9496875 4.9042535 -1.8229934
6.826201 5.0681915 -1.8221616
6.6987696 5.2289448 -1.8213011
6.5674219 5.3864484 -1.8204123
6.2934861 5.6911869 -1.8185531
6.0050778 5.9817338 -1.8165888
5.7030368 6.2573404 -1.8145245
5.3880858 6.5174408 -1.812366
5.2259178 6.6413102 -1.8112097
5.061162 6.7614594 -1.8101379
4.6359277 6.5154557 -1.7138064
3.5403223 6.5150957 -1.5891653
3.1431055 6.5149589 -1.5502964
2.9514258 6.5148931 -1.5328799
2.7283983 6.4310379 -1.4972192
2.36917 6.4309101 -1.4688348
2.2230272 6.5147223 -1.4752933
1.54125 6.5144658 -1.4347308
1.3761523 6.5144024 -1.4269862
1.212705 6.5143375 -1.4201447
1.0507617 6.5142727 -1.4141906
0.73042965 6.5141449 -1.4048668
0.25591797 6.5139484 -1.3971515
0.098583981 6.5138822 -1.3962206
-0.05859375 6.5138149 -1.396102
-0.21586913 6.5137467 -1.3967979
-0.37335935 6.5136786 -1.398309
-0.84925777 6.5134673 -1.4077874
-1.3341894 6.5132437 -1.4249096
-1.8337109 6.5130081 -1.4501427
-2.0045018 6.5129275 -1.4604707
-2.1778319 6.5128436 -1.4718101
-2.502002 6.4322796 -1.4791933
-3.4892187 6.5161262 -1.5841573
-4.3498631 6.8766069 -1.743921
-5.2759571 6.1530194 -1.7371426
-5.4196286 6.0203071 -1.7360994
-5.6971192 5.7451468 -1.73408
-5.8308105 5.6028461 -1.7331049
-6.0877051 5.3092642 -1.7312264
-6.4459863 4.8476443 -1.7285947
-7.6661716 4.1882014 -1.8722476
-7.7620115 4.0004792 -1.8715286
-7.8534179 3.8106279 -1.8708403
-8.0226068 3.4249444 -1.8695583
-8.1734371 3.0320568 -1.8684042
-8.4684668 2.0236859 -1.8660907
-8.5530567 1.612193 -1.8653988
-8.5881147 1.4051318 -1.8651037
-8.6436615 0.98889035 -1.8646154
-8.6641016 0.77996886 -1.8644229
-8.6796579 0.57064271 -1.8642645
-8.6903219 0.36099243 -1.8641406
-8.6839552 -0.47818786 -1.8639902
-8.5993061 -1.3131757 -1.864392
-8.5659666 -1.520429 -1.8645788
-8.5278025 -1.7268732 -1.8647997
-8.4848242 -1.9324286 -1.8650546
-8.4370213 -2.1369205 -1.8653439
-8.3844528 -2.3402712 -1.8656669
-8.198349 -2.9424493 -1.866838
-8.1269531 -3.1401727 -1.867295
-7.8851657 -3.7229114 -1.8688632
-7.7013183 -4.1016588 -1.8700701
-7.4998436 -4.4715996 -1.8714038
-7.3925781 -4.6530256 -1.8721174
-7.2810254 -4.8319907 -1.8728616
-7.1652832 -5.0083337 -1.8736361
-7.0453806 -5.1819825 -1.8744406
-6.6612792 -5.6858611 -1.8770297
-6.5253806 -5.8477983 -1.8779495
-6.0179782 -5.9409432 -1.8123999
-5.7408009 -5.947577 -1.7716402
-5.0372071 -6.3426414 -1.7359163
-4.7310643 -6.5862412 -1.7380166
-4.5736232 -6.7026486 -1.7390988
-4.4133496 -6.8153644 -1.7402018
-4.0846872 -7.0294986 -1.7424678
-3.9165039 -7.1307626 -1.7436292
-3.7458692 -7.2280712 -1.7448089
-3.5728025 -7.3213859 -1.7460067
-3.2199414 -7.4957061 -1.7484524
-3.0403125 -7.5766106 -1.7496991
-2.4897461 -7.7936974 -1.7535278
-2.3026855 -7.8573351 -1.7548311
-2.1139941 -7.9165487 -1.7561468
-1.9238379 -7.9712691 -1.7574741
-1.5393358 -8.0671167 -1.7601608
-1.3452832 -8.1081648 -1.7615185
-1.1501465 -8.1445742 -1.762885
-0.75706053 -8.2033854 -1.765641
-0.55933595 -8.2257233 -1.7670289
-0.36100584 -8.2433176 -1.7684222
-0.16213867 -8.256155 -1.7698206
0.03720703 -8.2642078 -1.7712231
0.43652344 -8.2659016 -1.7740365
1.0357422 -8.232254 -1.7782663
1.2350585 -8.2113705 -1.7796756
1.4339746 -8.1856422 -1.781083
1.6323632 -8.1550922 -1.7824881
2.0270605 -8.0795135 -1.7852865
2.4182618 -7.9847107 -1.7880652
2.6122167 -7.9301543 -1.7894446
2.8049414 -7.8708539 -1.7908162
2.9963477 -7.8068089 -1.7921797
3.1663182 -7.6897483 -1.7823306
3.374541 -7.6646895 -1.7948775
3.561162 -7.5866575 -1.7962106
4.1095409 -7.3251829 -1.8001353
4.4644728 -7.1284518 -1.8026818
5.144619 -6.6831064 -1.8075777
5.625361 -6.3055787 -1.8110532
6.1181736 -5.9320469 -1.8264105
6.7224903 -5.9162641 -1.9192801
7.0483789 -5.9074731 -1.9710406
7.2022166 -5.7462997 -1.9746975
7.342617 -5.5737591 -1.9757268
7.4787207 -5.3977103 -1.9767269
7.8607812 -4.8495264 -1.9795464
8.404521 -3.8760464 -1.9836044
8.4986324 -3.6734133 -1.9843146
8.6717091 -3.261308 -1.98563
8.8241596 -2.8408115 -1.986802
8.892519 -2.6277788 -1.9873332
8.9555368 -2.4130557 -1.9878273
9.0132513 -2.1967804 -1.9882842
9.065527 -1.9790493 -1.9887033
9.1537886 -1.5399591 -1.9894274
9.2200775 -1.096845 -1.9899975
9.2449026 -0.87416321 -1.9902242
9.2778807 -0.42718565 -1.9905608
9.286006 -0.20321594 -1.9906701
9.2885256 0.020898437 -1.9907401
9.285449 0.24500915 -1.9907706
-7.852324 0.28145263 -1.8700265
-7.8562789 -0.097704463 -1.8699106
-7.8424706 -0.47661558 -1.8699194
-7.8108983 -0.85447752 -1.870054
-7.7884765 -1.0427624 -1.8701681
-7.7304492 -1.4175451 -1.8704897
-7.6548729 -1.7892699 -1.8709358
-7.5619335 -2.1571484 -1.8715051
-7.5090036 -2.3393948 -1.8718356
-7.3247166 -2.8782082 -1.8730085
-7.2548923 -3.0548434 -1.8734595
-7.1808982 -3.2298346 -1.8739401
-7.1028223 -3.4030893 -1.8744501
-7.0206347 -3.5745108 -1.8749892
-6.934443 -3.7440083 -1.8755569
-6.7501464 -4.0768552 -1.876778
-6.6521091 -4.240015 -1.8774308
-6.5502439 -4.4008851 -1.8781111
-6.335166 -4.7153883 -1.8795533
-5.9850192 -5.1677561 -1.8819152
-5.4692674 -5.7311573 -1.8854181
-5.3320117 -5.8643761 -1.886354
-5.137002 -5.931303 -1.8674575
-4.8963766 -5.9371481 -1.8315538
-4.0925779 -6.0715971 -1.7426351
-3.6490722 -6.3628602 -1.7456924
-3.4966114 -6.4529505 -1.7467456
-3.3419139 -6.5394444 -1.7478155
-3.185117 -6.6222897 -1.748901
-2.7029395 -6.8484006 -1.7522458
-2.5385644 -6.9161282 -1.753388
-2.0357032 -7.0957732 -1.7568895
-1.8651757 -7.1476727 -1.7580789
-1.6933203 -7.1954985 -1.7592788
-1.1708496 -7.3142905 -1.7629324
-0.99473631 -7.345551 -1.7641659
0.25561523 -7.4451361 -1.7729528
0.61540037 -7.4347606 -1.77549
0.79517579 -7.4230547 -1.7767597
1.1540136 -7.3865771 -1.7792965
1.6888671 -7.2992654 -1.7830853
1.8658203 -7.2614956 -1.7843407
2.7357128 -7.0083551 -1.7905291
3.2420311 -6.805831 -1.7941437
3.8929296 -6.4784827 -1.7988061
4.0506835 -6.3866882 -1.799939
4.2062106 -6.2909927 -1.8010572
4.6586132 -5.9810839 -1.804317
5.8204684 -5.8555055 -1.9649365
6.1025782 -5.5737062 -1.9669898
6.2384276 -5.4275632 -1.9679809
6.3706737 -5.2780485 -1.9689475
6.6241503 -4.969243 -1.9708053
6.9753709 -4.4829736 -1.9733932
7.1892967 -4.1445541 -1.9749794
7.2899804 -3.9713836 -1.975729
7.3863864 -3.7957089 -1.9764493
7.5660543 -3.4372842 -1.9777987
7.6492286 -3.2547557 -1.9784271
7.9360938 -2.5051858 -1.9806228
8.0513868 -2.1203637 -1.9815246
8.1018257 -1.9258611 -1.9819255
8.1474514 -1.7301288 -1.9822924
8.1882029 -1.5332916 -1.9826254
8.2240725 -1.3354706 -1.9829241
8.302002 -0.7373718 -1.9836124
8.329092 -0.33604065 -1.9838967
8.3322754 0.26731384 -1.9840597
8.2904587 0.86923337 -1.9839053
8.0732031 2.0550182 -1.9826504
8.0199118 2.2488391 -1.98232
7.8990526 2.6321197 -1.9815576
7.6012011 3.3778582 -1.9796325
7.5153513 3.5592742 -1.9790698
7.4250488 3.7384574 -1.9784753
7.3303614 3.9152911 -1.9778494
7.0206151 4.4306293 -1.9757868
5.7941504 4.9576397 -1.8148642
5.5430174 5.2264752 -1.813157
5.4126267 5.3560748 -1.8122686
5.2791505 5.4823637 -1.8113575
5.1426759 5.6052532 -1.8104244
4.8610935 5.8406072 -1.8084952
4.568584 6.0615788 -1.8064855
4.418447 6.1665201 -1.8054522
4.2658787 6.2676849 -1.8044009
4.1109767 6.3650174 -1.8033322
3.794492 6.5479836 -1.8011447
3.6330469 6.6333523 -1.7999816
3.4698339 6.7150173 -1.7988925
3.1379492 6.8660879 -1.7966664
2.3932714 6.430778 -1.633038
2.247041 6.5145893 -1.640072
2.0725195 6.5145254 -1.6269881
1.7312304 6.5144 -1.6042023
1.5639648 6.5143366 -1.5944281
1.3986132 6.5142741 -1.5856879
1.2349805 6.5142107 -1.5779566
1.072832 6.5141473 -1.5712115
0.75218749 6.5140176 -1.5605984
0.59330076 6.5139542 -1.5566989
0.43511719 6.5138907 -1.5537205
0.27745116 6.5138235 -1.5516555
-0.35178709 6.5135541 -1.5524453
-0.50965822 6.5134845 -1.5549065
-0.8273828 6.5133438 -1.5625913
-0.98758787 6.5132694 -1.5678355
-1.1489941 6.5131965 -1.5740354
-1.3117676 6.5131192 -1.5812073
-1.6422949 6.5129642 -1.5985631
-2.3296678 6.5126276 -1.6461477
-2.4777343 6.4327188 -1.6405888
-3.1364648 6.661315 -1.7523108
-3.4497948 6.4939923 -1.7500889
-3.6032422 6.4048209 -1.7489871
-3.9032128 6.2158451 -1.7468295
-4.0496287 6.1161637 -1.7457745
-4.8730273 5.4492145 -1.7398176
-5.4795213 4.8107929 -1.7353958
-5.9833789 4.530755 -1.7862164
-6.277988 4.5196977 -1.8410586
-6.5215721 4.4601603 -1.8803756
-6.7237792 4.1370378 -1.8788757
-6.8190722 3.9720905 -1.8781658
-6.9104004 3.8050115 -1.8774835
-7.1603513 3.2919061 -1.875603
-7.2355075 3.1172271 -1.8750327
-7.3733201 2.7629662 -1.8739791
-7.5483689 2.2207947 -1.8726196
-7.6436424 1.8532977 -1.8718629
-7.6847458 1.6680261 -1.8715301
-7.7215233 1.4818755 -1.8712276
-7.805459 0.91912717 -1.8705053
-7.8463864 -0.40607482 -1.8699082
-7.8181348 -0.78419125 -1.8700193
-7.7973533 -0.97266358 -1.8701221
-7.7721581 -1.1606017 -1.8702557
-7.7086229 -1.5345141 -1.8706164
-7.6275682 -1.9051162 -1.8711011
-7.5292382 -2.2716293 -1.8717088
-7.4736133 -2.453099 -1.8720584
-7.2814059 -2.9892116 -1.8732879
-6.967041 -3.6810818 -1.8753419
-6.7856836 -4.0154853 -1.876542
-6.6891012 -4.179481 -1.8771844
-6.5886621 -4.3412104 -1.8778542
-6.4844041 -4.500596 -1.8785518
-6.3763475 -4.6575494 -1.8792766
-6.0302343 -5.1129007 -1.8816094
-5.9077344 -5.2592359 -1.8824383
-5.7817187 -5.4027023 -1.8832928
-5.6523242 -5.5432301 -1.884172
-5.5195603 -5.6807141 -1.8850753
-5.3835449 -5.8151031 -1.8860024
-5.229043 -5.9290214 -1.8814657
-4.9849901 -5.9350171 -1.8446505
-4.7499804 -5.940618 -1.8102316
