# .PCD v0.7 - Point Cloud Data file format
VERSION 0.7
FIELDS x y z
SIZE 4 4 4
TYPE F F F
COUNT 1 1 1
WIDTH 1497
HEIGHT 1
VIEWPOINT 0 0 0 1 0 0 0
POINTS 1497
DATA ascii
-6.767539 -2.3524201 -1.876618
-6.6489549 -2.677177 -1.8773888
-6.3664255 -3.3086009 -1.8792585
-6.2030563 -3.6139047 -1.8803533
-6.1159763 -3.7636535 -1.8809402
-6.0253711 -3.9113617 -1.8815523
-5.9312792 -4.0569367 -1.8821902
-5.8337498 -4.2003064 -1.882853
-5.732832 -4.3413906 -1.8835405
-5.5210252 -4.6163745 -1.8849882
-5.410244 -4.7501206 -1.8857479
-4.8098927 -5.3783836 -1.8898867
-4.6809473 -5.49544 -1.8907799
-4.2776661 -5.8281536 -1.8935809
-3.9252539 -5.9274507 -1.8620956
-3.7255273 -5.9319029 -1.8347208
-3.5313964 -5.9360614 -1.8091259
-3.342412 -5.9399424 -1.7852107
-2.992373 -5.9751177 -1.7503167
-2.7038476 -6.1195617 -1.7523425
-2.556953 -6.1866446 -1.7533755
-2.4084082 -6.2502489 -1.7544208
-1.4871973 -6.5564904 -1.7609249
-0.52796876 -6.7283463 -1.7677314
0.12304688 -6.7656188 -1.7723696
0.28640625 -6.7651334 -1.7735357
0.77638668 -6.739996 -1.7770388
1.4258398 -6.6512256 -1.781695
1.5869141 -6.6191897 -1.7828524
1.7472558 -6.58324 -1.7840049
1.9067481 -6.543385 -1.7851527
2.0653515 -6.4996433 -1.7862952
2.222959 -6.4520354 -1.787431
2.6887109 -6.2862096 -1.790794
2.8413184 -6.2233605 -1.7918979
2.9924414 -6.1567707 -1.7929921
3.1419823 -6.086472 -1.7940758
3.2898047 -6.0125103 -1.7951481
3.4357519 -5.9345875 -1.7961115
3.82375 -5.9258814 -1.8472037
4.0261717 -5.9210758 -1.875441
4.7800584 -5.7487187 -1.9582504
4.9199219 -5.6346912 -1.9592751
5.0569725 -5.5172043 -1.9602808
5.1912208 -5.3963308 -1.961267
5.4507518 -5.1446924 -1.963178
5.5758786 -5.014071 -1.9641016
5.6978221 -4.8803496 -1.965003
5.816504 -4.7436094 -1.9658819
5.931787 -4.6039281 -1.9667375
6.0436816 -4.4613934 -1.9675692
6.1520605 -4.316083 -1.9683765
6.256875 -4.1680851 -1.9691592
6.358037 -4.0174918 -1.9699163
6.54916 -3.7088747 -1.9713525
6.6390038 -3.5510385 -1.9720303
6.8069434 -3.2287931 -1.9733042
6.9588184 -2.8984478 -1.974465
7.0286427 -2.7304931 -1.9750024
7.1557031 -2.3895209 -1.9759887
7.2129102 -2.2167249 -1.9764372
7.26583 -2.0425243 -1.9768554
7.314404 -1.8670322 -1.9772429
7.3985057 -1.5126147 -1.977926
7.4649315 -1.1543567 -1.9784834
7.5311522 -0.61173826 -1.9790823
7.5442286 -0.42992491 -1.9792179
7.5528121 -0.24783325 -1.9793217
7.5568552 -0.065579221 -1.979393
7.541904 0.48102781 -1.9794134
7.4269137 1.3846039 -1.978803
7.3905563 1.5631781 -1.9785851
7.3045897 1.9172845 -1.9780538
7.2012305 2.2665942 -1.9773974
7.1431055 2.4391773 -1.9770226
7.0807419 2.6102331 -1.9766173
6.9434471 2.9473479 -1.9757159
6.7896972 3.2771013 -1.9746952
6.6199608 3.5986798 -1.9735587
6.3362498 4.0639787 -1.9716418
5.7744627 4.5447478 -1.9247204
5.5071778 4.5537639 -1.8717175
5.1087499 4.6569147 -1.8106146
4.8738379 4.8934989 -1.8089929
4.6278028 5.1180387 -1.8072891
4.2392673 5.4311466 -1.8045886
3.9682128 5.6233816 -1.8026987
3.8293653 5.7143927 -1.8017287
3.6883984 5.8019233 -1.8007431
3.400449 5.9663749 -1.7987262
3.2536914 6.0431986 -1.7976965
2.4954588 6.371829 -1.7923609
2.1825488 6.476778 -1.790152
2.0244336 6.5234613 -1.7890341
1.8652929 6.5662613 -1.7879083
1.7052929 6.6051555 -1.7867754
1.2208496 6.6982207 -1.783327
1.0582422 6.7214127 -1.7821836
0.89522457 6.740634 -1.7810345
0.73190427 6.7558856 -1.7798803
0.077402338 6.7772002 -1.775225
-0.08606445 6.7726288 -1.7740551
-0.57442379 6.7353144 -1.7705421
-1.057832 6.6629314 -1.7670382
-1.3761914 6.595717 -1.7647786
-1.6905175 6.5133023 -1.7625158
-1.8459765 6.4665179 -1.7613952
-2.0001366 6.4160528 -1.7602831
-2.7491503 6.1099038 -1.7548656
-2.8940039 6.0381975 -1.7538152
-3.0370116 5.9630961 -1.7527767
-3.1781054 5.8846588 -1.7517517
-3.4542675 5.7179594 -1.7497417
-3.8522754 5.4441705 -1.7468371
-3.9803319 5.3468046 -1.7459005
-4.5831056 4.8167744 -1.7414746
-4.7024512 4.709362 -1.7431588
-4.8055663 4.5857978 -1.739833
-4.9945898 4.5411162 -1.7680876
-5.2328219 4.5320344 -1.8131857
-5.4834571 4.5222821 -1.8616775
-5.6642284 4.4462128 -1.8860755
-5.9638281 4.0202298 -1.8838378
-6.1462989 3.7252057 -1.882467
-6.2322068 3.5746295 -1.8818188
-6.6707516 2.633626 -1.8784695
-6.7306833 2.4713397 -1.8780038
-6.8389354 2.1428833 -1.8771548
-6.8872266 1.9768884 -1.8767715
-6.9315915 1.8098388 -1.876416
-6.9720211 1.6418219 -1.8760883
-7.0694141 1.1328955 -1.8752744
-7.0938668 0.96192807 -1.8750602
-7.1143064 0.79045224 -1.8748745
-7.130703 0.61856323 -1.8747174
-7.1513672 0.27390075 -1.8744897
-7.1556444 0.10131469 -1.8744189
-7.1558299 -0.071321413 -1.8743774
-7.1440721 -0.41636106 -1.8743811
-7.0961032 -0.9319604 -1.8746035
-7.0720506 -1.1029395 -1.8747354
-7.0440235 -1.273319 -1.8748957
-7.0119529 -1.4430059 -1.8750851
-6.9359179 -1.7799487 -1.8755494
-6.8919725 -1.9470217 -1.8758242
-6.844111 -2.1130426 -1.8761272
-6.7923632 -2.2779176 -1.8764583
-6.7367086 -2.4415655 -1.8768172
-6.6139355 -2.7648067 -1.8776183
-6.5468554 -2.9242303 -1.8780601
-6.401484 -3.2382398 -1.8790246
-6.3232713 -3.3926558 -1.8795468
-6.1559668 -3.6958873 -1.8806705
-6.0669627 -3.8445306 -1.8812714
-5.7790918 -4.2775974 -1.8832251
-5.5702634 -4.5547881 -1.8846512
-5.2327833 -4.9517121 -1.8869678
-5.1140232 -5.0786991 -1.8877856
-4.7398729 -5.4426341 -1.8903713
-4.6094236 -5.5580444 -1.8912758
-4.3402829 -5.7795939 -1.8931452
-4.2017579 -5.8855958 -1.8941095
-3.618916 -5.9342074 -1.8205386
-3.4276464 -5.9382129 -1.7958713
-3.0594726 -5.9454327 -1.7513386
-2.9143846 -6.015871 -1.750864
-1.8696874 -6.4470816 -1.7582203
-1.7146875 -6.4943457 -1.7593156
-0.60149413 -6.7201676 -1.7672087
-0.43952146 -6.7371097 -1.7683609
-0.27706054 -6.7501645 -1.7695174
-0.11423828 -6.7593083 -1.7706774
0.048876952 -6.7645397 -1.7718405
0.37557617 -6.7632017 -1.7741727
0.53895509 -6.756618 -1.7753402
0.70225585 -6.746088 -1.7765083
1.0281347 -6.7131739 -1.778842
1.1905371 -6.6907969 -1.7800064
1.3524804 -6.6644773 -1.7811683
1.5138086 -6.6342363 -1.7823269
1.8343945 -6.5619793 -1.784632
2.151494 -6.4741454 -1.7869155
2.308496 -6.4244289 -1.788048
3.2228906 -6.0465574 -1.7946625
3.7337108 -5.9279618 -1.8349861
3.9334862 -5.9232974 -1.8623822
4.3516798 -5.9129963 -1.9229672
4.7156639 -5.799356 -1.9577789
4.8567481 -5.6869273 -1.9588119
4.9950976 -5.5709929 -1.9598266
5.3928614 -5.2029886 -1.9627514
5.5194235 -5.0738153 -1.9636847
5.6428318 -4.9414759 -1.9645964
5.8798437 -4.6677442 -1.9663517
5.9932809 -4.5265088 -1.9671944
6.2096872 -4.2356629 -1.9688067
6.3125291 -4.0862226 -1.9695754
6.5070896 -3.7798162 -1.9710354
6.6864061 -3.4639626 -1.9723889
6.7701855 -3.3027475 -1.9730244
6.8500094 -3.1394274 -1.9736322
6.9257617 -2.97417 -1.9742113
7.0649705 -2.6381197 -1.9752831
7.1874509 -2.2954226 -1.9762373
7.2423143 -2.1218293 -1.9766693
7.292861 -1.9469241 -1.9770706
7.3809371 -1.5935065 -1.9777817
7.451406 -1.23604 -1.9783679
7.47999 -1.0560559 -1.9786139
7.5040817 -0.87542659 -1.9788278
7.5494823 -0.3305847 -1.9792786
7.5555859 -0.14840637 -1.9793646
7.557158 0.033908691 -1.9794183
7.5542283 0.21617614 -1.9794396
7.5183301 0.76181334 -1.9793105
7.4419918 1.3031677 -1.9788916
7.2780957 2.0130908 -1.977887
7.2262301 2.1877141 -1.9775575
7.1700387 2.36094 -1.9771966
6.9760938 2.8713884 -1.9759312
6.5709081 3.6848857 -1.9732285
6.2809958 4.1462626 -1.9712666
6.1769629 4.2950053 -1.9705588
6.0692577 4.4411077 -1.9698238
5.9008884 4.5404158 -1.9501578
5.6267576 4.5497551 -1.8952984
5.3673048 4.5584025 -1.8444189
5.1604786 4.6015644 -1.8109709
4.5588183 5.1771479 -1.8068104
4.4304395 5.2829924 -1.8059187
4.299531 5.3856134 -1.8050082
4.1662302 5.4849286 -1.8040799
3.8927343 5.6734686 -1.8021716
3.7527051 5.7625933 -1.8011929
3.6106153 5.8481998 -1.8001987
3.4665332 5.930274 -1.7991892
3.3206053 6.0087409 -1.798166
2.7198241 6.2859159 -1.7939423
2.2540429 6.4542937 -1.790657
2.096416 6.5027337 -1.7895432
1.937705 6.5473027 -1.7884207
1.7781054 6.5879703 -1.7872909
1.6175878 6.6245465 -1.7861037
1.4564062 6.6574359 -1.7849778
1.2945606 6.6863799 -1.7838442
0.4790625 6.7716498 -1.7780876
0.3153418 6.7767887 -1.7769228
-0.17512695 6.7684684 -1.7734164
-0.50071287 6.7432294 -1.7710741
-0.66279298 6.7247295 -1.7699004
-0.82426757 6.7023687 -1.7687347
-1.3041699 6.6123443 -1.7652965
-1.4623632 6.5747199 -1.7641586
-1.7754883 6.488234 -1.7619036
-1.9302441 6.4394436 -1.7607875
-2.0837011 6.3869805 -1.7596798
-2.2357616 6.3309159 -1.7585815
-2.3863573 6.2712531 -1.7574927
-2.5353613 6.2080607 -1.7564147
-2.8283887 6.0712113 -1.7542913
-3.1142383 5.9207144 -1.7522159
-3.3922265 5.7569757 -1.7501935
-3.6618164 5.5803986 -1.7482281
-3.7932909 5.4874272 -1.7472682
-4.1734862 5.1905046 -1.7444853
-4.531045 4.8677802 -1.7418579
-4.6449022 4.7547846 -1.7410189
-5.367959 4.5267987 -1.8392007
-5.6162205 4.5088763 -1.8864328
-5.8223925 4.2293181 -1.884896
-5.9204102 4.0860648 -1.8841631
-6.0149999 3.9405718 -1.8834542
-6.1936131 3.6432843 -1.8821101
-6.3579392 3.3381183 -1.8808661
-6.5075779 3.0257611 -1.8797255
-6.5767965 2.8671129 -1.8791943
-6.6422653 2.7068915 -1.8786899
-6.7039161 2.545249 -1.8782121
-6.8157225 2.2179265 -1.8773379
-6.9119139 1.8858666 -1.876574
-6.9541407 1.7182641 -1.8762336
-6.9923925 1.5497754 -1.8759212
-7.0266795 1.380437 -1.8756372
-7.056963 1.2103863 -1.8753815
-7.1055274 0.86842525 -1.8749553
-7.1237693 0.69669735 -1.8747851
-7.1379395 0.52463502 -1.8746438
-7.1481051 0.35226563 -1.8745311
-7.1542382 -0.16549805 -1.8743668
-7.1380663 -0.51036012 -1.8744022
-7.1238961 -0.68243223 -1.8744632
-7.1057324 -0.85409969 -1.8745528
-7.0572457 -1.195979 -1.8748193
-6.7624607 -2.3673515 -1.8766509
-6.7047362 -2.5303006 -1.8770248
-6.6431832 -2.6918533 -1.8774267
-6.5778027 -2.8519793 -1.8778559
-6.4358106 -3.1674907 -1.878796
-6.2790623 -3.4761407 -1.8798431
-5.7234373 -4.354167 -1.8836045
-5.5110154 -4.6287065 -1.8850567
-5.2857127 -4.8931212 -1.8866034
-5.0479393 -5.146821 -1.8882415
-4.7982225 -5.3892136 -1.8899676
-4.6690526 -5.50598 -1.8908622
-4.5370603 -5.6197338 -1.8917779
-4.4023633 -5.7303624 -1.8927135
-3.5138965 -5.9364281 -1.8068707
-3.1415234 -5.9438815 -1.7609184
-2.8358104 -6.0556273 -1.7514154
-2.6904979 -6.1258292 -1.7524365
-2.5434375 -6.1926012 -1.7534704
-2.3947656 -6.2558789 -1.7545168
-2.2445116 -6.3156371 -1.7555755
-6.5644627 -0.10841186 -1.8785897
-6.5599217 -0.26672485 -1.8785855
-6.5396676 -0.58281797 -1.8786563
-6.5239744 -0.740426 -1.8787316
-6.5045896 -0.89762753 -1.8788335
-6.4546871 -1.2104772 -1.8791168
-6.4242282 -1.3659545 -1.8792981
-6.3523731 -1.6745946 -1.879739
-6.2174902 -2.130511 -1.8805957
-6.1653905 -2.2802737 -1.8809327
-6.1097655 -2.4287975 -1.8812951
-6.0506539 -2.5760012 -1.8816829
-5.9880762 -2.7217989 -1.8820956
-5.9220605 -2.8661129 -1.8825332
-5.8526173 -3.0088658 -1.8829956
-5.7798243 -3.1499836 -1.8834823
-5.703711 -3.2893779 -1.8839931
-5.5416403 -3.5627041 -1.8850863
-5.455781 -3.6964812 -1.885668
-4.9799218 -4.3335557 -1.8889163
-4.7687693 -4.5722008 -1.8903677
-4.5464063 -4.800765 -1.8919019
-4.4311423 -4.9111009 -1.8926989
-4.1927829 -5.1235657 -1.8943509
-4.0698242 -5.2255669 -1.8952048
-3.9443846 -5.3246646 -1.8960769
-3.5541308 -5.6039681 -1.8987974
-3.4196093 -5.6908865 -1.8997375
-3.1443553 -5.8551207 -1.9016638
-2.9979296 -5.9208312 -1.8989587
-2.6502929 -5.927485 -1.8578851
-2.3163476 -5.9332013 -1.8224963
-2.1538281 -5.9357309 -1.8067852
-1.9939355 -5.9380541 -1.7923259
-1.6811328 -5.9421082 -1.7669879
-1.2440917 -6.0337143 -1.7627816
-1.0988183 -6.0655112 -1.7638113
-0.9527539 -6.0938287 -1.7648473
-0.80596679 -6.1186471 -1.7658893
-0.65853512 -6.1399479 -1.7669367
-0.51052731 -6.1577096 -1.7679888
-0.36207029 -6.1719189 -1.7690451
-0.21322265 -6.1825581 -1.7701052
0.085292965 -6.1930857 -1.7722332
0.38438475 -6.1892109 -1.774369
0.68322265 -6.1708989 -1.7765063
0.83239257 -6.156323 -1.7775744
1.1297168 -6.1163383 -1.7797059
1.2776562 -6.090939 -1.7807678
1.4250586 -6.0619507 -1.7818267
1.5717969 -6.0293818 -1.7828817
1.8629394 -5.9535456 -1.7849774
2.0158007 -5.9357319 -1.7936959
2.3387499 -5.9305005 -1.8241149
2.5044434 -5.9275599 -1.8412607
3.0216699 -5.9173226 -1.90114
3.3854198 -5.9075818 -1.9482588
3.6702929 -5.7435288 -1.9503305
3.8097363 -5.6562705 -1.951346
3.9470897 -5.5655808 -1.9523474
4.3456736 -5.2734637 -1.9552603
4.8425684 -4.8392472 -1.9589081
5.0747461 -4.6040845 -1.96062
5.1865234 -4.4822221 -1.9614462
5.2953124 -4.3575945 -1.9622519
5.4010348 -4.2302876 -1.9630362
5.5036426 -4.100368 -1.9637985
5.6030664 -3.9679179 -1.9645392
5.7920799 -3.6957228 -1.9659514
6.0500975 -3.2704587 -1.9678923
6.1291013 -3.1245151 -1.9684902
6.2044921 -2.9766307 -1.9690624
6.5257516 -2.2112122 -1.9715338
6.5785742 -2.0535848 -1.9719476
6.6274805 -1.8946731 -1.9723337
6.7134762 -1.5733807 -1.9730222
6.8125291 -1.0842669 -1.973843
6.8583102 -0.75459778 -1.9742465
6.8877048 -0.42300782 -1.9745337
6.8962402 -0.25675657 -1.9746331
6.9006834 -0.090335689 -1.9747037
6.9010057 0.076149292 -1.9747447
6.8971972 0.24259093 -1.9747561
6.8611131 0.7406317 -1.9746145
6.840879 0.90586853 -1.9745086
6.678916 1.7215917 -1.9735425
6.6344919 1.8819262 -1.9732628
6.5861521 2.0410955 -1.9729546
6.5338669 2.198993 -1.9726182
6.3539844 2.664104 -1.9714427
6.2151952 2.9660649 -1.9705223
6.1402636 3.1143291 -1.970022
5.9796581 3.4049835 -1.9689431
5.7125487 3.8249347 -1.9671344
5.5176954 4.0932245 -1.9658062
5.310029 4.3514276 -1.964384
5.2015429 4.4765496 -1.9636387
4.7958789 4.5479951 -1.8911972
4.5772362 4.5553775 -1.8478023
4.250205 4.6589961 -1.8044871
4.1347752 4.75805 -1.8036861
4.0169725 4.8541999 -1.8028679
3.8969042 4.9473944 -1.8020325
3.7746582 5.0375676 -1.801181
3.6502733 5.1246829 -1.8003134
2.9995215 5.512692 -1.7957586
2.8641405 5.5804863 -1.7948083
2.7272265 5.6449237 -1.7938461
2.5888476 5.7059708 -1.7928725
2.4491405 5.7635894 -1.7918887
2.0225682 5.9156451 -1.7888794
1.4398828 6.0689688 -1.7847562
0.69709957 6.17981 -1.7794802
0.54750001 6.1911173 -1.7784148
0.098193355 6.2033024 -1.7752109
-0.051425781 6.2001309 -1.7741421
-0.34996092 6.1829901 -1.7720075
-0.49871093 6.1690373 -1.7709423
-0.94180661 6.1058502 -1.7677652
-1.0881445 6.0777421 -1.766714
-1.2337109 6.0461431 -1.7656676
-1.3783886 6.0110784 -1.7646267
-1.5220703 5.9725761 -1.7635922
-1.8062598 5.8853717 -1.7615435
-2.3595214 5.6710663 -1.7575445
-2.4942577 5.609385 -1.7565686
-2.7588573 5.4765692 -1.754649
-2.8886034 5.4055195 -1.7537063
-3.142627 5.2543716 -1.7518579
-3.2667773 5.1743631 -1.7509533
-3.5089843 5.0057316 -1.7491851
-3.9673338 4.6354485 -1.7458276
-4.0917673 4.5537543 -1.7517331
-4.2817969 4.540019 -1.785673
-4.4858594 4.532176 -1.8246298
-4.6989059 4.5237908 -1.8663571
-4.8720212 4.4690948 -1.8917352
-5.2716503 3.9726579 -1.8887674
-5.539248 3.5772796 -1.8867654
-5.6220603 3.4414787 -1.8861427
-5.9203806 2.880352 -1.8838828
-5.9865136 2.7359636 -1.8833771
-6.0492282 2.5901091 -1.8828955
-6.1084571 2.4428418 -1.8824384
-6.3101172 1.8414074 -1.880859
-6.4236231 1.3796375 -1.8799415
-6.4541407 1.2241229 -1.8796874
-6.4809961 1.0679511 -1.8794595
-6.5041699 0.9112103 -1.8792574
-6.5236521 0.75398314 -1.8790818
-6.5394335 0.59635437 -1.8789325
-6.5514746 0.43841124 -1.8788098
-6.559824 0.28023377 -1.8787134
-6.564414 0.12191467 -1.8786438
-6.5624509 -0.19481811 -1.8785839
-6.5138474 -0.8262701 -1.8787839
-6.4924216 -0.98321593 -1.8789004
-6.4673047 -1.139624 -1.8790432
-6.4385252 -1.2954102 -1.8792125
-6.3699512 -1.6047864 -1.8796297
-6.3302341 -1.7582055 -1.8798777
-6.1354785 -2.3614864 -1.8811272
-6.0169435 -2.6557434 -1.881905
-5.9524608 -2.8007436 -1.8823315
-5.8845801 -2.9442198 -1.8827826
-5.8133106 -3.0860875 -1.8832583
-5.7387009 -3.2262731 -1.8837582
-5.5796094 -3.5012784 -1.8848296
-5.4951854 -3.6359518 -1.885401
-5.4075975 -3.7686331 -1.8859951
-5.3168554 -3.8992484 -1.8866125
-5.1261325 -4.1540041 -1.8879144
-5.0262694 -4.2780008 -1.8885986
-4.8177443 -4.5188541 -1.8900307
-4.5978708 -4.7497597 -1.8915465
-4.3671384 -4.9701777 -1.8931421
-4.1259961 -5.1795878 -1.8948144
-3.6145411 -5.563447 -1.8983756
-3.2075877 -5.8189549 -1.9012208
-2.901582 -5.9227452 -1.887156
-2.5579295 -5.9291344 -1.8476859
-2.3911426 -5.9319811 -1.830061
-2.2273242 -5.934608 -1.8137637
-1.7514257 -5.9412546 -1.7723358
-1.597207 -5.9430823 -1.7608725
-1.3097949 -6.0181308 -1.7623163
-1.1649414 -6.0514941 -1.7633425
-1.0192089 -6.0813947 -1.7643757
-0.57785153 -6.1500788 -1.7675102
-0.2808789 -6.1781678 -1.7696234
-0.1318457 -6.1868558 -1.770685
0.017431641 -6.1919589 -1.7717493
0.16689453 -6.1934605 -1.7728158
0.46595702 -6.1856513 -1.7749522
0.61540037 -6.1763287 -1.7760209
1.2104882 -6.1029234 -1.7802856
1.5052246 -6.0446196 -1.7824029
1.79708 -5.9720197 -1.784503
1.9438671 -5.9368043 -1.7874762
2.5961719 -5.9258595 -1.8511901
2.7668848 -5.9225602 -1.8704714
3.1194336 -5.9152164 -1.9134917
3.3019531 -5.9111443 -1.9373839
3.4639158 -5.8642149 -1.9488293
3.6062596 -5.782023 -1.9498643
3.7466209 -5.6963353 -1.9508861
4.0211425 -5.514668 -1.9528879
4.2866993 -5.3195972 -1.9548287
4.4158983 -5.2171655 -1.9557748
4.9070311 -4.7762375 -1.9593829
5.0230079 -4.6585193 -1.9602381
5.3533788 -4.2884521 -1.9626825
5.5582809 -4.0283976 -1.9642053
5.6559472 -3.8945992 -1.9649338
5.7503028 -3.7583792 -1.965639
5.8413086 -3.6198385 -1.9663208
5.928906 -3.4790435 -1.9669787
6.1706934 -3.0440457 -1.9688056
6.2440915 -2.8951366 -1.9693643
6.5004783 -2.2823598 -1.971337
6.5550585 -2.1253502 -1.971763
6.6953611 -1.6467297 -1.972876
6.7998533 -1.1587902 -1.9737353
6.8266406 -0.99454707 -1.9739648
6.867959 -0.66426939 -1.9743365
6.8824706 -0.49844727 -1.9744787
6.8928709 -0.33230406 -1.9745915
6.9013767 0.0005224609 -1.9747295
6.8994431 0.16699706 -1.9747546
6.8933787 0.3333728 -1.97475
6.8832226 0.49953917 -1.9747163
6.8015919 1.1601361 -1.9742874
6.7710056 1.3237426 -1.9741073
6.7364063 1.4865295 -1.9738982
6.6551657 1.8092254 -1.9733936
6.608613 1.9689398 -1.9730982
6.3175974 2.747185 -1.9712024
6.2480273 2.8980992 -1.9707408
6.0978708 3.1944361 -1.969738
6.0173826 3.3396819 -1.9691974
5.9333787 3.4828582 -1.9686309
5.8458886 3.6238763 -1.9680394
5.754951 3.7626555 -1.9674226
5.1326561 4.5362568 -1.9600157
4.3018847 4.6130571 -1.8048452
4.1963868 4.7233906 -1.8078723
3.9517381 4.9054265 -1.8024139
3.8304393 4.9969792 -1.8015695
3.7070312 5.0854902 -1.8007094
3.581543 5.1709113 -1.7998337
3.3246777 5.3323016 -1.7980376
3.1934373 5.4081802 -1.7971187
2.7896092 5.6160722 -1.7942846
2.3723438 5.7935843 -1.7913476
1.5067188 6.0544314 -1.7852298
1.2115234 6.1128788 -1.7831362
0.91421872 6.1568952 -1.7810245
0.76499021 6.1734719 -1.779963
0.31600586 6.2014642 -1.7767651
0.16622069 6.2035489 -1.7756964
-0.13300781 6.1968789 -1.7735591
-0.43121094 6.1758146 -1.7714257
-0.57969725 6.1599188 -1.7703623
-0.72767574 6.1404572 -1.7693014
-1.3127735 6.0274372 -1.7650988
-1.6000586 5.9501262 -1.7630304
-1.7421093 5.9063663 -1.7620062
-1.8829882 5.8592439 -1.7609897
-2.160918 5.7550397 -1.7589817
-2.2978125 5.6980305 -1.7579913
-2.4332225 5.6377983 -1.7570108
-2.699326 5.5078301 -1.7550812
-3.2106347 5.2110662 -1.7513627
-3.4546971 5.0450225 -1.7495818
-3.5736034 4.9577603 -1.7487129
-3.690371 4.8677373 -1.7478585
-3.804873 4.7750092 -1.7470196
-3.9170897 4.6796355 -1.7461965
-4.3920407 4.5358024 -1.8066025
-4.8193164 4.5189738 -1.8903805
-5.2286911 4.0308661 -1.8890874
-5.3224411 3.9021258 -1.8883883
-5.5005565 3.6383269 -1.8870556
-5.5848336 3.5034075 -1.8864226
-6.1931348 2.2126427 -1.8817804
-6.2433982 2.0621827 -1.8813866
-6.2900782 1.9106066 -1.8810182
-6.3331933 1.7580029 -1.880675
-6.4085255 1.4500402 -1.8800656
-6.440742 1.2948523 -1.8797995
-6.4941211 0.98247617 -1.879346
-6.5464745 0.51018858 -1.8788623
-6.5564842 0.35210997 -1.8787539
-6.5642285 -0.12289307 -1.8785882
-6.5593262 -0.28119993 -1.8785864
-6.5507321 -0.43934631 -1.8786108
-6.5383887 -0.59724605 -1.8786621
-6.5026169 -0.91198361 -1.8788443
-6.4520507 -1.2247283 -1.8791324
-6.4212694 -1.3801428 -1.8793159
-6.3487306 -1.688623 -1.8797619
-6.3070211 -1.8415273 -1.880024
-6.2617283 -1.9934356 -1.8803118
-6.1045017 -2.4423113 -1.8813297
-6.0450583 -2.5893924 -1.8817196
-5.9821677 -2.7350564 -1.8821347
-5.7729979 -3.1627991 -1.8835281
-5.6965818 -3.302038 -1.8840411
-5.6168747 -3.4394684 -1.8845782
-5.5339355 -3.575021 -1.8851385
-5.4477634 -3.7086163 -1.8857223
-5.3584471 -3.840179 -1.8863293
-5.2660251 -3.9696395 -1.8869588
-5.1705174 -4.0969214 -1.8876109
-5.0719824 -4.2219639 -1.8882852
-4.8661227 -4.4650011 -1.8896978
-4.6487794 -4.6982183 -1.8911951
-4.5359669 -4.8109641 -1.891974
-4.4204688 -4.9210615 -1.8927728
-4.3023338 -5.028429 -1.8935909
-4.0584373 -5.2347555 -1.8952838
-3.6744823 -5.5222855 -1.8979574
-3.5419238 -5.6120501 -1.8988825
-3.131582 -5.8623228 -1.9017532
-2.981709 -5.9211569 -1.89695
-2.8063965 -5.9245834 -1.8758074
-2.3013964 -5.9334412 -1.8210068
-2.1391113 -5.9359522 -1.8054109
-1.8221679 -5.9403625 -1.777921
-1.5188184 -5.9634752 -1.7608373
-1.3753124 -6.0018339 -1.7618527
-0.79249996 -6.1207371 -1.7659848
-0.49697265 -6.1591544 -1.7680851
-0.34847656 -6.1730418 -1.7691422
-0.19958983 -6.1833506 -1.7702023
0.24848633 -6.1927648 -1.7733983
0.39803711 -6.1886878 -1.7744665
0.54754883 -6.1810083 -1.7755356
0.84602535 -6.154808 -1.7776721
0.99483395 -6.1362863 -1.7787386
1.1432617 -6.1141624 -1.7798032
1.2911718 -6.0884361 -1.780865
1.4385058 -6.0591211 -1.7819233
1.5851855 -6.0262232 -1.7829781
1.731123 -5.989758 -1.7840279
2.0303514 -5.9355102 -1.7949786
2.3537695 -5.9302402 -1.8256271
2.688916 -5.9240894 -1.8615344
2.8615429 -5.9206586 -1.8816049
3.0379784 -5.9169755 -1.9031771
3.2184765 -5.9130282 -1.9263248
3.5418456 -5.8197956 -1.9493959
3.6831348 -5.7356935 -1.9504238
4.0944824 -5.46275 -1.9534234
4.6106935 -5.0526018 -1.9572035
4.733408 -4.9421916 -1.9581051
4.853447 -4.8287511 -1.9589882
4.9706836 -4.7123518 -1.9598522
5.0851073 -4.5930567 -1.9606966
5.3050876 -4.3460627 -1.9623241
5.5128613 -4.0883622 -1.9638672
5.6119823 -3.9556787 -1.9646057
5.7078514 -3.8205545 -1.9653213
6.2111816 -2.9630187 -1.9691137
6.3502731 -2.6614482 -1.9701767
6.4142575 -2.508121 -1.9706689
6.4744139 -2.3532274 -1.9711344
6.5307226 -2.1968579 -1.9715726
6.5832028 -2.0391104 -1.9719839
6.717041 -1.5585967 -1.9730511
6.786377 -1.2331787 -1.9736217
6.8149705 -1.0692548 -1.9738641
6.8395309 -0.90465271 -1.9740776
6.8600097 -0.73947507 -1.974262
6.8763766 -0.57383484 -1.9744176
6.8886423 -0.40782288 -1.9745439
6.9008789 -0.07512024 -1.9747086
6.8594337 0.75575745 -1.9746062
6.8141599 1.085567 -1.9743598
6.7526073 1.4126837 -1.9739965
6.7158008 1.574978 -1.9737716
6.6750193 1.7362945 -1.973518
6.4724216 2.3697655 -1.9722195
6.1332321 3.127794 -1.9699749
6.0544043 3.2739501 -1.9694464
5.886045 3.5600872 -1.9683111
5.79667 3.699893 -1.9677058
5.4059176 4.2354231 -1.9650415
5.3002148 4.3629804 -1.9643167
5.0034962 4.5408087 -1.9333529
4.7754588 4.5486908 -1.8871024
4.5577831 4.5560246 -1.8439828
4.2397265 4.6681705 -1.8044143
4.1240916 4.7669644 -1.803612
4.0060935 4.8628507 -1.8027922
3.8858104 4.9557633 -1.8019552
3.7633593 5.0456648 -1.8011022
3.6388085 5.1324968 -1.8002334
3.3836522 5.2967706 -1.7984505
3.121084 5.4482169 -1.7966113
2.8516796 5.586524 -1.7947208
2.7146289 5.65065 -1.7937573
2.5761523 5.711381 -1.7927831
2.2951856 5.8225384 -1.7908034
2.1528418 5.8729129 -1.7897995
1.8649707 5.9631257 -1.7877656
1.7196288 6.0029192 -1.7867373
1.4264355 6.0718069 -1.7846608
1.2787793 6.1008625 -1.7836137
1.1305859 6.1263213 -1.7825619
0.98190427 6.1481657 -1.7815057
0.53381836 6.1919684 -1.7783176
0.38407224 6.1993232 -1.7772503
0.2342871 6.2030535 -1.7761822
0.08452148 6.2031622 -1.7751132
-0.21447265 6.1925578 -1.7729766
-0.36356443 6.1818609 -1.77191
-0.51228517 6.167582 -1.7708452
-0.66051757 6.1497431 -1.769783
-0.80818355 6.1283488 -1.768724
-0.95519531 6.1034307 -1.7676688
-1.3915625 6.0077033 -1.7645319
-1.535166 5.9688883 -1.7634978
-1.677705 5.926662 -1.7624707
-2.5064843 5.6035843 -1.7564801
-2.6394629 5.5384526 -1.7555157
-2.7708201 5.4701996 -1.754562
-3.0281639 5.3245149 -1.7526915
-3.1540625 5.2471771 -1.7517749
-3.3999901 5.0837407 -1.7499814
-3.5198631 4.9977522 -1.7491058
-3.6375878 4.9089704 -1.7482449
-3.8664062 4.7232904 -1.7465682
-3.9773924 4.6264896 -1.7457538
-4.504961 4.5314326 -1.8283267
-5.1851072 4.0886259 -1.8894122
-5.2802343 3.9608819 -1.8887032
-5.5469532 3.5649371 -1.8867074
-5.7087498 3.2911351 -1.8854889
-5.7846971 3.15151 -1.8849144
-5.9265623 2.8672063 -1.8838354
-6.1137109 2.4293053 -1.8823978
-6.1691308 2.2806013 -1.8819678
-6.2693162 1.979591 -1.8811826
-6.3551855 1.6743164 -1.8804984
-6.4265528 1.36544 -1.8799173
-6.5406933 0.58191586 -1.8789202
-6.5603809 0.26575318 -1.878706
-6.5620313 -0.20930481 -1.8785837
-6.530117 -0.68328977 -1.8787011
-6.5120506 -0.84063476 -1.8787936
-6.4029102 -1.4646331 -1.8794273
-6.3264256 -1.7721814 -1.8799015
-6.2827439 -1.924552 -1.8801779
-6.2355075 -2.0758767 -1.8804798
-6.1303611 -2.3750517 -1.8811609
-6.0724998 -2.5227427 -1.8815392
-5.9463868 -2.8139222 -1.8823718
-5.8066306 -3.0989716 -1.8833029
-5.6534958 -3.37726 -1.8843311
-5.5720115 -3.5136745 -1.8848809
-5.4872947 -3.6481678 -1.8854544
-5.3994236 -3.7806637 -1.8860507
-5.2142868 -4.039372 -1.8873119
-5.1171384 -4.1654396 -1.8879761
-5.0169821 -4.2892232 -1.8886621
-4.9138865 -4.4106412 -1.8893696
-4.80792 -4.529633 -1.8900983
-4.6991305 -4.6461344 -1.8908477
-4.4732714 -4.8713794 -1.8924075
-4.356328 -4.9799919 -1.8932168
-3.9901659 -5.2890515 -1.8957583
-3.8633788 -5.3862672 -1.8966408
-3.6024218 -5.5716586 -1.8984601
-3.1948924 -5.8262939 -1.9013097
-3.0550096 -5.9047079 -1.90229
-2.8855565 -5.9230585 -1.8852236
-2.7122753 -5.9263511 -1.8648994
-2.5425391 -5.9294047 -1.8460165
-2.0516601 -5.9372344 -1.7974298
-1.4406054 -5.9848318 -1.7613904
-1.2965918 -6.0213232 -1.7624099
-0.85929686 -6.1100454 -1.7655106
-0.11820313 -6.1874704 -1.7707821
0.03109375 -6.1922436 -1.7718469
0.33010742 -6.1909852 -1.7739813
0.92729491 -6.1451511 -1.7782545
1.0758886 -6.1246591 -1.7793198
1.2240331 -6.1005707 -1.7803828
1.3716406 -6.0728879 -1.7814429
1.5186328 -6.0416169 -1.7824993
1.6649121 -6.0067663 -1.7835513
1.8104101 -5.9683599 -1.7845989
2.279336 -5.9315119 -1.8182194
2.4439647 -5.9286523 -1.8348849
2.782666 -5.9222474 -1.8723055
2.9573338 -5.9186807 -1.8931854
3.1359472 -5.914856 -1.9156082
3.6191893 -5.774334 -1.9499584
3.7593846 -5.6883326 -1.9509792
4.0334568 -5.5060387 -1.9529779
4.1672068 -5.4098468 -1.9539547
4.2986035 -5.3103614 -1.9549159
4.5540724 -5.1017413 -1.9567878
4.6779785 -4.9927292 -1.9576977
4.9177537 -4.7655926 -1.9594619
5.0334864 -4.6476078 -1.9603155
5.1462989 -4.5267625 -1.9611487
5.2561717 -4.403131 -1.961962
5.3630271 -4.2767868 -1.9627539
5.5673532 -4.0162635 -1.964273
5.6646872 -3.882236 -1.9649991
6.0205665 -3.3229122 -1.9676694
6.1775389 -3.0305068 -1.9688576
6.2506247 -2.8814261 -1.969414
6.4475489 -2.4237707 -1.9709262
6.5598536 -2.110929 -1.9718004
6.6101952 -1.9524719 -1.9721966
6.6990914 -1.631983 -1.9729059
6.7375488 -1.4701464 -1.9732182
6.7720408 -1.3073846 -1.9735022
6.8024802 -1.1438006 -1.9737576
6.828867 -0.97949278 -1.973984
6.8512106 -0.81456357 -1.9741818
6.8694434 -0.64912289 -1.9743506
6.883574 -0.48326415 -1.97449
6.8936329 -0.31709716 -1.9746004
6.8820896 0.51473081 -1.9747118
6.8674316 0.68056577 -1.9746456
6.848701 0.84598142 -1.9745505
6.7989645 1.1751385 -1.9742721
6.6940331 1.6631505 -1.9736367
6.6041503 1.9834789 -1.9730699
6.5532813 2.1418512 -1.9727435
6.439961 2.4544988 -1.9720074
6.3775582 2.6085858 -1.9715979
6.3113575 2.7610517 -1.971161
6.1678905 3.0607483 -1.9702066
6.0906639 3.2077966 -1.9696896
5.9255176 3.4958403 -1.9685779
5.8377051 3.6366582 -1.967984
5.6519041 3.911463 -1.9667218
5.4528904 4.1766081 -1.9653629
5.3486228 4.3053584 -1.9646487
5.24124 4.4314628 -1.9639114
4.8777146 4.5451813 -1.9077089
4.1769433 4.7224417 -1.8039788
4.0599608 4.8196526 -1.8031665
3.8192675 5.0051994 -1.8014916
3.6956444 5.0934305 -1.8006299
3.3127344 5.3393779 -1.7979541
2.7770703 5.6219354 -1.7941965
2.0746875 5.8989301 -1.7892474
1.9306933 5.9438763 -1.7882303
1.7857226 5.9852848 -1.787205
1.6399024 6.0231366 -1.7861731
1.4932715 6.0574174 -1.7851346
1.3459277 6.0881085 -1.7840899
1.0495019 6.1386933 -1.7819858
0.9005664 6.1585565 -1.7809275
0.75129879 6.1748075 -1.7798657
0.60177732 6.1874347 -1.7788016
0.45209959 6.1964335 -1.7777352
0.15251952 6.2035589 -1.7755988
0.0028417967 6.2017021 -1.7745299
-0.29588866 6.1871662 -1.7723944
-0.59325194 6.1582842 -1.7702651
-0.74118161 6.138504 -1.7692046
-0.88851559 6.1151862 -1.7681476
-1.0351562 6.0883451 -1.7670947
-1.4700683 5.9869404 -1.7639668
-1.6131152 5.9462638 -1.7629364
-1.7550488 5.902194 -1.7619129
-2.0353124 5.8040104 -1.7598898
-2.3102441 5.6926579 -1.7579013
-2.4455273 5.6321354 -1.7569216
-2.9703221 5.3586688 -1.7531122
-3.0971093 5.2826777 -1.7521896
-3.2219434 5.2037272 -1.7512802
-3.3448339 5.1218753 -1.7503839
-3.5843554 4.9496479 -1.7486343
-3.7009277 4.8593793 -1.7477813
-3.9272168 4.6707854 -1.7461221
-4.0368552 4.5725837 -1.7453167
-4.2098341 4.5427384 -1.7721804
-5.041338 4.2703962 -1.8904806
-5.2374024 4.0191889 -1.8890226
-5.3308592 3.8902471 -1.8883256
-5.4212012 3.7591839 -1.8876504
-5.5083885 3.626071 -1.8869969
-5.6731348 3.3539777 -1.8857577
-5.8247461 3.0745904 -1.8846105
-5.8955274 2.9323559 -1.8840722
-6.0268846 2.6431952 -1.8830673
-6.3761034 1.5903686 -1.8803295
-6.4716797 1.1246819 -1.8795391
-6.5631833 0.17936645 -1.8786659
-6.558691 -0.29566956 -1.8785875
-6.549746 -0.45379698 -1.8786144
-6.5370798 -0.61167479 -1.8786682
-6.4493747 -1.2389697 -1.8791482
-6.4182615 -1.3943176 -1.8793341
-6.3834763 -1.5489068 -1.8795463
-6.3030467 -1.8554696 -1.8800491
-6.2082129 -2.1579964 -1.8806555
-6.1554785 -2.307538 -1.8809973
-6.0992188 -2.455826 -1.8813641
-6.039443 -2.6027787 -1.8817565
-5.9762497 -2.7482975 -1.8821738
-5.9095993 -2.8923335 -1.8826159
-5.8395605 -3.0347934 -1.8830829
-5.7661524 -3.175602 -1.8835739
-5.6094236 -3.451937 -1.8846283
-5.257412 -3.9813657 -1.8870176
-5.1616211 -4.1084485 -1.8876718
-4.9610934 -4.3557768 -1.8890454
-4.1704884 -5.1424327 -1.8945056
-3.7930467 -5.4380603 -1.8971307
-3.118789 -5.8694897 -1.901843
-2.9655077 -5.9214811 -1.8949515
-2.6192284 -5.9280457 -1.854421
-2.4512889 -5.930974 -1.8362994
-1.6529394 -5.94244 -1.7649014
-1.5058594 -5.9671206 -1.7609289
-1.3621289 -6.0051718 -1.7619457
-1.0721778 -6.0709496 -1.7640002
-0.92598629 -6.0986266 -1.7650372
-0.63150388 -6.1434593 -1.7671287
-0.48341796 -6.160573 -1.7681817
-0.33487305 -6.1741319 -1.7692388
-0.18596679 -6.1841159 -1.7702993
0.11263672 -6.1933293 -1.7724285
0.41170898 -6.1881385 -1.7745643
0.56119138 -6.1801276 -1.7756332
0.71053708 -6.1685014 -1.7767019
1.0084277 -6.1344156 -1.778836
1.1567773 -6.1119585 -1.7799002
1.4519531 -6.0562601 -1.78202
1.5985644 -6.0230341 -1.7830741
1.8892773 -5.9459052 -1.7851672
2.0449219 -5.935288 -1.7962714
3.0542967 -5.916626 -1.9052284
3.2352049 -5.9126534 -1.9285226
3.411787 -5.893168 -1.9484504
3.5548339 -5.8122525 -1.9494903
3.6959472 -5.7278299 -1.9505172
4.3692775 -5.254705 -1.9554332
4.4969239 -5.1502428 -1.9563687
4.8642578 -4.818233 -1.9590679
4.9812598 -4.7015686 -1.9599302
5.3148532 -4.334517 -1.9623966
5.4200196 -4.2067218 -1.963177
5.5220604 -4.0763383 -1.9639359
5.6208692 -3.9434295 -1.9646719
5.716455 -3.8080807 -1.9653857
5.8975291 -3.5303829 -1.9667429
6.0648141 -3.2439184 -1.9680035
6.2178807 -2.949379 -1.9691645
6.2889352 -2.7993102 -1.9697067
6.4199119 -2.4940166 -1.9707125
6.5356932 -2.1824796 -1.9716114
6.6802831 -1.7051678 -1.9727546
6.7205663 -1.543789 -1.9730798
6.8616695 -0.72433835 -1.9742776
6.9010544 -0.059888303 -1.9747134
6.9006152 0.10659851 -1.9747491
6.8960447 0.27302244 -1.9747552
6.874609 0.60527283 -1.9746794
6.8577147 0.77089047 -1.9745975
6.8367481 0.93603331 -1.9744862
6.8116894 1.1005969 -1.9743457
6.7494235 1.4275726 -1.9739773
6.7122655 1.5897808 -1.9737498
6.625947 1.9111309 -1.9732085
6.5768747 2.0700774 -1.9728953
6.5239158 2.2277336 -1.972554
6.4063768 2.5387957 -1.9717873
6.2736912 2.8435473 -1.9709113
5.8780174 3.572973 -1.9682568
5.598877 3.9847953 -1.9663603
5.4992285 4.1172576 -1.9656799
5.3963766 4.2471919 -1.9649762
5.2903905 4.374505 -1.964249
4.9822068 4.5415545 -1.9289886
4.7551465 4.5493865 -1.8830352
4.1133986 4.7758503 -1.8035378
3.8747265 4.964107 -1.801878
3.6273046 5.1402764 -1.800153
3.5005369 5.2237077 -1.7992675
3.108916 5.4548283 -1.7965262
2.9748633 5.5253434 -1.7955856
2.8392284 5.5925236 -1.7946332
2.7020311 5.6563435 -1.7936687
2.4234276 5.7737579 -1.7917078
2.2821875 5.827292 -1.7907119
1.9962401 5.9238968 -1.7886935
1.7062695 6.0063858 -1.786643
1.1170214 6.1284671 -1.7824655
0.96826172 6.1499848 -1.7814087
0.81916016 6.1678753 -1.7803487
0.66976559 6.1821465 -1.7792856
0.37036133 6.1998115 -1.7771527
-0.078759767 6.1991606 -1.7739468
-0.22815429 6.1917276 -1.7728786
-0.52586913 6.1661005 -1.7707479
-0.82166016 6.1262164 -1.7686273
-1.2602344 6.039988 -1.7654767
-1.4047363 6.0042925 -1.7644371
-1.6906934 5.922636 -1.762377
-2.3842773 5.6600213 -1.7573653
-2.5187206 5.5977578 -1.7563913
-3.1654882 5.2399516 -1.7516916
-3.4110253 5.075994 -1.7499008
-3.5307128 4.9897418 -1.7490264
-3.8766308 4.7145476 -1.7464933
-4.5241013 4.5306854 -1.8320457
-4.738945 4.5221977 -1.8743037
-4.9951463 4.3261762 -1.8908234
-5.096035 4.2027607 -1.8900744
-5.1939259 4.0770369 -1.8893465
-5.2887793 3.9490898 -1.8886397
-5.380537 3.8189898 -1.8879544
-5.5546484 3.5525775 -1.8866497
-5.7158203 3.278446 -1.8854355
-5.8637891 2.9971709 -1.8843139
-6.0603318 2.5632763 -1.88281
-6.1740036 2.2669475 -1.8819296
-6.2255759 2.1169097 -1.8815267
-6.3179588 1.8134887 -1.8807967
-6.395947 1.5061615 -1.8801684
-6.4294629 1.3512456 -1.8798932
-6.4855175 1.0393219 -1.8794204
-6.5080175 0.88248658 -1.8792232
-6.5268259 0.72517943 -1.8790524
-6.5532908 0.40949461 -1.8787901
-6.5650682 -0.065435179 -1.8785956
-6.5432911 -0.53998655 -1.8786404
-6.5286036 -0.69769162 -1.8787085
-6.4880958 -1.0118645 -1.8789245
-6.4623046 -1.1681689 -1.8790722
-6.278574 -1.9384441 -1.8802044
-6.1798825 -2.2397521 -1.8808388
-6.0670409 -2.5361876 -1.8815752
-5.9403024 -2.8271041 -1.8824121
-5.8717871 -2.9702899 -1.8828677
-5.7999215 -3.1118557 -1.8833477
-5.7246971 -3.2517245 -1.8838522
-5.6461716 -3.3898211 -1.8843805
-5.5643945 -3.5260599 -1.8849325
-5.4793844 -3.6603754 -1.8855081
-5.2999024 -3.9229162 -1.886728
-5.2055173 -4.0509992 -1.8873718
-4.904326 -4.4216232 -1.8894354
-4.7981052 -4.5403886 -1.8901659
-4.689043 -4.6566582 -1.8909173
-4.5772071 -4.7703571 -1.8916891
-4.3455176 -4.9897861 -1.8932916
-4.2257228 -5.0953903 -1.8941222
-3.9786816 -5.2980576 -1.8958383
-3.7220311 -5.4889517 -1.8976257
-3.5902929 -5.5798368 -1.8985449
-3.3202832 -5.7522092 -1.9004321
-3.0421093 -5.9117107 -1.9023803
-2.8695507 -5.9233704 -1.8833041
-2.6966209 -5.9266391 -1.863114
-2.5271971 -5.9296713 -1.8443612
-2.3609569 -5.932478 -1.8269842
-2.0370898 -5.9374442 -1.7961279
-1.8789843 -5.93962 -1.7825538
-1.5706934 -5.9487076 -1.7604704
-1.4274902 -5.9883118 -1.7614834
-1.1383399 -6.0572233 -1.7635312
-0.99250001 -6.0864835 -1.7645653
-0.84585935 -6.1122556 -1.7656057
-0.69861329 -6.1345124 -1.7666519
-0.25363281 -6.1800256 -1.7698174
0.044755857 -6.1924996 -1.7719443
0.19424804 -6.193347 -1.7730108
0.3437793 -6.1905842 -1.774079
0.64270508 -6.1742296 -1.7762164
0.7919336 -6.1606345 -1.7772845
1.2375586 -6.098186 -1.78048
1.3851172 -6.0701733 -1.7815396
1.6782324 -6.0033994 -1.7836474
1.8236231 -5.9646692 -1.7846941
1.9727637 -5.936378 -1.7899492
2.1322558 -5.9339228 -1.8041973
2.4591601 -5.92838 -1.8364754
2.798496 -5.9219317 -1.874154
3.1524804 -5.9144917 -1.9177395
3.6320996 -5.7666173 -1.9500523
3.9100096 -5.5905366 -1.952077
4.0458007 -5.4973722 -1.9530679
4.4392576 -5.198092 -1.955946
4.5655079 -5.0918961 -1.9568719
4.6891794 -4.9826136 -1.9577798
4.8101854 -4.8702497 -1.9586697
4.9284472 -4.7549295 -1.9595407
5.0438766 -4.6366878 -1.9603922
5.1564841 -4.5155749 -1.961224
5.2660642 -4.3917022 -1.9620352
5.5763769 -4.0041161 -1.9643402
5.673418 -3.8698773 -1.965064
5.9445505 -3.4530613 -1.9670966
6.1080079 -3.164324 -1.9683304
6.1843553 -3.0169683 -1.9689096
6.3261619 -2.7166812 -1.9699916
6.3914843 -2.5639348 -1.9704934
6.5107517 -2.2537537 -1.9714168
6.5646191 -2.0965118 -1.971838
6.6145992 -1.9379263 -1.9722315
6.7408786 -1.4553186 -1.9732454
6.7749805 -1.2924658 -1.9735266
6.8310938 -0.96444213 -1.9740036
6.8530469 -0.79947507 -1.9741986
6.8846774 -0.46810117 -1.9745013
6.8943357 -0.30189696 -1.974609
6.8918357 0.36377683 -1.9747462
6.846777 0.86106259 -1.9745402
6.7963085 1.1901025 -1.9742565
6.7649899 1.3535827 -1.9740711
6.5996485 1.9980212 -1.9730411
6.5484471 2.1562614 -1.9727125
6.4344139 2.4686511 -1.971971
6.3716698 2.6226044 -1.971559
6.2348924 2.9255066 -1.9706535
6.0834179 3.2211516 -1.9696411
6.002295 3.3660114 -1.9690957
5.9176168 3.5088165 -1.9685247
5.8295116 3.6494207 -1.9679284
5.6430759 3.9237957 -1.9666617
5.4434958 4.1884832 -1.9652988
4.6356249 4.5534258 -1.8592803
4.4257226 4.5621414 -1.8187112
4.2811427 4.6316228 -1.8047014
4.166338 4.7314472 -1.8039052
3.6842382 5.1013446 -1.8005502
3.5583887 5.1861868 -1.7996718
2.9010448 5.5624175 -1.7950674
2.7645311 5.6277618 -1.7941083
2.6265721 5.6897354 -1.793138
2.3465135 5.8034039 -1.7911655
2.0615625 5.9031816 -1.7891548
1.6265429 6.0264139 -1.7860785
1.4798144 6.0603714 -1.7850392
1.035918 6.1406546 -1.7818893
0.88694334 6.160192 -1.7808306
0.58812499 6.1884027 -1.7787042
0.28861329 6.2021136 -1.7765698
-0.16032226 6.1955523 -1.7733639
-0.60679686 6.1566253 -1.7701681
-0.75466794 6.136519 -1.7691079
-0.90191406 6.1128802 -1.7680514
-1.6261133 5.9423795 -1.7628427
-2.3226757 5.6872635 -1.7578112
-2.4578223 5.626441 -1.7568326
-3.1085839 5.2755923 -1.752106
-3.2332811 5.1963701 -1.7511975
-3.5951073 4.9415131 -1.7485555
-3.7114646 4.8509855 -1.7477041
-3.8255467 4.757781 -1.7468679
-4.4295702 4.5343585 -1.8137875
-4.9483495 4.3814678 -1.8911701
-5.0505662 4.2591314 -1.890412
-5.1498241 4.1344376 -1.8896747
-5.3392382 3.8783586 -1.8882629
-5.429297 3.7471075 -1.8875897
-5.516201 3.6137946 -1.8869383
-5.5999022 3.4785407 -1.8863095
-5.7575097 3.2023888 -1.8851202
-5.8313475 3.0616565 -1.8845605
-5.9018359 2.9192877 -1.8840243
-5.9689255 2.7753077 -1.8835119
-6.0325584 2.6298511 -1.8830236
-6.0927243 2.4829462 -1.8825601
-6.2025876 2.1852167 -1.8817066
-6.3406639 1.7300085 -1.8806152
-6.3795018 1.5762811 -1.8803021
-6.4146972 1.4217334 -1.880015
-6.474072 1.1104095 -1.8795187
-6.4982519 0.95379817 -1.8793097
-6.5187402 0.79670894 -1.8791269
-6.5355077 0.63916928 -1.8789705
-6.548574 0.48131651 -1.8788406
-6.5635839 -0.15183593 -1.8785861
-6.5487499 -0.46822569 -1.8786181
-6.519033 -0.7835809 -1.878757
-6.4466891 -1.2532012 -1.8791641
-6.4152441 -1.4084674 -1.8793523
-6.2990232 -1.8693615 -1.8800744
-6.2035642 -2.1716876 -1.8806857
-5.9703126 -2.7615161 -1.8822131
-5.5184178 -3.5995767 -1.8852435
-5.4316697 -3.7328155 -1.8858316
-5.2487988 -3.9930694 -1.8870764
-4.8467088 -4.4867387 -1.8898315
-4.738945 -4.6041393 -1.8905733
-4.6283789 -4.7190256 -1.8913357
-4.159287 -5.1518335 -1.8945832
-4.0356541 -5.2530341 -1.8954421
-3.9095702 -5.3513341 -1.8963193
-3.5174706 -5.6281147 -1.8990535
-2.6037598 -5.9283228 -1.8527087
-2.436084 -5.931231 -1.8347119
-2.2715333 -5.9339161 -1.8180603
-2.1097264 -5.9363885 -1.8026965
-1.9505371 -5.9386559 -1.7885733
-6.0578613 -0.10004395 -1.8822078
-6.0536618 -0.24614257 -1.8822036
-6.0460544 -0.39209959 -1.8822241
-6.0349708 -0.5378381 -1.8822693
-6.0204587 -0.68328124 -1.8823389
-5.9282618 -1.260501 -1.8828624
-5.8967481 -1.4032763 -1.8830545
-5.7820411 -1.8266885 -1.8837745
-5.689033 -2.1040905 -1.8843738
-5.5251365 -2.5113771 -1.8854488
-5.3999805 -2.7761528 -1.8862807
-5.2623434 -3.0348446 -1.8872027
-5.1889939 -3.161725 -1.8876967
-5.112617 -3.2868721 -1.8882128
-4.7778907 -3.768698 -1.8904898
-4.6871486 -3.8841293 -1.8911105
-4.4974413 -4.1084933 -1.8924124
-4.398623 -4.217298 -1.8930923
-4.1932521 -4.4278436 -1.8945094
-3.9779296 -4.6285691 -1.8959994
-3.7531445 -4.8189955 -1.8975596
-3.6373827 -4.9102097 -1.8983645
-3.3993065 -5.0843568 -1.9000235
-3.2771289 -5.1671939 -1.9008762
-3.0268848 -5.3241315 -1.9026257
-2.898994 -5.3981385 -1.9035214
-2.7691698 -5.4691076 -1.9044315
-2.6377635 -5.5369935 -1.9053537
-2.5046582 -5.601759 -1.9062887
-2.096211 -5.7769012 -1.9091631
-1.8170117 -5.8773308 -1.9111328
-1.5216894 -5.9200654 -1.8989244
-1.3707129 -5.9217534 -1.8883075
-0.7806738 -5.9266419 -1.8570906
-0.49151367 -5.9280152 -1.8479301
-0.34779295 -5.9284425 -1.8449115
0.081669919 -5.9287024 -1.8419999
0.36815429 -5.9280262 -1.8451626
0.5119043 -5.9274316 -1.8482848
0.65620118 -5.9266639 -1.8524441
0.80123043 -5.9257221 -1.8576504
0.94710934 -5.924602 -1.8639207
1.2421875 -5.9218173 -1.8797244
1.3917285 -5.920145 -1.8893036
1.5428418 -5.9182801 -1.900035
2.006494 -5.9082131 -1.9384164
2.1495311 -5.8612151 -1.9394482
2.5717773 -5.6993952 -1.9424998
2.709873 -5.6386051 -1.9434997
2.9816992 -5.5069232 -1.9454706
3.1152344 -5.4361029 -1.9464401
3.2470508 -5.3620172 -1.9473982
3.3770897 -5.2846994 -1.9483443
3.6314745 -5.120542 -1.9501983
3.8777831 -4.9440012 -1.9519975
4.1153808 -4.7554584 -1.9537373
4.2307224 -4.6568189 -1.9545834
4.7700195 -4.1222749 -1.9585571
4.8699121 -4.0075269 -1.9592968
4.9669528 -3.8903191 -1.9600171
5.0611911 -3.7707279 -1.9607173
5.2407227 -3.5246463 -1.962056
5.3259568 -3.3983121 -1.9626937
5.4080567 -3.2698789 -1.9633098
5.5627832 -3.0070293 -1.9644754
5.7702637 -2.5990036 -1.9660513
5.832705 -2.4596562 -1.9665293
5.8916993 -2.3187835 -1.9669832
5.9472165 -2.1764667 -1.9674125
6.0476661 -1.8878626 -1.9681966
6.1338086 -1.5945441 -1.9688797
6.1714549 -1.446344 -1.969183
6.2356935 -1.1473242 -1.9697113
6.3042283 -0.69363582 -1.970306
6.3195996 -0.54140317 -1.970451
6.3215332 0.52848083 -1.9707137
6.2398243 1.1348248 -1.9702718
6.1766305 1.4341675 -1.9698904
6.0987597 1.7299627 -1.9694034
5.9548926 2.1654069 -1.9684781
5.8998632 2.3079967 -1.9681184
5.8413181 2.4491594 -1.9677334
5.645195 2.8632288 -1.9664301
5.5731344 2.9978302 -1.9659469
5.4191895 3.2614069 -1.9649094
5.3374314 3.3902216 -1.9643557
5.1646385 3.6415179 -1.9631809
4.979795 3.8838627 -1.961918
4.7833886 4.1166887 -1.9605703
4.681006 4.2293534 -1.9598657
4.5759277 4.3394279 -1.9591415
4.4682226 4.4468584 -1.9583975
3.9530859 4.5489554 -1.8722327
3.7693553 4.554975 -1.8367435
3.5975487 4.5673308 -1.8061965
3.4722948 4.6340594 -1.7989287
3.3637304 4.7226191 -1.8012756
3.0041993 4.9380484 -1.7956583
2.8828418 5.0067058 -1.7948081
2.2538867 5.3041191 -1.7903881
2.1242187 5.3542085 -1.7894741
1.993418 5.4011016 -1.7885516
1.728789 5.485219 -1.7866824
1.5951366 5.5224004 -1.7857369
1.4606934 5.556304 -1.7847853
0.91657227 5.6589227 -1.7809254
0.77937496 5.6762724 -1.7799503
0.50415039 5.7009783 -1.7779917
0.36627927 5.7083244 -1.7770091
0.090439454 5.7130156 -1.7750415
-0.32236329 5.6951175 -1.7720907
-0.59599608 5.6666679 -1.7701312
-0.73210937 5.6475272 -1.769155
-0.86765623 5.6251297 -1.7681823
-1.2700391 5.5385942 -1.7652901
-1.4025097 5.5033708 -1.7643363
-1.5340234 5.4650016 -1.7633888
-1.6645019 5.4235148 -1.7624478
-1.9221094 5.3312883 -1.7605876
-2.0490918 5.2806206 -1.7596694
-2.1747363 5.2269549 -1.7587602
-2.5431249 5.0483427 -1.7560891
-2.6628613 4.983057 -1.7552193
-2.7809081 4.9149714 -1.7543609
-3.0118456 4.7705522 -1.752679
-3.23541 4.6154399 -1.7510471
-3.6962988 4.5358462 -1.817746
-4.0629196 4.5216241 -1.8884653
-4.4936228 4.1219659 -1.8943554
-4.5900097 4.0108585 -1.8936416
-4.8628125 3.6645317 -1.8916137
-4.9480958 3.5449712 -1.8909773
-5.0305467 3.4234698 -1.8903605
-5.1100488 3.3000908 -1.8897643
-5.2600975 3.0479705 -1.8886346
-5.3979883 2.7891889 -1.8875902
-5.5234275 2.5243151 -1.8866333
-5.822578 1.6991405 -1.884306
-5.8609376 1.5579394 -1.8839992
-6.0200682 0.69577694 -1.8826627
-6.034658 0.55032045 -1.8825247
-6.0535254 0.25860474 -1.8823222
-6.0578222 0.11250671 -1.8822575
-6.0586228 -0.033652343 -1.8822176
-6.0499411 -0.32581541 -1.8822117
-6.0404196 -0.47166258 -1.8822458
-6.0274606 -0.61724854 -1.8823043
-5.9680958 -1.051654 -1.8826269
-5.9114842 -1.3385022 -1.8829643
-5.8413768 -1.6224297 -1.8833984
-5.7579589 -1.9028027 -1.8839287
-5.6613865 -2.1790111 -1.8845538
-5.6081934 -2.3153667 -1.8849016
-5.429492 -2.7165303 -1.8860836
-5.3636522 -2.8473701 -1.8865232
-5.2946873 -2.9766562 -1.8869854
-5.2226954 -3.1042948 -1.8874696
-5.1476855 -3.230237 -1.8879757
-5.0696874 -3.3544054 -1.8885036
-4.9887304 -3.4767296 -1.8890529
-4.9048829 -3.5971391 -1.8896234
-4.8182225 -3.7155681 -1.8902142
-4.6364551 -3.9462249 -1.891458
-4.0276952 -4.5838609 -1.8956547
-3.8050292 -4.7766681 -1.897199
-3.6902537 -4.8691111 -1.8979968
-3.4541113 -5.0457888 -1.899641
-3.332871 -5.1299195 -1.9004871
-3.209619 -5.2111793 -1.9013479
-3.0843945 -5.2895207 -1.9022235
-2.8283594 -5.4372449 -1.9040165
-2.2958496 -5.6956186 -1.9077572
-2.1588671 -5.7522516 -1.9087217
-2.0205371 -5.8056183 -1.9096966
-1.8808788 -5.8556848 -1.9106821
-1.7399805 -5.9024229 -1.9116768
-1.4390918 -5.9210105 -1.8929869
-1.2890136 -5.9225941 -1.8830009
-1.1403809 -5.9239898 -1.874151
-0.9930371 -5.9252014 -1.8664111
-0.84679687 -5.9262323 -1.8597579
-0.70148438 -5.9270849 -1.8541747
-0.55694336 -5.9277639 -1.8496444
-0.41301757 -5.9282689 -1.846155
-0.269541 -5.9286032 -1.8436974
0.016689453 -5.928761 -1.841851
0.4465332 -5.9277225 -1.8467388
1.0271386 -5.923914 -1.8677969
1.1747167 -5.9225144 -1.8757472
1.9359667 -5.9126229 -1.9327859
2.0846875 -5.8829999 -1.9389803
2.2271483 -5.8340912 -1.9400085
2.3684862 -5.781713 -1.9410297
3.4472754 -5.2411566 -1.9488555
3.6995213 -5.0735855 -1.9506948
3.8225877 -4.9851713 -1.9515939
4.292666 -4.6017933 -1.9550384
4.4042578 -4.4987941 -1.9558588
4.619863 -4.2846241 -1.9574478
4.824863 -4.0599651 -1.9589633
4.9232321 -3.9438689 -1.9596924
5.0187302 -3.8253474 -1.9604015
5.1113672 -3.7044792 -1.9610908
5.3711424 -3.3284795 -1.9630326
5.4515524 -3.198931 -1.9636368
5.6027341 -2.9339886 -1.9647775
5.8047752 -2.5231533 -1.9663152
5.9760351 -2.0982232 -1.9676363
6.1547947 -1.5137811 -1.9690484
6.1904197 -1.3650775 -1.9693375
6.2752051 -0.9142102 -1.9700474
6.2959962 -0.7626465 -1.9702312
6.3417087 -0.15253906 -1.9706994
6.3419333 0.1535022 -1.9707724
6.3270211 0.45917478 -1.970737
6.2970605 0.76373106 -1.9705939
6.1922851 1.3664587 -1.9699866
6.156826 1.51526 -1.969768
6.0749998 1.8099602 -1.9692525
6.0286427 1.9556781 -1.9689556
5.9787402 2.1001837 -1.9686331
5.925293 2.2433918 -1.9682848
5.8683395 2.3852124 -1.9679114
5.8079395 2.525562 -1.967513
5.4552832 3.2022247 -1.9651531
5.2049513 3.5852032 -1.9634556
4.8289843 4.0646734 -1.9608836
4.7278614 4.1784906 -1.9601883
4.5174899 4.3983893 -1.9587381
4.4083495 4.5043473 -1.9579836
4.2332029 4.5394135 -1.9282674
3.8519237 4.5522919 -1.852572
3.6718946 4.5580912 -1.8183483
3.5235839 4.5966387 -1.7992861
3.4101465 4.6782365 -1.7984954
3.2948632 4.7570071 -1.797691
3.177705 4.8328996 -1.7968724
3.058789 4.9058695 -1.7960407
2.6921875 5.1068878 -1.7934707
2.0529785 5.3801956 -1.7889718
1.9215918 5.4253387 -1.7880445
1.7892284 5.4672465 -1.7871095
1.2514844 5.6022429 -1.7833028
1.1153711 5.6277509 -1.7823372
0.97878903 5.6499419 -1.7813674
0.84175777 5.668808 -1.7803936
0.70435548 5.6843376 -1.7794166
0.29100585 5.7109256 -1.7764724
0.015205078 5.7119818 -1.7745042
-0.12249023 5.7075176 -1.7735201
-0.25999022 5.6997395 -1.772537
-0.39719725 5.6886587 -1.7715552
-0.53400391 5.6742816 -1.7705754
-0.67034179 5.6566262 -1.769598
-0.80613279 5.6357098 -1.7686239
-0.94132811 5.6115446 -1.7676535
-1.0758301 5.5841484 -1.7666869
-1.2095605 5.5535493 -1.7657254
-1.7352636 5.3995657 -1.7619373
-1.8640137 5.3533134 -1.7610073
-1.9915625 5.3040128 -1.7600855
-2.1178222 5.2517047 -1.759172
-2.2427344 5.1964164 -1.7582678
-2.3662109 5.1381888 -1.7573727
-2.4882226 5.0770621 -1.7564877
-2.9600098 4.8043046 -1.7530568
-3.0735838 4.7292719 -1.7522286
-3.2950683 4.5713091 -1.7506111
-3.445791 4.5451069 -1.7719018
-3.6166894 4.5388336 -1.8029499
-3.7936914 4.5321465 -1.8361206
-4.140625 4.4878435 -1.8969601
-4.348711 4.2794547 -1.8954264
-4.4489355 4.1716838 -1.894686
-4.5465331 4.0616045 -1.8939636
-4.8230858 3.718178 -1.8919097
