# .PCD v0.7 - Point Cloud Data file format
VERSION 0.7
FIELDS x y z
SIZE 4 4 4
TYPE F F F
COUNT 1 1 1
WIDTH 1501
HEIGHT 1
VIEWPOINT 0 0 0 1 0 0 0
POINTS 1501
DATA ascii
-3.8362498 4.748054 -1.7466245
-3.9478514 4.6519394 -1.7458013
-4.0668163 4.5643005 -1.7492243
-4.853076 4.4893336 -1.8916731
-4.9579 4.3691711 -1.8908932
-5.059824 4.2465992 -1.8901333
-5.523828 3.6003211 -1.8866543
-5.6071973 3.4648829 -1.8860247
-5.6872849 3.3275585 -1.8854183
-5.8376169 3.0475562 -1.8842747
-5.974463 2.7609546 -1.8832263
-6.0377731 2.6153612 -1.8827384
-6.1539159 2.320034 -1.8818365
-6.2067285 2.1704412 -1.8814229
-6.2559667 2.0196881 -1.8810345
-6.3016405 1.8678509 -1.8806716
-6.3437204 1.7150079 -1.8803341
-6.4170213 1.4066223 -1.8797365
-6.4481931 1.2512677 -1.8794769
-6.4757028 1.095238 -1.8792434
-6.5629883 0.14972655 -1.8783976
-6.556416 -0.3251898 -1.8783343
-6.5467868 -0.48324218 -1.8783668
-6.411211 -1.4230065 -1.8791213
-6.294004 -1.8835651 -1.8798553
-6.2477145 -2.0351605 -1.8801521
-6.1978807 -2.1856329 -1.8804748
-5.8961229 -2.9185681 -1.8824694
-5.8254685 -3.0607011 -1.8829434
-5.7514744 -3.20118 -1.8834416
-5.5097461 -3.6117995 -1.8850806
-5.3325877 -3.8757904 -1.8862902
-5.1429977 -4.1313004 -1.887591
-5.0436912 -4.255693 -1.8882748
-4.9414258 -4.3777399 -1.88898
-4.8362694 -4.4973783 -1.8897067
-4.6174316 -4.729176 -1.891223
-4.2688866 -5.0571322 -1.8936474
-3.8974023 -5.3598814 -1.8962424
-3.7686815 -5.4549241 -1.8971438
-3.6378613 -5.5469184 -1.8980609
-3.3694432 -5.7215843 -1.8999462
-3.2321191 -5.804143 -1.9009122
-2.9292481 -5.9145184 -1.8885424
-2.2535644 -5.9265332 -1.8142549
-2.0922461 -5.9289837 -1.7990265
-1.9334668 -5.9312305 -1.7850338
-1.6226367 -5.9351392 -1.7605827
-1.4794238 -5.9741135 -1.7610437
-1.3356152 -6.0115509 -1.7620666
-1.0454102 -6.0760875 -1.7641337
-0.75204098 -6.1266956 -1.7662268
-0.60442382 -6.1467185 -1.7672812
-0.45625976 -6.1632028 -1.7683405
-0.0094726561 -6.1912413 -1.7715392
0.1399707 -6.1934118 -1.772611
0.43903318 -6.1869426 -1.7747581
0.58846676 -6.1782904 -1.7758322
0.88680661 -6.150147 -1.7779793
1.0355078 -6.1306596 -1.7790506
1.3315723 -6.0808744 -1.7811862
1.7709765 -5.9793277 -1.7843624
1.9157422 -5.9383597 -1.7854104
2.0712597 -5.9272356 -1.7965668
2.5623338 -5.9188395 -1.8454831
2.7321875 -5.9155903 -1.864481
2.9055955 -5.9120975 -1.8849258
3.7215624 -5.7125006 -1.9508227
4.1311913 -5.4368291 -1.9538256
4.3928905 -5.2364268 -1.9557498
4.5200782 -5.1314063 -1.9566865
4.6447167 -5.0232534 -1.9576058
4.7667379 -4.9120016 -1.9585072
5.0025196 -4.6805778 -1.9602525
5.5406542 -4.0529299 -1.9642593
5.6389256 -3.9195833 -1.964995
5.7339063 -3.7838049 -1.9657081
5.8255372 -3.645685 -1.9663975
5.9985547 -3.3627384 -1.9677048
6.1574998 -3.071429 -1.9689126
6.3020215 -2.7724395 -1.9700189
6.4316502 -2.4665551 -1.9710199
6.5975194 -1.9963931 -1.9723192
6.645 -1.8370346 -1.9726968
6.7953124 -1.1890357 -1.9739257
6.8462791 -0.86014038 -1.9743677
6.865664 -0.69482541 -1.9745452
6.9020996 -0.030145874 -1.974961
6.900918 0.13634095 -1.9749912
6.8956347 0.30274719 -1.974992
6.6641016 1.7797705 -1.9736738
6.5147948 2.2558715 -1.9727132
6.4572754 2.4118865 -1.9723366
6.3958883 2.5664032 -1.9719323
6.2618747 2.870564 -1.9710412
6.1130371 3.1676233 -1.9700426
6.0332127 3.3132384 -1.9695036
5.9498143 3.4568028 -1.9689386
5.772666 3.7374206 -1.9677328
5.6789842 3.8743091 -1.9670925
5.5820117 4.0087938 -1.9664279
5.3783398 4.2703037 -1.9650276
5.2717967 4.397141 -1.9642925
4.3232617 4.5943847 -1.8051292
4.092988 4.7932773 -1.8035232
3.8535058 4.9804564 -1.8018488
3.730459 5.0695252 -1.8009863
3.6053612 5.1555099 -1.8001089
3.3491602 5.3180566 -1.7983087
1.8262988 5.9742332 -1.7875353
-2.6744041 -5.5180616 -1.9049799
-2.5417676 -5.5837059 -1.9059165
-2.2718163 -5.7054977 -1.9078249
-1.9960351 -5.814362 -1.9097781
-1.7151074 -5.910018 -1.9117715
-1.4108789 -5.9137011 -1.8887271
-1.2612695 -5.9152503 -1.878956
-1.1130761 -5.9166112 -1.8703132
-0.67531246 -5.919611 -1.8509279
-0.53107423 -5.9202595 -1.8465878
-0.38743162 -5.9207349 -1.8432833
-0.10125 -5.9211736 -1.8397552
0.47100586 -5.9200144 -1.8449367
1.3479102 -5.9130445 -1.8840842
1.4983691 -5.9112372 -1.8944765
1.6505176 -5.9092331 -1.9060429
1.9607714 -5.904613 -1.9328363
2.1095507 -5.8749409 -1.9392196
2.3929687 -5.7724876 -1.9412768
2.5328221 -5.7160816 -1.9422934
2.6713476 -5.6562591 -1.9433011
2.9440527 -5.5264921 -1.9452876
3.3408787 -5.3070545 -1.9481857
3.4695897 -5.2274551 -1.9491274
3.9644139 -4.8779526 -1.9527588
4.0827637 -4.7830424 -1.9536299
4.1987696 -4.6852269 -1.9544848
4.3124118 -4.5845542 -1.9553237
4.6383204 -4.2660089 -1.9577359
4.8424025 -4.0404806 -1.9592525
5.0353122 -3.8050406 -1.9606912
5.1274414 -3.6837771 -1.9613802
5.4655662 -3.1767797 -1.9639239
5.7525682 -2.6383803 -1.9661081
5.9854684 -2.0738044 -1.9679099
6.0349512 -1.9292145 -1.9682986
6.1231446 -1.636513 -1.9689994
6.1968064 -1.3397162 -1.9695969
6.2557907 -1.0395666 -1.9700897
6.3379002 -0.2794275 -1.9708551
6.3430176 -0.1264801 -1.9709274
6.3443747 0.026553344 -1.9709729
6.3419333 0.17957152 -1.9709909
6.3257618 0.48519897 -1.9709457
6.3120117 0.63761413 -1.9708825
6.2482615 1.0921332 -1.9705306
6.2195702 1.2424164 -1.9703598
6.1511035 1.5405896 -1.9699378
6.1113768 1.688288 -1.969687
5.9165039 2.2677448 -1.9684234
5.5945506 2.9599078 -1.9662744
5.5201073 3.0931988 -1.9657713
5.442451 3.2245812 -1.9652447
5.1904883 3.6064916 -1.9635257
5.0073242 3.8501439 -1.962268
4.8125196 4.0843539 -1.9609247
4.7109275 4.1977382 -1.9602222
4.6065822 4.3085546 -1.9594995
4.4996386 4.4167371 -1.9587573
4.2068849 4.5480299 -1.9246627
4.0135059 4.5546217 -1.8859243
3.5048828 4.6108103 -1.7992615
3.2755077 4.7702012 -1.7976528
3.1580467 4.8455992 -1.7968277
2.7954493 5.0540624 -1.7942746
2.6714258 5.1175208 -1.7933996
2.290957 5.2893348 -1.7907099
2.1616113 5.3403211 -1.7897936
1.8995996 5.4327049 -1.7879351
1.7670703 5.4740648 -1.7869941
1.4994141 5.546998 -1.7850909
1.3644629 5.578547 -1.7841299
1.2288183 5.6067929 -1.7831634
0.95594722 5.6533518 -1.7812164
0.54380858 5.6982298 -1.7782699
-0.0076757809 5.7113876 -1.7743162
-0.41992188 5.6863756 -1.771353
-0.69288087 5.6532264 -1.7693869
-0.82858396 5.6317515 -1.7684083
-1.2316015 5.5479527 -1.7654974
-1.4960938 5.476161 -1.7635831
-1.6268651 5.4355564 -1.7626355
-1.7565429 5.3918576 -1.7616949
-1.8850976 5.3450866 -1.7607617
-2.1384277 5.2424707 -1.7589204
-2.2630858 5.1866903 -1.758013
-2.3863084 5.1279736 -1.7571155
-2.5080371 5.0663648 -1.7562277
-2.9786327 4.7917652 -1.7527877
-3.0918944 4.7162938 -1.7519575
-3.2032616 4.6381812 -1.7511404
-4.2625489 4.3673167 -1.8958814
-4.3649411 4.2615247 -1.8951223
-4.4646974 4.1533766 -1.8943815
-4.6563087 3.9302697 -1.8929549
-4.9231052 3.5795374 -1.8909594
-5.0063376 3.4586058 -1.8903342
-5.1640525 3.2111261 -1.8891451
-5.2384472 3.084713 -1.8885821
-5.3780856 2.8269036 -1.8875204
-5.4432907 2.695647 -1.887022
-5.505322 2.5629253 -1.8865463
-5.564209 2.4288037 -1.8860925
-5.6198826 2.2933655 -1.8856617
-5.6723437 2.1566803 -1.8852535
-5.7215233 2.0188286 -1.8848687
-5.8493748 1.598991 -1.883854
-5.9179196 1.3146503 -1.8832961
-5.99542 0.88300657 -1.88264
-6.0421677 0.44710326 -1.8822033
-6.0561619 0.155177 -1.882035
-6.0563669 -0.13706054 -1.8819658
-6.030869 -0.57463074 -1.8820471
-5.9966989 -0.8648901 -1.8822247
-5.8875098 -1.4390856 -1.8828747
-5.8127146 -1.721773 -1.883346
-5.724658 -2.0007024 -1.8839129
-5.6756735 -2.1385524 -1.8842323
-5.568027 -2.4106884 -1.8849413
-5.4476075 -2.6775432 -1.8857434
-5.0923634 -3.3177652 -1.8881433
-5.0122948 -3.4406271 -1.8886893
-4.9293261 -3.5615866 -1.8892566
-4.7548337 -3.7975688 -1.8904535
-4.5692382 -4.0251765 -1.8917323
-4.4724121 -4.135684 -1.8924011
-4.3729687 -4.2438989 -1.8930895
-4.1663475 -4.4532228 -1.8945233
-3.949873 -4.652667 -1.8960302
-3.8380761 -4.7485352 -1.8968099
-3.607666 -4.9322863 -1.8984203
-3.3686035 -5.105032 -1.9000955
-3.2459276 -5.1871495 -1.9009564
-3.1213183 -5.2663536 -1.9018322
-2.8662889 -5.4158621 -1.9036269
-2.6044238 -5.5531831 -1.9054739
-2.470957 -5.6171632 -1.9064165
-2.3359082 -5.6779699 -1.9073715
-2.1993749 -5.7355642 -1.9083377
-1.9221972 -5.8409619 -1.9103018
-1.3315332 -5.9145446 -1.8834143
-1.1826953 -5.9159937 -1.8742441
-0.74345702 -5.9192462 -1.8533359
-0.45500976 -5.9205322 -1.8447104
-0.3115918 -5.9209166 -1.8419518
-0.025654295 -5.9211764 -1.8395044
0.11717773 -5.9210515 -1.8398083
0.40338865 -5.9202929 -1.8434775
0.83635741 -5.9178629 -1.8567265
0.98230469 -5.9167004 -1.8632573
1.1293261 -5.9153576 -1.8708698
1.2776074 -5.9138298 -1.8795891
1.5786523 -5.910202 -1.9004476
1.8869433 -5.905777 -1.9260763
2.0421581 -5.8970385 -1.9387311
2.1849706 -5.8491888 -1.9397666
2.3266602 -5.7978601 -1.9407951
2.4671288 -5.7430692 -1.9418156
2.6062791 -5.6848545 -1.9428276
2.7440526 -5.6232362 -1.9438303
3.1482227 -5.418314 -1.9467776
3.2796288 -5.3434339 -1.9477377
3.6626658 -5.0996509 -1.9505424
3.7863476 -5.012157 -1.9514501
4.0273242 -4.8281045 -1.9532217
4.1444335 -4.7316422 -1.9540844
4.2592087 -4.6323118 -1.9549307
4.3715329 -4.5301538 -1.9557605
4.4813962 -4.4252329 -1.9565731
4.5886912 -4.3176084 -1.9573678
4.6933689 -4.2073412 -1.9581445
4.795332 -4.094492 -1.9589022
4.8945312 -3.9791381 -1.9596406
4.9909372 -3.8613405 -1.9603598
5.0844235 -3.7411723 -1.9610583
5.1749802 -3.6186941 -1.9617364
5.42834 -3.2381966 -1.9636425
5.5814843 -2.9743924 -1.9648026
5.7215524 -2.7032235 -1.9658703
5.7865329 -2.5650895 -1.9663687
5.8481445 -2.4253509 -1.9668432
5.9609571 -2.1414504 -1.9677185
6.0120993 -1.9974618 -1.9681189
6.0596776 -1.8522152 -1.9684939
6.1440721 -1.5583624 -1.9691677
6.2432423 -1.110503 -1.9699832
6.2689157 -0.9596948 -1.9702023
6.2908397 -0.80829346 -1.9703948
6.3090329 -0.65637511 -1.9705606
6.3234863 -0.50404966 -1.9706997
6.3341699 -0.35139525 -1.9708117
6.3442087 -0.045520019 -1.9709549
6.343545 0.10752502 -1.9709857
6.3391209 0.26049682 -1.9709893
6.3031931 0.71810913 -1.970838
6.2335348 1.1717383 -1.9704437
6.1685448 1.4706963 -1.9700466
6.130537 1.6188611 -1.9698083
6.043623 1.912091 -1.9692529
5.9424024 2.2005847 -1.9685937
5.8864841 2.3428357 -1.9682255
5.8270898 2.4836383 -1.9678321
5.4000583 3.2932951 -1.9649563
5.2318845 3.5478075 -1.963809
4.9569044 3.9130456 -1.9619211
4.8594141 4.0300865 -1.9612488
4.656074 4.2566991 -1.9598424
4.5503221 4.3661242 -1.9591092
4.4419923 4.4728956 -1.9583566
4.300674 4.5447617 -1.9438281
4.1036034 4.5515757 -1.9038415
3.7318554 4.5638609 -1.831477
3.5633593 4.5788622 -1.8024737
3.4449413 4.6540833 -1.7988415
3.0951757 4.8843031 -1.7963856
2.9750586 4.9552073 -1.7955403
2.853291 5.0231223 -1.7946826
2.6052051 5.1498556 -1.792932
2.092705 5.3660116 -1.7893051
1.4280957 5.5640931 -1.7845831
1.2927831 5.5938973 -1.783619
1.1568457 5.6204014 -1.7826501
0.88348633 5.6634436 -1.7806988
0.74621093 5.6799765 -1.7797177
0.60864258 5.6931748 -1.7787337
0.33301756 5.709559 -1.7767601
0.057216797 5.712605 -1.7747822
-0.080546871 5.7091417 -1.773793
-0.21810547 5.7023582 -1.7728045
-0.35539061 5.6922693 -1.7718173
-0.62877929 5.6622071 -1.7698486
-0.90012693 5.6190758 -1.767892
-1.0348243 5.5926514 -1.7669194
-1.5654004 5.4550648 -1.7630807
-1.824707 5.3674951 -1.7612001
-2.0792577 5.2677121 -1.7593505
-2.2045703 5.2133265 -1.7584389
-2.3284667 5.1559863 -1.7575369
-2.450918 5.095737 -1.7566442
-2.5718164 5.0326071 -1.7557623
-2.8087695 4.8978844 -1.7540311
-3.0387695 4.7521644 -1.7523471
-3.1510155 4.6752882 -1.7515237
-3.2613769 4.5957994 -1.7507136
-3.4000585 4.5543637 -1.7656657
-3.5694726 4.5481992 -1.7961404
-4.3170605 4.3116355 -1.8954774
-4.5164161 4.0952258 -1.893997
-4.6121583 3.9836011 -1.8932841
-4.7954197 3.753823 -1.891916
-5.0492187 3.3938501 -1.8900114
-5.1279783 3.2700517 -1.8894176
-5.2765722 3.017138 -1.8882928
-5.3463182 2.8881786 -1.8877624
-5.4764938 2.6256022 -1.8867675
-5.5368748 2.4921281 -1.8863033
-5.5940623 2.3573046 -1.8858618
-5.6480565 2.2211938 -1.8854427
-5.6987596 2.083885 -1.8850471
-5.7462401 1.9454358 -1.8846743
-5.7904196 1.8059381 -1.8843249
-5.8688183 1.5240802 -1.883697
-5.902998 1.3818749 -1.8834188
-5.9338083 1.238927 -1.8831646
-5.9852734 0.95109981 -1.8827286
-6.0230856 0.66122985 -1.8823898
-6.0471973 0.36993468 -1.8821493
-6.0540915 0.2239624 -1.8820659
-6.0575485 -0.068261109 -1.8819733
-6.054111 -0.21435241 -1.881964
-6.047236 -0.36031494 -1.8819793
-6.0231543 -0.65156859 -1.8820846
-5.9613571 -1.0855609 -1.882427
-5.9339452 -1.2291393 -1.8825903
-5.8690329 -1.5141999 -1.8829901
-5.7907028 -1.7959527 -1.8834866
-5.6991405 -2.0737729 -1.884079
-5.6484375 -2.211026 -1.8844106
-5.5374217 -2.4818234 -1.8851444
-5.4770899 -2.6152246 -1.8855462
-5.4136524 -2.7471874 -1.8859707
-5.2047362 -3.1337717 -1.8873799
-4.8842578 -3.624805 -1.8895651
-4.5183692 -4.0839305 -1.8920835
-4.4201169 -4.1932249 -1.892763
-4.2159181 -4.4048057 -1.8941789
-4.1100192 -4.5069656 -1.894915
-4.0017185 -4.6066194 -1.8956689
-3.8910058 -4.7037201 -1.8964407
-3.7779882 -4.7981968 -1.8972296
-3.5452538 -4.9790788 -1.8988572
-3.4256346 -5.0653729 -1.8996954
-3.0546093 -5.3070765 -1.9023013
-2.7977343 -5.4533935 -1.9041101
-2.6667187 -5.5219679 -1.9050343
-2.2638378 -5.7088461 -1.9078814
-2.1265917 -5.7647257 -1.9088529
-1.7061328 -5.9101415 -1.9110345
-1.4021386 -5.9137964 -1.8881267
-0.95761716 -5.9178534 -1.8623703
-0.81180662 -5.9188418 -1.8559768
-0.37908202 -5.9207573 -1.8431228
0.049902342 -5.9211316 -1.8395386
0.19280273 -5.9209166 -1.840382
0.33588865 -5.9205327 -1.8422451
1.059961 -5.9160123 -1.8671489
1.3566113 -5.9129448 -1.8846573
1.5071484 -5.9111266 -1.895116
1.659453 -5.9091105 -1.9067516
1.8136133 -5.9068928 -1.9195976
1.9699316 -5.9044666 -1.9336904
2.5409276 -5.7126927 -1.9423523
2.8163378 -5.5892711 -1.9443568
2.951875 -5.5225158 -1.9453447
3.2179785 -5.379096 -1.9472871
3.348418 -5.3025098 -1.9482409
3.6036718 -5.1397934 -1.9501098
3.8509471 -4.9646344 -1.9519247
3.9713769 -4.8725128 -1.95281
4.2054687 -4.6794429 -1.9545343
4.9459181 -3.9171095 -1.9600238
5.1327047 -3.6766536 -1.9614196
5.2216601 -3.5529976 -1.9620868
5.3904295 -3.2991683 -1.9633563
5.4701171 -3.1691647 -1.9639583
5.5465918 -3.0372005 -1.9645376
5.6897755 -2.767704 -1.9656276
5.7563572 -2.6303444 -1.9661371
5.8793554 -2.350805 -1.9670844
5.9356542 -2.2088034 -1.9675213
5.9884567 -2.0654311 -1.9679333
6.19874 -1.3310223 -1.9696127
6.3432031 -0.11757629 -1.9709309
6.344326 0.035454713 -1.9709743
6.3416796 0.18846984 -1.970991
6.3352637 0.34137207 -1.9709805
6.3250489 0.49407837 -1.9709426
6.271914 0.94998229 -1.9706674
6.2466989 1.1009003 -1.9705215
6.1089454 1.6968548 -1.9696716
6.0653906 1.8434429 -1.9693931
5.9674902 2.1331251 -1.968758
5.9132419 2.2760229 -1.968402
5.8554883 2.4175169 -1.9680204
5.7942872 2.5575182 -1.9676139
5.7296581 2.6959496 -1.9671824
5.5903025 2.9677112 -1.9662457
5.5156736 3.1008885 -1.9657413
5.4378123 3.232168 -1.9652133
5.0018067 3.8570921 -1.9622302
4.9056735 3.9752684 -1.961568
4.7049317 4.2042575 -1.9601806
4.1954103 4.5484266 -1.9223363
4.00249 4.5549927 -1.8837496
3.6387596 4.567749 -1.8142527
3.4983106 4.6156077 -1.7992156
3.3844433 4.6965575 -1.7984173
3.2687109 4.7746654 -1.7976053
3.1511621 4.8498936 -1.7967794
3.0318358 4.9221888 -1.7959399
2.7882617 5.057837 -1.7942239
2.5385938 5.1813231 -1.7924614
2.4116797 5.2384238 -1.791564
2.1540625 5.3431897 -1.7897401
2.0234962 5.3908019 -1.7888145
1.7593066 5.4763684 -1.7869389
1.4916016 5.5489182 -1.7850353
1.2209082 5.608336 -1.7831069
1.0846972 5.6330819 -1.7821352
0.94800776 5.6545081 -1.7811596
0.81089842 5.6726074 -1.7801803
0.26005858 5.7116613 -1.7762371
0.1221289 5.7130919 -1.7752481
-0.015693359 5.7111888 -1.7742587
-0.15334961 5.7059665 -1.7732699
-0.290791 5.6974301 -1.7722819
-0.56458008 5.6704698 -1.7703112
-0.97149414 5.6054978 -1.7673767
-1.2393261 5.5460424 -1.7654415
-1.3720019 5.511539 -1.7644814
-1.5037206 5.4738793 -1.7635278
-1.8925488 5.3422751 -1.7607076
-2.270293 5.1833558 -1.7579604
-3.1033788 4.7196898 -1.7548356
-3.6614842 4.5447755 -1.8130943
-4.025537 4.530736 -1.8828405
-4.2686133 4.3612318 -1.8958365
-4.37082 4.2552929 -1.8950787
-4.6617088 3.9236498 -1.8929147
-4.7532716 3.8086827 -1.8922311
-5.0110936 3.4515088 -1.8902984
-5.2426658 3.0773096 -1.88855
-5.3138671 2.9491081 -1.8880094
-5.3819532 2.8193054 -1.8874907
-5.4469824 2.6879675 -1.886994
-5.5088282 2.5551617 -1.8865193
-5.5675292 2.4209571 -1.8860668
-5.675283 2.1486945 -1.8852307
-5.724287 2.010777 -1.884847
-5.7700195 1.8717541 -1.8844867
-5.8515525 1.5907708 -1.8838366
-5.9197264 1.3063275 -1.8832812
-5.94875 1.1630175 -1.8830398
-5.9743748 1.0190814 -1.8828224
-5.9965916 0.87458432 -1.8826296
-6.0308104 0.58428222 -1.8823166
-6.0427537 0.43862242 -1.882197
-6.0512791 0.2927185 -1.8821021
-6.0579782 0.00055297848 -1.881986
-6.0508981 -0.29160094 -1.8819691
-6.0300684 -0.58309448 -1.8820509
-6.014492 -0.72840697 -1.8821288
-5.9954882 -0.87330931 -1.8822314
-5.8855271 -1.4473566 -1.8828872
-5.8495898 -1.5890832 -1.8831122
-5.8103318 -1.729939 -1.8833612
-5.7677536 -1.8698614 -1.883634
-5.7218747 -2.0087409 -1.8839309
-5.6203122 -2.283164 -1.8845958
-5.505908 -2.5525732 -1.8853542
-5.4439259 -2.6852198 -1.8857679
-5.378828 -2.8164072 -1.8862045
-5.3106055 -2.9460437 -1.8866638
-5.2393456 -3.07406 -1.8871454
-4.5636911 -4.0316749 -1.8917706
-4.4667187 -4.1420412 -1.8924406
-4.3670802 -4.2501283 -1.8931303
-4.1601853 -4.4591641 -1.8945662
-3.7173047 -4.847105 -1.8976535
-3.4822168 -5.0250878 -1.899299
-3.1140137 -5.2708802 -1.9018835
-2.8588965 -5.4200315 -1.9036791
-2.596709 -5.5569944 -1.9055285
-2.463125 -5.6207914 -1.906472
-2.0533886 -5.7929692 -1.9093716
-1.9140723 -5.843833 -1.9103595
-1.7734863 -5.8913717 -1.911357
-1.625 -5.9111857 -1.9045091
-1.4730761 -5.9130063 -1.8930949
-1.322832 -5.9146338 -1.8828497
-1.174082 -5.9160714 -1.8737452
-1.0266503 -5.917326 -1.8657534
-0.88034177 -5.9183984 -1.8588531
-0.59051758 -5.9200125 -1.8482531
-0.44664061 -5.9205589 -1.8445227
-0.30327147 -5.9209342 -1.8418237
-0.1602246 -5.9211383 -1.840149
0.12550782 -5.9210391 -1.8398577
0.41173828 -5.9202604 -1.8436449
0.55543941 -5.9196143 -1.84708
0.69976562 -5.9187946 -1.8515533
0.84484375 -5.9177999 -1.8570786
1.2862695 -5.913734 -1.8801311
1.7407616 -5.9079623 -1.9133958
2.0505176 -5.8943491 -1.9387915
2.1932518 -5.8462992 -1.9398267
2.4752636 -5.7397757 -1.9418749
2.6143651 -5.6813593 -1.9428864
2.7520506 -5.6195483 -1.9438885
3.2872069 -5.3389773 -1.9477931
3.5443065 -5.1792316 -1.9496746
3.9149511 -4.9162617 -1.952395
4.2658105 -4.62644 -1.9549795
4.5948634 -4.3112669 -1.9574134
4.9002442 -3.9723499 -1.9596832
4.9964356 -3.8544137 -1.9604007
5.0897946 -3.734102 -1.9610986
5.1801462 -3.611496 -1.9617752
5.2675095 -3.4866717 -1.962431
5.5109863 -3.0995762 -1.9642677
5.7254295 -2.69523 -1.9659001
5.7902341 -2.5569954 -1.966397
5.8516307 -2.4171767 -1.9668701
5.9640231 -2.1331034 -1.9677426
6.0623341 -1.8437334 -1.9685149
6.1462989 -1.5497491 -1.9691857
6.1828222 -1.401261 -1.9694821
6.2702832 -0.950899 -1.9702142
6.3099804 -0.64752746 -1.9705694
6.3241992 -0.49516478 -1.9707069
6.3413477 -0.18962342 -1.9709009
6.3442674 -0.03661621 -1.9709573
6.3303318 0.4221997 -1.970964
6.3181443 0.57476133 -1.9709119
6.3021774 0.72695678 -1.9708328
6.2318554 1.1804907 -1.9704336
5.991816 2.0653663 -1.9689169
5.8831153 2.3510759 -1.9682034
5.8235254 2.4917901 -1.9678085
5.7605176 2.6309631 -1.9673887
5.6940818 2.7685137 -1.966944
5.4748826 3.1705894 -1.9654647
4.9513083 3.9199255 -1.9618825
4.7531834 4.1512475 -1.9605147
4.5440917 4.3724122 -1.9590659
4.4356055 4.4790187 -1.9583124
4.0923634 4.5519581 -1.9015958
3.9034081 4.5582871 -1.8643548
3.554121 4.5802135 -1.8010412
3.4383006 4.6587949 -1.7987951
3.2067382 4.8148313 -1.7971698
3.0882323 4.8885155 -1.7963369
2.9680274 4.9592428 -1.7954909
2.8462012 5.0269809 -1.7946326
2.7227929 5.0916977 -1.7937622
2.5978906 5.1533628 -1.7928802
2.3439941 5.2673678 -1.7910851
2.2151465 5.3196654 -1.7901731
1.9540038 5.4146957 -1.7883215
1.8218652 5.4573841 -1.7873834
1.2848926 5.5955343 -1.7835629
1.0124218 5.6448288 -1.7816195
0.87548828 5.6644993 -1.7806418
0.60064453 5.69384 -1.7786765
0.46287107 5.7035046 -1.7776904
0.32499999 5.7098351 -1.7767026
0.049179688 5.7124949 -1.7747245
-0.22611327 5.7018614 -1.7727468
-0.36335936 5.691577 -1.7717599
-0.63672853 5.6611362 -1.7697915
-1.1765624 5.5611925 -1.7658954
-1.4418163 5.4920068 -1.7639761
-1.5730176 5.4526892 -1.7630258
-1.7031738 5.4102683 -1.762082
-1.9600292 5.3162012 -1.7602172
-2.2118261 5.2100706 -1.7583861
-2.3356249 5.1525621 -1.7574847
-2.457998 5.0921373 -1.7565926
-2.5787988 5.0288453 -1.7557113
-2.6980078 4.9627194 -1.7548406
-2.8155468 4.893806 -1.7539812
-2.9313672 4.822135 -1.7531338
-3.0453515 4.7477622 -1.7522986
-3.1575487 4.6707358 -1.7514758
-3.4097655 4.5540161 -1.7673855
-3.7552147 4.541234 -1.8306545
-4.2195897 4.4102793 -1.8961997
-4.3230076 4.3054771 -1.8954333
-4.4238377 4.1982923 -1.894685
-4.7104979 3.8630884 -1.8925506
-4.8879004 3.6288719 -1.8912234
-4.9723239 3.5087523 -1.8905898
-5.1324801 3.262785 -1.8893838
-5.2081151 3.1370893 -1.8888119
-5.2807126 3.0096827 -1.8882613
-5.3502731 2.8806305 -1.8877325
-5.416748 2.749995 -1.8872252
-5.4800878 2.6178703 -1.88674
-5.5402732 2.4843218 -1.8862771
-5.5973043 2.3494251 -1.8858367
-5.6510839 2.2132354 -1.8854192
-5.8709178 1.5158263 -1.8836801
-5.9355078 1.230581 -1.8831506
-5.9627442 1.0869262 -1.8829217
-6.0069823 0.7979486 -1.8825372
-6.0576367 0.069359131 -1.8820046
-6.0574608 -0.076766968 -1.8819718
-6.0467286 -0.36879882 -1.881981
-6.0222363 -0.6600256 -1.8820891
-6.0048633 -0.80512452 -1.8821801
-5.9840722 -0.94978452 -1.8822956
-5.9322557 -1.2374737 -1.8826007
-5.9012694 -1.3803375 -1.8827897
-5.696279 -2.0817993 -1.8840976
-5.6454 -2.2189782 -1.8844305
-5.5912986 -2.3549433 -1.8847872
-5.4734864 -2.6229444 -1.8855703
-5.3431249 -2.8851883 -1.8864447
-5.1245313 -3.266531 -1.8879244
-5.0456738 -3.3901448 -1.8884615
-4.7917676 -3.7495434 -1.8901995
-4.7014747 -3.8652976 -1.8908206
-4.6084471 -3.9789331 -1.8914616
-4.3133397 -4.3063617 -1.8935027
-4.1037793 -4.5128345 -1.8949583
-3.995332 -4.61234 -1.8957134
-3.8845019 -4.7092872 -1.8964858
-3.655957 -4.8952603 -1.8980825
-3.1729784 -5.2340221 -1.9014691
-2.7901073 -5.457468 -1.904164
-2.118535 -5.7678757 -1.90891
-1.6971972 -5.9102592 -1.9102991
-1.3933984 -5.9138908 -1.8875299
-0.80335933 -5.9188933 -1.8556383
-0.51432616 -5.9203234 -1.8461494
-0.22755858 -5.9210629 -1.8408102
0.34424803 -5.920505 -1.8423852
0.48771483 -5.91994 -1.8453343
0.63172853 -5.9192023 -1.8493164
0.92196286 -5.917202 -1.860432
1.0685157 -5.9159336 -1.8675952
1.3653516 -5.9128447 -1.8852338
1.5159863 -5.9110141 -1.895762
1.8226465 -5.9067578 -1.920382
2.1261816 -5.8693571 -1.9393401
2.2683301 -5.8194613 -1.9403716
2.5490038 -5.7092948 -1.9424109
2.687412 -5.6490746 -1.9434179
3.093545 -5.4482718 -1.9463782
3.2256153 -5.3747244 -1.947343
3.3559668 -5.2979541 -1.9482958
3.6110058 -5.13486 -1.9501635
3.9783299 -4.867063 -1.9528612
4.0963964 -4.7718039 -1.9537305
4.2121286 -4.6736512 -1.9545835
4.436367 -4.4688687 -1.9562399
4.5447364 -4.3623466 -1.9570421
4.6504884 -4.2531638 -1.9578261
4.7535644 -4.1413765 -1.9585916
5.1379685 -3.6695156 -1.9614592
5.2267575 -3.5457289 -1.9621249
5.31249 -3.4197433 -1.9627692
5.3951368 -3.2916532 -1.9633918
5.5509567 -3.0294473 -1.9645709
5.6239843 -2.8954949 -1.9651257
5.6937304 -2.7597547 -1.9656576
5.7601366 -2.6222985 -1.966166
5.8827047 -2.3425775 -1.9671104
5.938828 -2.2004974 -1.967546
5.9914255 -2.0570464 -1.9679567
6.1278415 -1.6193463 -1.9690372
6.200664 -1.322329 -1.9696286
6.2315526 -1.1725403 -1.9698849
6.2587595 -1.0220153 -1.9701151
6.2822461 -0.87084776 -1.9703187
6.3179784 -0.56695676 -1.9706455
6.3386717 -0.26162964 -1.9708648
6.3433785 -0.10867004 -1.9709342
6.3442774 0.044362791 -1.9709762
6.3413963 0.19737366 -1.9709911
6.3347654 0.35027832 -1.970979
6.2922068 0.8072992 -1.9707798
6.2705369 0.95878416 -1.9706595
6.2451267 1.1096655 -1.9705124
6.2159762 1.2598596 -1.9703381
6.1466699 1.5578332 -1.9699099
6.0627246 1.8519397 -1.9693758
6.0153809 1.9973229 -1.9690701
5.8520312 2.4257092 -1.9679977
5.7906151 2.5656304 -1.9675894
5.7257714 2.7039557 -1.9671563
5.51124 3.1085949 -1.9657111
5.4331837 3.2397473 -1.9651816
5.351953 3.3689024 -1.9646288
5.2676072 3.495985 -1.9640533
5.1801562 3.6209228 -1.9634548
5.0897069 3.7436278 -1.9628345
4.9963083 3.8640356 -1.9621923
4.8999901 3.9820726 -1.9615285
4.8008299 4.097682 -1.960844
4.3771677 4.5343285 -1.9579059
4.1839747 4.5488195 -1.9200186
3.9914939 4.5553613 -1.8815823
3.8063085 4.5614634 -1.8456308
3.3778124 4.7011838 -1.798371
3.144248 4.8541808 -1.7967306
2.781074 5.061605 -1.7941732
2.2759569 5.2954359 -1.7906038
2.1464844 5.3460474 -1.7896864
2.0158691 5.3934727 -1.7887605
1.8842285 5.4376855 -1.7878262
1.751582 5.478662 -1.7868841
1.3487011 5.5819993 -1.7840176
1.212998 5.6098657 -1.7830505
0.94003904 5.6556516 -1.7811025
0.80290037 5.6735582 -1.780123
0.6654492 5.6881309 -1.7791402
0.52775389 5.699369 -1.7781549
0.25201172 5.7118368 -1.7761794
0.11410156 5.7130699 -1.7751904
-0.29877928 5.696836 -1.7722244
-0.43584961 5.6848035 -1.7712381
-0.84434569 5.6290379 -1.7682945
-0.97931641 5.60395 -1.7673204
-1.1136035 5.5756335 -1.7663504
-1.2470703 5.544126 -1.7653854
-1.3796874 5.5094309 -1.7644259
-1.5113477 5.4715953 -1.7634726
-1.771582 5.3865685 -1.7615857
-1.8999804 5.339448 -1.7606536
-2.0271485 5.2892895 -1.7597296
-2.2774999 5.1800022 -1.757908
-2.5221093 5.0590086 -1.756125
-2.8770409 4.8562255 -1.7535315
-3.1049707 4.7073412 -1.7518616
-3.498867 4.5507898 -1.7833182
-4.1700487 4.4587879 -1.8965664
-4.2746091 4.3551207 -1.8957922
-4.4761424 4.1406422 -1.8942965
-4.667119 3.9170067 -1.8928742
-4.8471484 3.6847594 -1.8915288
-4.93292 3.5655639 -1.8908857
-5.0158396 3.4444041 -1.8902627
-5.09583 3.3213611 -1.8896602
-5.1728806 3.1965027 -1.8890785
-5.2469044 3.0698912 -1.888518
-5.3179002 2.9415941 -1.8879788
-5.4506445 2.6802764 -1.8869658
-5.5123339 2.5473895 -1.8864923
-5.5708494 2.413106 -1.8860412
-5.6261325 2.277519 -1.8856131
-5.8148046 1.7235497 -1.8841308
-5.8537302 1.5825384 -1.883819
-5.8893065 1.4406537 -1.8835309
-5.9215035 1.2980047 -1.8832666
-5.9503317 1.154657 -1.8830265
-6.0164061 0.72117859 -1.8824518
-6.0433593 0.43013489 -1.8821908
-6.0516796 0.28422239 -1.8820971
-6.050488 -0.30009887 -1.88197
-6.0416017 -0.44595215 -1.882
-6.0292578 -0.59155941 -1.8820547
-5.994287 -0.88173157 -1.8822381
-5.9716797 -1.0261242 -1.8823669
-5.9456735 -1.1699548 -1.8825201
-5.9162889 -1.3131579 -1.8826976
-5.8835349 -1.4556317 -1.8828996
-5.7651658 -1.877972 -1.8836507
-5.6697655 -2.1545198 -1.8842709
-5.5613575 -2.4263704 -1.8849854
-5.5023923 -2.5603342 -1.8853774
-5.4402146 -2.6928978 -1.8857929
-5.3749313 -2.8239887 -1.8862307
-5.2351074 -3.0814612 -1.887174
-5.0831738 -3.33217 -1.8882059
-5.0027833 -3.4548073 -1.8887542
-4.9194822 -3.5755403 -1.8893238
-4.8333201 -3.6943099 -1.8899145
-4.7443261 -3.8110564 -1.8905258
-4.558125 -4.0381618 -1.891809
-4.4609666 -4.148396 -1.8924803
-4.2588964 -4.3619366 -1.8938806
-4.1540232 -4.4651051 -1.894609
-3.9369824 -4.6639619 -1.89612
-3.8249121 -4.7595243 -1.8969018
-3.1066797 -5.2753887 -1.9019351
-2.9799218 -5.351294 -1.9028268
-2.8512597 -5.4241924 -1.9037329
-2.3200977 -5.6848392 -1.9074832
-2.183418 -5.7420483 -1.9084506
-2.0453026 -5.796021 -1.909429
-1.9059081 -5.8466935 -1.9104173
-1.6161327 -5.9112964 -1.9038131
-1.464287 -5.9131064 -1.8924676
-1.3141406 -5.9147229 -1.8822894
-1.1654882 -5.9161496 -1.8732498
-1.0181249 -5.9173932 -1.8653232
-0.72659177 -5.9193401 -1.8527191
-0.1519043 -5.9211454 -1.8400826
0.1338086 -5.9210258 -1.8399092
0.99934566 -5.916554 -1.8640859
1.2949512 -5.9136386 -1.8806771
1.5963769 -5.9099669 -1.9018054
1.7497461 -5.9078331 -1.9141467
2.2015135 -5.8433995 -1.9398867
2.3430371 -5.7916651 -1.9409139
2.7599707 -5.6158471 -1.9439462
2.8961327 -5.5504708 -1.9449383
3.0306737 -5.4817686 -1.9459194
3.2947948 -5.3345189 -1.9478487
3.4241796 -5.2560344 -1.9487951
4.1579099 -4.7202406 -1.9541836
4.3844724 -4.5180821 -1.9558561
4.7053614 -4.1943398 -1.9582335
4.8070116 -4.081202 -1.9589893
5.0951266 -3.7270241 -1.9611382
5.27249 -3.4793377 -1.9624684
5.3566208 -3.3522365 -1.9631015
5.4375978 -3.2230635 -1.9637125
5.8550878 -2.4089937 -1.9668968
5.9128418 -2.2675874 -1.967344
5.9670801 -2.1247671 -1.9677664
6.0649705 -1.8352526 -1.9685359
6.1085544 -1.6887329 -1.9688827
6.1485252 -1.5411297 -1.9692037
6.184834 -1.3925897 -1.9694985
6.2174706 -1.2431799 -1.9697675
6.2464256 -1.0929888 -1.97001
6.2716503 -0.94211549 -1.970226
6.3109274 -0.63868284 -1.9705783
6.3249121 -0.48628783 -1.9707141
6.3443165 -0.02770813 -1.9709598
6.3297167 0.43107542 -1.9709616
6.3011327 0.73579955 -1.9708273
6.2812009 0.88751709 -1.9707195
6.2575583 1.0386877 -1.970585
6.1642966 1.4879785 -1.9700201
6.1258688 1.6360241 -1.969779
6.0837989 1.7830859 -1.9695113
5.9360642 2.2172112 -1.968552
5.879746 2.3592932 -1.9681811
5.7567382 2.6390009 -1.9673636
5.546865 3.0461626 -1.9659523
5.4703417 3.1782231 -1.965434
5.3906054 3.3083313 -1.9648923
5.3077149 3.4363976 -1.9643271
5.2217188 3.5623546 -1.9637394
5.1326952 3.6861131 -1.9631295
5.0406737 3.8076122 -1.9624975
4.945693 3.9267943 -1.9618438
4.8478613 4.0435495 -1.9611689
4.5378613 4.378684 -1.9590226
4.4292188 4.4851356 -1.9582679
4.2773337 4.5455785 -1.939039
4.081172 4.5523386 -1.8993591
3.8926463 4.5586424 -1.8622634
3.7110839 4.5645251 -1.8275563
3.3167088 4.7427735 -1.7979422
3.0813184 4.8927011 -1.7962881
2.8390331 5.0308313 -1.7945819
2.7155371 5.0953722 -1.7937109
2.5905859 5.1568518 -1.7928287
2.3365526 5.2704968 -1.7910327
1.8141503 5.4597702 -1.7873285
1.6810449 5.4990296 -1.7863827
-1.9776465 -5.3379016 -1.9100207
-1.849209 -5.3866129 -1.910931
-1.588789 -5.474813 -1.9127789
-1.4570215 -5.5142393 -1.913715
-1.3242188 -5.5505161 -1.9146594
-1.0560547 -5.613513 -1.9165685
-0.78489256 -5.6636209 -1.9185024
-0.64841795 -5.6837888 -1.919477
-0.51135743 -5.7006836 -1.9204563
-0.37393555 -5.7142782 -1.9214392
0.17870116 -5.7355194 -1.9253992
0.45557615 -5.7261362 -1.9273876
0.73196286 -5.7033811 -1.9293759
1.0071582 -5.6672649 -1.9313586
1.2806054 -5.6178317 -1.933332
2.2142186 -5.3413391 -1.9400946
2.3435645 -5.2889371 -1.9410346
2.723701 -5.1129255 -1.9438027
2.969873 -4.9802198 -1.9455997
3.0905175 -4.9093637 -1.9464816
3.2094727 -4.8355546 -1.9473523
3.4419432 -4.6792407 -1.9490565
3.5553222 -4.5968256 -1.9498891
3.6667187 -4.5116205 -1.9507079
3.7760253 -4.4236913 -1.9515127
3.8831835 -4.3330817 -1.9523025
4.0908594 -4.1440215 -1.9538363
4.1912208 -4.0456834 -1.9545795
4.5679979 -3.6282711 -1.9573795
4.6557422 -3.5182164 -1.9580346
4.8230858 -3.2917006 -1.9592876
5.0529199 -2.9369445 -1.9610189
5.3178415 -2.4389894 -1.9630353
5.4316993 -2.1806676 -1.9639124
5.4838476 -2.0494452 -1.9643167
5.5327539 -1.9169488 -1.9646984
5.5783982 -1.7832665 -1.965057
5.6207519 -1.6484784 -1.9653921
5.7277246 -1.2383038 -1.9662548
5.8041892 -0.82119381 -1.9669005
5.8228126 -0.68101072 -1.9670664
5.8379393 -0.54040831 -1.9672076
5.8496289 -0.39945984 -1.9673245
5.8625684 -0.11689758 -1.9674829
5.8638182 0.024539184 -1.9675246
5.8558202 0.30730042 -1.9675329
5.846611 0.44844726 -1.9674996
5.8177438 0.72983336 -1.9673578
5.6853905 1.423952 -1.9665694
5.6087208 1.6960577 -1.9660826
5.5187693 1.9639868 -1.9654995
5.4688768 2.0961754 -1.9651722
5.4157715 2.2270813 -1.9648215
5.3594432 2.3566101 -1.9644476
5.1029882 2.859472 -1.9627242
5.0312891 2.9809849 -1.9622383
4.7155175 3.4480357 -1.9600811
4.6295896 3.5596995 -1.9594907
4.5409665 3.6691868 -1.9588803
4.449707 3.776438 -1.9582504
4.1607618 4.0841002 -1.9562488
4.0595703 4.1817675 -1.9555453
3.956084 4.2768893 -1.9548249
3.6283007 4.5414929 -1.9504249
3.2904589 4.5526352 -1.8847842
2.9734471 4.5623426 -1.8272387
2.824785 4.5716295 -1.8031396
2.6991308 4.6135912 -1.7934813
2.5859375 4.675272 -1.7926837
2.4713085 4.734149 -1.7918746
2.2380664 4.8433628 -1.7902267
2.1195605 4.89364 -1.7893881
1.9999707 4.9410019 -1.7885412
1.8793261 4.9854198 -1.787686
1.7576855 5.0268664 -1.7868228
1.6351269 5.0653343 -1.7859524
0.75794917 5.2496448 -1.7797021
0.63078123 5.2637095 -1.778793
0.37582031 5.2825842 -1.776968
0.12050781 5.289104 -1.7751379
-0.0071191406 5.287744 -1.7742219
-0.13456054 5.283308 -1.7733065
-0.26183593 5.2758007 -1.7723917
-0.38881835 5.2652369 -1.7714782
-0.51542968 5.2516222 -1.7705667
-0.89243162 5.1926222 -1.7678481
-1.0169042 5.1669555 -1.7669492
-1.2636132 5.1067429 -1.7651651
-1.506914 5.0348291 -1.7634029
-1.7462499 4.951416 -1.7616665
-1.8642676 4.9054708 -1.7608089
-1.9810938 4.8567333 -1.7599596
-2.0966504 4.8052378 -1.7591186
-2.2108984 4.751018 -1.7582864
-2.9795117 4.5449281 -1.8234674
-3.4421387 4.5030713 -1.901799
-3.5482519 4.4169235 -1.9010177
-3.6523046 4.3283081 -1.9002507
-3.9510937 4.0481906 -1.898042
-4.0461035 3.9502454 -1.8973376
-4.2288671 3.7478368 -1.8959793
-4.3165431 3.6434886 -1.8953261
-4.6415133 3.2065618 -1.8928931
-4.7161131 3.0927629 -1.8923315
-4.9867187 2.6211822 -1.8902804
-5.0472555 2.4995246 -1.889818
-5.1048632 2.3765039 -1.889376
-5.1595602 2.252177 -1.8889548
-5.2112889 2.1266265 -1.8885545
-5.3483691 1.7432727 -1.8874819
-5.4881444 1.2191772 -1.8863574
-5.5153122 1.0863153 -1.8861316
-5.5778122 0.68449521 -1.8855898
-5.5923047 0.54971862 -1.8854547
-5.6036229 0.41465026 -1.885342
-5.61833 0.0083972169 -1.8851422
-5.6168261 -0.12711608 -1.8851216
-5.6121387 -0.26255798 -1.8851237
-5.593164 -0.53292543 -1.885197
-5.5788865 -0.66770017 -1.8852682
-5.5408201 -0.93607849 -1.8854791
-5.4900975 -1.202392 -1.885781
-5.4600391 -1.3345965 -1.8859659
-5.3905759 -1.5967315 -1.8864034
-5.3512011 -1.7265197 -1.8866558
-5.2633104 -1.9831784 -1.8872268
-5.2148337 -2.1099045 -1.8875451
-4.9912305 -2.6045425 -1.8890345
-4.9280663 -2.724786 -1.8894598
-4.8620701 -2.8435287 -1.8899057
-4.793242 -2.9607096 -1.8903723
-4.6473241 -3.1900973 -1.8913659
-4.5702929 -3.3021798 -1.8918926
-4.4906154 -3.4124413 -1.8924387
-4.2360544 -3.7316513 -1.8941909
-4.146162 -3.8339975 -1.894812
-4.0538478 -3.9342151 -1.8954509
-3.862119 -4.1280317 -1.8967816
-3.6612303 -4.3126664 -1.8981799
-3.4516406 -4.4876709 -1.8996429
-2.8925683 -4.8804135 -1.9035628
-2.656162 -5.0186205 -1.9052267
-2.5354881 -5.0834975 -1.9060775
-2.2894433 -5.2045951 -1.9078146
-2.1642675 -5.2607431 -1.9086998
-2.0376952 -5.3139043 -1.9095955
-1.7806737 -5.411149 -1.9114169
-0.84897459 -5.6529932 -1.9180452
-0.575957 -5.6931381 -1.9199946
-0.30105469 -5.7201409 -1.9219607
-0.16305664 -5.7286825 -1.9229488
0.25193357 -5.7343411 -1.9259248
0.39038086 -5.7295508 -1.9269192
0.66696286 -5.7099423 -1.928908
0.94251949 -5.6769671 -1.9308926
1.0797364 -5.6554813 -1.9318823
1.216416 -5.6306663 -1.9328685
2.0218945 -5.4126244 -1.9386981
2.2828221 -5.3140082 -1.9405929
2.5388672 -5.2027225 -1.9424556
2.7894237 -5.078999 -1.9442822
3.033916 -4.9431024 -1.9460678
3.153662 -4.8706784 -1.9469438
3.3879004 -4.7170725 -1.9486599
3.8329785 -4.3760786 -1.9519323
3.9389942 -4.2840738 -1.9527143
4.1442285 -4.0923004 -1.9542313
4.4341893 -3.7861037 -1.9563828
4.7846875 -3.3457789 -1.9589996
4.8654881 -3.2304006 -1.9596063
4.9434862 -3.1130362 -1.9601932
5.0185547 -2.9937592 -1.9607593
5.1599317 -2.7497449 -1.9618304
5.2261033 -2.6251595 -1.9623339
5.4060154 -2.241997 -1.9637136
5.5573239 -1.8463622 -1.9648912
5.6012106 -1.7120806 -1.965237
5.6790624 -1.4404217 -1.9658588
5.7434669 -1.1651758 -1.9663849
5.7705564 -1.0264263 -1.9666114
5.7942381 -0.88702881 -1.9668136
5.8445702 -0.46587339 -1.9672726
5.8543944 -0.32477966 -1.9673759
5.8630466 0.099379271 -1.9675364
5.8589354 0.24076416 -1.9675399
5.840332 0.52302182 -1.9674718
5.8258004 0.66371644 -1.9674002
5.8078122 0.80399841 -1.9673038
5.7014842 1.3593463 -1.9666699
5.6664257 1.4963092 -1.9664501
5.6279688 1.632337 -1.966206
5.5411329 1.9013091 -1.9656452
5.4927735 2.0340843 -1.9653291
5.4411621 2.1655993 -1.9649894
5.1357226 2.8016338 -1.9629458
5.0654392 2.9239893 -1.9624699
4.9921775 3.0445447 -1.9619724
4.9159765 3.1632323 -1.9614532
4.8369336 3.2799804 -1.9609132
4.5830369 3.6179051 -1.9591702
4.2075782 4.0372486 -1.9565737
3.9003906 4.326179 -1.9544369
2.8926756 4.5646887 -1.8132452
2.7519531 4.5835829 -1.7938534
2.6394141 4.6465721 -1.7930605
2.5254102 4.7067723 -1.7922566
2.2934179 4.8186827 -1.7906183
2.1754882 4.870327 -1.7897842
1.6929394 5.0475941 -1.7863631
1.5699219 5.0844727 -1.7854892
1.4461328 5.1183324 -1.7846088
1.3216015 5.1491637 -1.7837226
0.9444043 5.2233591 -1.7810336
0.69070309 5.257472 -1.7792214
0.5634082 5.2699037 -1.778311
0.4359082 5.2792492 -1.7773983
0.18061523 5.2886829 -1.775569
0.052968748 5.2887692 -1.7746533
-0.074570313 5.2857761 -1.7737374
-0.32906249 5.2705884 -1.7719083
-0.45584959 5.2584105 -1.7709956
-0.58226562 5.2431884 -1.7700852
-0.70818359 5.2249374 -1.7691776
-0.8336035 5.2036719 -1.7682729
-1.2058203 5.1219797 -1.7655835
-1.3283398 5.0888476 -1.7646966
-1.4499902 5.0528026 -1.7638155
-1.690293 4.9720788 -1.7620727
-2.0423925 4.8298264 -1.7595135
-2.1572657 4.7768846 -1.758677
-2.2707911 4.7212439 -1.7578497
-2.4935448 4.601974 -1.756224
-2.6160741 4.5619078 -1.7645074
-2.9078808 4.5474362 -1.8111057
-3.2191112 4.5362439 -1.8663735
-3.4985449 4.4578028 -1.9013839
-3.7064843 4.2804379 -1.8998508
-3.9055469 4.093534 -1.8983792
-4.1867089 3.7962573 -1.896293
-4.3619142 3.5874572 -1.8949875
-4.445703 3.4800596 -1.8943615
-4.5268946 3.3707335 -1.8937536
-4.6813083 3.1465678 -1.8925936
-4.8248534 2.9154742 -1.8915102
-4.8924608 2.7974913 -1.8909978
-4.9572067 2.6779718 -1.8905053
-5.0190916 2.5569811 -1.8900332
-5.0780954 2.4346008 -1.8895816
-5.1341696 2.3108783 -1.8891506
-5.1873045 2.1858959 -1.8887402
-5.2374315 2.0597179 -1.8883514
-5.2845602 1.9324175 -1.8879837
-5.3696876 1.6747235 -1.8873129
-5.4076562 1.5444671 -1.8870105
-5.4425387 1.4133776 -1.8867297
-5.474287 1.2815155 -1.8864714
-5.5986814 0.4782849 -1.8853924
-5.6146874 0.20770873 -1.8852147
-5.6147265 -0.19879577 -1.8851199
-5.5987692 -0.46935424 -1.8851714
-5.5286326 -1.006759 -1.88555
-5.3701267 -1.6655145 -1.8865342
-5.2380271 -2.0503674 -1.8873925
-5.1348925 -2.3014235 -1.8880742
-5.0789161 -2.4250901 -1.888447
-5.0199804 -2.5474188 -1.8888415
-4.893496 -2.7878058 -1.8896931
-4.8259959 -2.9057329 -1.8901501
-4.755703 -3.0220513 -1.8906274
-4.606904 -3.2496233 -1.8916421
-4.1887889 -3.786068 -1.8945172
-4.0040431 -3.9863625 -1.8957962
-3.8098438 -4.1777878 -1.897145
-3.7093358 -4.2700438 -1.8978447
-3.606621 -4.3599143 -1.8985608
-3.5017481 -4.4473548 -1.8992928
-3.3948047 -4.5323029 -1.9000405
-3.1748438 -4.6945462 -1.9015808
-2.9472265 -4.8462706 -1.9031787
-2.8306932 -4.9180613 -1.903998
-2.7124317 -4.9870863 -1.9048306
-2.5925097 -5.0533037 -1.9056756
-2.3479102 -5.1771345 -1.9074017
-2.2233887 -5.2346735 -1.9082816
-2.097461 -5.2892466 -1.9091723
-1.8416797 -5.3893538 -1.9109843
-1.711953 -5.434823 -1.9119045
-1.5811621 -5.4771943 -1.9128331
-0.91290039 -5.6416407 -1.9175891
-0.77696288 -5.6648841 -1.9185591
-0.50339842 -5.7015648 -1.9205133
-0.36591795 -5.7149734 -1.9214965
0.048310544 -5.7353125 -1.9244637
0.18677734 -5.7354364 -1.925457
0.32521483 -5.7322226 -1.9264511
0.46362305 -5.7256641 -1.9274455
0.60190427 -5.7157636 -1.9284399
0.73997068 -5.7025199 -1.9294336
0.87775391 -5.6859374 -1.930426
1.0151465 -5.6660137 -1.9314163
1.2885644 -5.6161976 -1.9333895
1.4243749 -5.586318 -1.9343706
1.5594727 -5.5531373 -1.9353479
1.959834 -5.4339786 -1.9382479
2.2217968 -5.3383751 -1.9401495
2.3510449 -5.2857924 -1.941089
2.6057129 -5.1711936 -1.9429427
2.730957 -5.1092358 -1.9438555
2.8547266 -5.0442195 -1.9447589
3.0974998 -4.9051504 -1.9465328
3.2163572 -4.8311691 -1.9474027
3.5618651 -4.5919414 -1.9499371
3.673125 -4.5065837 -1.9507552
3.7822948 -4.418498 -1.9515588
3.994199 -4.2343354 -1.9531219
4.1969628 -4.0398808 -1.9546218
4.294795 -3.9389381 -1.9553473
4.6607618 -3.5117428 -1.9580721
4.7456737 -3.39941 -1.9587073
5.2598634 -2.5585864 -1.9625915
5.3796582 -2.3030298 -1.9635104
5.434834 -2.1730676 -1.9639364
5.5809374 -1.7754511 -1.9650772
5.7295213 -1.2302673 -1.9662699
5.7582126 -1.0918481 -1.9665077
5.7835155 -0.95274717 -1.9667214
5.8053613 -0.8130548 -1.9669107
5.8237891 -0.67283875 -1.9670755
5.8387303 -0.53221494 -1.9672152
5.8582129 -0.25005004 -1.9674206
5.8553805 0.31551147 -1.9675317
5.8459668 0.45665464 -1.9674969
5.7968845 0.87803829 -1.9672427
5.7736325 1.0175318 -1.9671081
5.746953 1.1563995 -1.966949
5.6465039 1.5684009 -1.966324
5.6062989 1.7039105 -1.966067
5.5159569 1.9717144 -1.9654809
5.465879 2.1038306 -1.9651524
5.4125876 2.2346532 -1.9648005
5.2336426 2.6185639 -1.9636058
5.1677833 2.7434173 -1.9631622
5.0989161 2.8665843 -1.9626968
4.7939453 3.3409472 -1.9606189
4.6245017 3.5661304 -1.9594555
4.4443164 3.7826073 -1.9582132
4.3503318 3.8874121 -1.9575632
4.2538571 3.9898448 -1.9568948
4.1549315 4.0898523 -1.9562081
4.0536036 4.1873741 -1.9555041
3.7360058 4.4644408 -1.9532897
3.6181347 4.5418396 -1.9483895
3.280957 4.5529356 -1.8830023
3.1203418 4.5579371 -1.8533957
2.6926074 4.6172547 -1.7934353
2.5792968 4.6787753 -1.7926366
2.3485155 4.7933578 -1.7910076
2.2312012 4.8463645 -1.7901782
1.7505566 5.0291882 -1.7867723
1.5045215 5.1027637 -1.7850242
1.255459 5.164248 -1.7832516
1.0039258 5.2135377 -1.7814584
0.87744141 5.2335801 -1.7805557
0.75056636 5.2505493 -1.7796493
0.6233691 5.2644358 -1.7787399
0.49596679 5.2752342 -1.7778283
0.36838865 5.2829442 -1.776915
0.24072266 5.2875695 -1.776
0.11306641 5.2891111 -1.7750845
-0.014521484 5.2875681 -1.7741686
-0.14199218 5.2829514 -1.7732531
-0.26922852 5.2752695 -1.7723385
-0.64894527 5.2339087 -1.7696046
-0.89968747 5.1912084 -1.7677958
-1.0241308 5.1653709 -1.7668971
-1.270752 5.1048117 -1.7651135
-1.634082 4.9921141 -1.7624807
-1.7531543 4.9488196 -1.7616163
-1.9878515 4.8538132 -1.7599102
-2.1033399 4.8021579 -1.7590698
-2.5524511 4.5704894 -1.7564973
-2.8371093 4.5498729 -1.7991229
-2.9884374 4.5446129 -1.8250206
-3.14416 4.5390062 -1.8526968
-3.4483593 4.4981308 -1.9017532
-3.5543847 4.4118371 -1.9009726
-3.6582909 4.323071 -1.9002066
-3.9566991 4.0425587 -1.8980005
-4.1440134 3.8442187 -1.8966105
-4.3215623 3.6373608 -1.8952887
-4.4889841 3.422451 -1.8940375
-4.6459179 3.1999876 -1.8928599
-4.7203512 3.0860875 -1.8922994
-4.8609762 2.85325 -1.8912365
-5.1081247 2.3693089 -1.8893509
-5.2141991 2.1192796 -1.8885318
-5.262754 1.9925042 -1.8881541
-5.3082614 1.8646368 -1.8877978
-5.3901658 1.6059155 -1.8871502
-5.4597168 1.3437078 -1.8865902
-5.4898243 1.2114618 -1.8863436
-5.5406151 0.94509095 -1.8859173
-5.5612597 0.8110913 -1.885738
-5.6168065 0.13602844 -1.8851827
-5.6036911 -0.40571961 -1.885151
-5.5395212 -0.94385862 -1.8854864
-5.4884472 -1.2101123 -1.8857909
-5.4582028 -1.3422699 -1.8859774
-5.4248338 -1.4736919 -1.8861861
-5.3488379 -1.7340454 -1.8866711
-5.3062205 -1.8628253 -1.886947
-5.2605662 -1.9905779 -1.8872448
-5.160254 -2.2427509 -1.8879058
-5.1056638 -2.3670158 -1.8882687
-5.0480957 -2.4899776 -1.888653
-4.987627 -2.6115844 -1.8890588
-4.5657325 -3.3086455 -1.8919238
-4.4034376 -3.5270641 -1.8930373
-4.3184276 -3.633374 -1.8936228
-4.1408691 -3.8398833 -1.8948486
-4.0483885 -3.9399822 -1.8954887
-3.9535546 -4.0378828 -1.8961465
-3.8563867 -4.1335378 -1.8968214
-3.7569432 -4.2268977 -1.897513
-3.6552539 -4.3178964 -1.8982215
-3.5514061 -4.4064841 -1.898946
-3.2273436 -4.6572852 -1.9012127
-3.115371 -4.7357264 -1.9019979
-2.7683399 -4.9549317 -1.9044369
-2.6491797 -5.0224748 -1.9052759
-2.2822168 -5.2079449 -1.9078659
-2.156914 -5.2639208 -1.9087518
-1.9023535 -5.3668809 -1.9105542
-1.6429784 -5.4576263 -1.9123939
-1.3791504 -5.5359302 -1.9142685
-0.97671872 -5.6295714 -1.917134
-0.01680664 -5.7341013 -1.9239968
0.12158203 -5.7357965 -1.9249891
0.39845702 -5.7291698 -1.9269772
0.53680664 -5.7208433 -1.9279717
0.67498046 -5.7091708 -1.9289657
1.360459 -5.6007986 -1.9339089
1.495957 -5.5691748 -1.9348884
1.630664 -5.5342526 -1.9358629
2.2903223 -5.3109469 -1.9406475
2.418916 -5.256691 -1.9415826
2.6721582 -5.138793 -1.9434267
2.91958 -5.0085936 -1.9452322
3.1605859 -4.8663712 -1.9469944
3.5087597 -4.6311741 -1.9495471
3.7311523 -4.4603105 -1.9511822
3.8392284 -4.3708014 -1.9519784
4.0487499 -4.1838737 -1.9535251
4.1500683 -4.0865693 -1.9542745
4.249043 -3.9867804 -1.9550079
4.3455663 -3.8845487 -1.9557241
4.43958 -3.7799542 -1.9564228
4.7894726 -3.3391194 -1.9590356
4.8701267 -3.223624 -1.9596411
5.0948629 -2.8655331 -1.9613366
5.4092383 -2.234437 -1.9637387
5.4627247 -2.1037543 -1.9641527
5.512949 -1.9717754 -1.9645437
5.5599704 -1.8385769 -1.9649119
5.6036716 -1.7042401 -1.9652566
5.7720118 -1.0183239 -1.9666238
5.7954979 -0.87889892 -1.9668247
5.8548727 -0.31656006 -1.9673812
5.8637204 -0.033842161 -1.9675103
5.8395801 0.53122371 -1.9674684
5.7850194 0.95190793 -1.9671746
5.7314453 1.2295971 -1.9668547
5.6995506 1.3673413 -1.966658
5.6642575 1.5042419 -1.9664364
5.6256442 1.6402307 -1.9661911
5.5836816 1.7751971 -1.9659213
5.5383983 1.9090704 -1.9656274
5.4898634 2.0417688 -1.96531
5.438076 2.1732213 -1.9649692
5.1317186 2.8088043 -1.9629186
5.0612597 2.9310503 -1.9624417
4.8322167 3.2867169 -1.9608809
4.7501855 3.401334 -1.9603192
4.5778513 3.6242688 -1.9591345
4.4876857 3.732445 -1.9585125
4.2995996 3.9419141 -1.9572119
4.1016212 4.1417651 -1.955838
2.8837988 4.5649424 -1.8117341
2.5187011 4.7101903 -1.7922093
2.286582 4.8217649 -1.7905699
2.168623 4.8732433 -1.7897353
2.0494726 4.9218078 -1.7888919
1.9292284 4.9674473 -1.7880398
1.8079981 5.0101233 -1.7871799
1.6858106 5.049819 -1.7863126
1.5627539 5.0865207 -1.7854382
1.3143164 5.1508665 -1.7836708
1.189121 5.1784801 -1.7827789
0.68331051 5.2582812 -1.7791685
0.55596679 5.2705336 -1.7782577
0.42847654 5.2796998 -1.7773452
0.30084962 5.2857752 -1.776431
0.17319335 5.2887707 -1.7755157
0.045537107 5.2886777 -1.7745999
-0.081982419 5.2855101 -1.7736841
-0.2093457 5.2792687 -1.7727691
-0.33646482 5.2699656 -1.7718551
-0.4632324 5.2576051 -1.7709424
-0.71549803 5.2237854 -1.7691247
-1.0896777 5.1504993 -1.7664233
-1.9330077 4.8771811 -1.7603095
-2.0491016 4.8268223 -1.7594647
-2.1638963 4.7737241 -1.7586286
-2.4999316 4.5983481 -1.7561773
-2.6239648 4.5608335 -1.7655134
-2.7672949 4.5522399 -1.7875124
-3.2284374 4.5358973 -1.8680919
-3.3915918 4.5297251 -1.8987018
-3.6096191 4.3651757 -1.9005655
-3.7123828 4.2751379 -1.8998073
-4.0071778 3.9909363 -1.8976263
-4.1007714 3.8916919 -1.8969318
-4.2806544 3.6868017 -1.8955935
-4.4505076 3.4737425 -1.8943255
-4.6099415 3.2530229 -1.8931303
-4.6856346 3.1399415 -1.892561
-4.828867 2.9086504 -1.8914797
-4.8962889 2.790581 -1.8909686
-5.137363 2.3036406 -1.8891259
-5.2402539 2.0523381 -1.8883294
-5.4444723 1.4057232 -1.8867141
-5.5044923 1.1412182 -1.886222
-5.5709081 0.74002075 -1.8856524
-5.6149802 0.19982849 -1.8852106
-5.6180177 0.064324953 -1.8851575
-5.6178317 -0.071195677 -1.8851272
-5.6078906 -0.34203491 -1.8851358
-5.598115 -0.47721374 -1.8851745
-5.5690136 -0.74668884 -1.8853207
-5.5496969 -0.88084346 -1.8854281
-5.5272264 -1.0145258 -1.8855582
-5.5016012 -1.1476372 -1.8857112
-5.3678417 -1.6730652 -1.8865489
-4.7515235 -3.0287697 -1.8906558
-4.523828 -3.3671637 -1.892211
-4.4426074 -3.4763207 -1.892768
-4.2724023 -3.6888118 -1.89394
-4.1835642 -3.7920184 -1.8945535
-4.0922461 -3.893115 -1.895185
-3.9985254 -3.9920549 -1.8958344
-3.9024315 -4.0887809 -1.8965014
-3.703408 -4.2753391 -1.897886
-3.6005664 -4.3650689 -1.898603
-3.3885155 -4.5371737 -1.9000845
-3.2794237 -4.6194372 -1.900848
-3.16833 -4.699111 -1.9016266
-3.0553515 -4.7761607 -1.9024194
-2.5854785 -5.0570688 -1.905725
-2.4638672 -5.1202621 -1.906583
-2.216084 -5.2379332 -1.9083334
-2.0900781 -5.2923307 -1.9092246
-1.7043555 -5.437377 -1.9119582
-1.3087207 -5.554533 -1.9147695
-0.76905274 -5.6661315 -1.9186157
-0.63248044 -5.685925 -1.9195907
-0.35787109 -5.7156529 -1.9215541
-0.22004883 -5.7255578 -1.9225405
-0.08191406 -5.7321477 -1.9235302
0.19483398 -5.7353406 -1.9255148
0.3332617 -5.7319312 -1.9265088
0.60995114 -5.7150826 -1.9284979
0.74798828 -5.7016449 -1.9294914
0.88576168 -5.6848655 -1.9304837
1.2964746 -5.6145482 -1.9334466
1.7016015 -5.5144567 -1.9363765
1.8349999 -5.4745417 -1.9373428
