# .PCD v0.7 - Point Cloud Data file format
VERSION 0.7
FIELDS x y z
SIZE 4 4 4
TYPE F F F
COUNT 1 1 1
WIDTH 1502
HEIGHT 1
VIEWPOINT 0 0 0 1 0 0 0
POINTS 1502
DATA ascii
-4.1258302 -7.0028 -1.7419815
-3.9582813 -7.1051126 -1.7431533
-3.7882617 -7.2034793 -1.7443435
-3.6158299 -7.2978563 -1.7455523
-3.4410644 -7.3881769 -1.7467782
-3.0849805 -7.556428 -1.7492803
-2.903867 -7.6342239 -1.7505548
-2.5357811 -7.7769637 -1.753148
-2.3491991 -7.8417716 -1.7544644
-2.1608984 -7.9021621 -1.755794
-1.7798047 -8.0095034 -1.7584888
-1.393418 -8.0986376 -1.7612251
-1.1985059 -8.1362886 -1.7626072
-1.0025977 -8.1692848 -1.7639974
-0.80579102 -8.1975899 -1.7653955
-0.60821289 -8.2211809 -1.7667996
-0.40995115 -8.240036 -1.7682101
-0.2112207 -8.2541246 -1.7696251
-0.011904296 -8.2634468 -1.7710452
0.18764648 -8.2679634 -1.7724681
0.38739258 -8.2676659 -1.7738934
0.58736324 -8.2625628 -1.7753216
1.1864063 -8.2182093 -1.7796066
1.3854883 -8.1937485 -1.781033
1.7820898 -8.1303196 -1.7838778
1.9793652 -8.0913658 -1.7852944
2.1757812 -8.047595 -1.7867063
2.5655663 -7.9456944 -1.7895113
2.9505565 -7.8247647 -1.7922866
3.1409276 -7.7572188 -1.7936609
3.8856835 -7.4406247 -1.7990489
4.0670996 -7.3500576 -1.8003645
4.2463574 -7.2549996 -1.8016658
4.4233494 -7.1555204 -1.8029518
4.5979686 -7.0516558 -1.8042221
4.7701368 -6.9434562 -1.8054757
5.1065431 -6.7143106 -1.8079295
5.4316993 -6.4685888 -1.8103067
5.8965135 -6.0701075 -1.8137161
6.3263183 -5.9128962 -1.855894
6.6315918 -5.9048829 -1.9030763
6.952734 -5.8962693 -1.9538214
7.1708984 -5.7896619 -1.9752789
7.3124313 -5.6178937 -1.976329
7.4497166 -5.4426041 -1.9773492
7.7112694 -5.0818062 -1.9792993
8.0696478 -4.5167618 -1.9819878
8.2849607 -4.1255035 -1.9836154
8.3853321 -3.9258792 -1.9843779
8.656435 -3.3124402 -1.9864548
8.8115234 -2.892638 -1.9876591
8.8811913 -2.6798935 -1.9882058
8.9455862 -2.4654238 -1.9887148
9.00459 -2.2493417 -1.9891862
9.0582418 -2.0318267 -1.9896196
9.1491795 -1.5929742 -1.9903704
9.1864252 -1.3719385 -1.9906875
9.218154 -1.1499939 -1.9909654
9.2443161 -0.92731321 -1.9912039
9.2799606 -0.48025513 -1.9915619
9.2893944 -0.2561847 -1.9916815
9.2841597 0.41653198 -1.9918002
9.2712107 0.64046448 -1.9917599
9.252676 0.86398005 -1.9916795
9.2285738 1.0869501 -1.9915593
9.1230173 1.7511981 -1.9909604
9.0768261 1.9705877 -1.9906818
9.025176 2.188709 -1.9903637
8.9681149 2.405457 -1.9900069
8.9056931 2.6206567 -1.9896115
8.8379297 2.8341863 -1.9891775
8.764883 3.0459375 -1.9887054
8.6865911 3.2557275 -1.9881954
8.6031151 3.4634552 -1.987648
8.5145311 3.6689947 -1.9870635
8.4208689 3.8721905 -1.9864422
8.322217 4.0729313 -1.985785
7.8236618 4.5582404 -1.9406183
7.1425195 4.6369205 -1.825094
7.0254493 4.80585 -1.8242978
6.9043064 4.9717364 -1.8234719
6.77915 5.1344953 -1.8226166
6.380322 5.6030374 -1.8198794
6.239902 5.7523284 -1.8189121
6.0959764 5.8980122 -1.817919
5.9485154 6.0400324 -1.8168997
5.7976856 6.1782694 -1.8158554
5.6435547 6.312664 -1.8147867
5.4862595 6.4431462 -1.8136947
5.3259082 6.5696292 -1.8125796
5.1625781 6.6920428 -1.8114427
4.7144337 6.4261346 -1.7081442
4.4799218 6.4260612 -1.6788921
4.0921874 6.5193243 -1.649685
3.8760545 6.5192523 -1.6255167
3.6659961 6.5191827 -1.6029642
3.4616113 6.5191131 -1.5819405
3.2623827 6.5190473 -1.5623584
3.0679102 6.5189786 -1.5441418
2.8778222 6.5189128 -1.5272257
2.3303125 6.5187173 -1.4836837
1.8104882 6.5185261 -1.4499429
1.6420996 6.5184636 -1.4406906
1.4757617 6.5184002 -1.4323856
1.3112304 6.5183353 -1.4250011
1.1482812 6.5182734 -1.4185137
0.98672849 6.5182085 -1.4129044
0.66695309 6.5180793 -1.404254
0.3503418 6.5179496 -1.3989482
0.035380859 6.5178165 -1.3969252
-0.12195312 6.5177507 -1.3971339
-0.27578124 6.4333515 -1.3800675
-0.43151367 6.4332843 -1.3818847
-0.74477535 6.4337039 -1.3880844
-0.91425776 6.5168447 -1.4103733
-1.0752051 6.5167718 -1.4155623
-1.7339159 6.5164666 -1.4452084
-2.6081347 6.5160441 -1.5042394
-2.7923827 6.5159512 -1.519338
-3.3695898 6.5156598 -1.5721304
-3.5713964 6.5155573 -1.5924435
-3.7786229 6.515451 -1.6142392
-3.9917285 6.5153399 -1.6376108
-4.4151855 6.8307562 -1.7431842
-4.7331834 6.6007404 -1.7408066
-4.8879004 6.4803863 -1.7396747
-5.0396776 6.3564582 -1.7385629
-5.1883397 6.2290802 -1.7374722
-5.3338575 6.0983038 -1.7364036
-5.6152048 5.8268704 -1.7343328
-5.7508788 5.6863847 -1.7333322
-5.8830957 5.5428095 -1.7323554
-6.1370411 5.246779 -1.7304745
-6.2585936 5.0944781 -1.7295718
-6.3764744 4.9394574 -1.7286944
-6.8403807 4.5471549 -1.7604147
-7.5026073 4.4810452 -1.8729559
-7.7038474 4.1104593 -1.871434
-7.797832 3.9218547 -1.8707193
-7.8873143 3.7311516 -1.8700366
-7.9722848 3.5384929 -1.8693855
-8.2661428 2.7502062 -1.8671054
-8.3850098 2.3469532 -1.8661636
-8.437295 2.1434405 -1.8657432
-8.5984278 1.3192102 -1.8644019
-8.6266012 1.1111785 -1.8641528
-8.6818552 0.4840509 -1.8636128
-8.6904974 0.2743634 -1.8635025
-8.6870213 -0.35503417 -1.863381
-8.6760645 -0.56457579 -1.8634106
-8.6394625 -0.98264647 -1.8635746
-8.6138763 -1.1909399 -1.8637089
-8.5480566 -1.6055188 -1.8640823
-8.5079298 -1.8115686 -1.8643206
-8.3587008 -2.4235268 -1.8652434
-8.2994728 -2.6250641 -1.8656194
-8.235508 -2.8252034 -1.8660293
-8.1668453 -3.0238259 -1.8664733
-8.0156832 -3.416199 -1.8674606
-7.9332128 -3.6097057 -1.8680042
-7.6587691 -4.1782436 -1.8698306
-7.5584273 -4.36342 -1.8705038
-7.4537301 -4.5462871 -1.8712084
-7.231504 -4.9045696 -1.8727108
-7.1140528 -5.079833 -1.8735082
-6.8668356 -5.4220386 -1.8751931
-6.1710153 -5.9232059 -1.8332549
-5.8870115 -5.9301085 -1.7908862
-5.2697754 -6.1391273 -1.7340189
-5.1230664 -6.2681894 -1.735036
-4.8205075 -6.515964 -1.7371374
-4.6647263 -6.6345444 -1.7382214
-4.5061326 -6.7494707 -1.7393266
-4.180654 -6.9681277 -1.7415984
-4.0139747 -7.071722 -1.7427636
-2.7814062 -7.683948 -1.7514169
-2.5972459 -7.7545471 -1.7527145
-2.4110057 -7.8208466 -1.7540283
-2.2232909 -7.8827004 -1.7553533
-1.843164 -7.9930124 -1.7580404
-1.6510351 -8.0413857 -1.7594001
-1.2630566 -8.1243591 -1.7621493
-1.0674609 -8.1588945 -1.7635369
-0.87095702 -8.188756 -1.7649324
-0.67359376 -8.2139082 -1.7663348
-0.27685547 -8.2500153 -1.7691576
0.52127928 -8.2647858 -1.7748495
0.72116208 -8.2564383 -1.7762778
0.92095703 -8.2432547 -1.7777067
1.3197558 -8.2023745 -1.7805618
1.7167284 -8.1421394 -1.7834086
2.695039 -7.9073253 -1.7904443
3.0781641 -7.7800674 -1.7932076
3.2675195 -7.7093945 -1.7945753
3.6411717 -7.5541067 -1.7972778
4.365078 -7.1888957 -1.8025284
4.5405273 -7.0864649 -1.8038039
4.8839254 -6.868639 -1.8063051
5.0517087 -6.7533464 -1.8075292
5.21667 -6.6338854 -1.8087339
5.3787889 -6.5103135 -1.8099196
5.5379004 -6.3827233 -1.8110845
5.9962497 -5.9764557 -1.8144495
6.228652 -5.915421 -1.8410299
7.1232128 -5.8456454 -1.9749258
7.4047947 -5.5009403 -1.9770151
7.6692481 -5.142354 -1.9789855
8.032197 -4.5803514 -1.9817059
8.4497557 -3.790838 -1.984869
8.5418262 -3.5870759 -1.9855734
8.6287985 -3.3810382 -1.9862418
8.787324 -2.9625697 -1.9874701
8.9248924 -2.5364919 -1.9885507
8.9856739 -2.3209383 -1.9890347
9.1747065 -1.4451007 -1.9905868
9.208271 -1.2234515 -1.990878
9.2587204 -0.77788329 -1.9913414
9.2869139 -0.3302893 -1.9916464
9.2927046 0.11822204 -1.991792
9.276103 0.56647766 -1.9917777
9.2594137 0.79013914 -1.9917104
9.2093353 1.2358539 -1.9914565
9.1759567 1.4575988 -1.9912698
9.1370897 1.6784412 -1.9910438
9.0927048 1.8981975 -1.9907782
8.9875784 2.3339703 -1.9901292
8.9269142 2.5496912 -1.9897463
8.8609276 2.7637873 -1.9893252
8.713047 3.1865947 -1.9883682
8.5443649 3.6013019 -1.9872607
8.355361 4.006866 -1.9860061
8.2534084 4.2058845 -1.985325
7.9617476 4.5539899 -1.9657928
7.1911912 4.5874019 -1.828124
6.9447947 4.9172382 -1.8237481
6.5614352 5.3989787 -1.8211246
6.4259276 5.5529251 -1.8201932
6.1439648 5.8502569 -1.8182501
5.9976268 5.9935026 -1.8172392
5.8479199 6.1329899 -1.8162032
5.5386033 6.4004507 -1.8140582
5.3792577 6.5282645 -1.8129508
4.5565624 6.4260855 -1.6883422
4.1650782 6.5193472 -1.6580474
3.9468067 6.5192752 -1.6333231
3.3276758 6.5190692 -1.5686752
3.1316893 6.519002 -1.5500158
2.9402051 6.5189347 -1.532678
2.7528319 6.5188689 -1.5165957
2.569248 6.5188041 -1.5017147
2.2121778 6.5186749 -1.4753457
2.0380957 6.5186114 -1.4637696
1.8666406 6.518548 -1.4532139
1.6975195 6.5184841 -1.4436432
1.5305371 6.5184207 -1.4350283
1.3654199 6.5183563 -1.4273415
1.04 6.5182304 -1.4146621
0.71955079 6.5181012 -1.4054506
0.40250975 6.5179715 -1.3995982
0.24481444 6.5179057 -1.3979086
0.087382808 6.5178399 -1.3970344
-0.069931641 6.5177741 -1.3969742
-0.22437499 6.4333744 -1.3796443
-0.69280273 6.4337249 -1.3868527
-1.0218555 6.5167961 -1.4137512
-1.3468652 6.5166473 -1.4261712
-1.5116894 6.5165701 -1.433723
-1.8471484 6.5164118 -1.4516277
-2.0182323 6.5163312 -1.4620368
-2.5480175 6.5160732 -1.4995054
-3.1086719 6.5157928 -1.547266
-3.709502 6.5154862 -1.6068661
-3.9206054 6.5153766 -1.6297064
-4.5228319 6.7553372 -1.7423602
-4.6812596 6.6395855 -1.7411441
-4.9898243 6.3978128 -1.7389282
-5.2861032 6.1418962 -1.7367544
-5.8397751 5.5906048 -1.7326754
-5.9696579 5.4450297 -1.7317147
-6.3379197 4.9910016 -1.7289816
-6.45332 4.8341813 -1.7281216
-6.5648336 4.674788 -1.727289
-6.729238 4.5510745 -1.7410959
-7.0732322 4.5388813 -1.8012255
-7.5719433 4.3580241 -1.8724325
-7.6718163 4.172338 -1.8716769
-7.7672558 3.9844403 -1.8709521
-7.858232 3.7944133 -1.8702587
-7.9447069 3.6023955 -1.8695971
-8.0266018 3.4084771 -1.8689677
-8.1039352 3.2127397 -1.8683703
-8.3666506 2.4139702 -1.8663104
-8.4205275 2.2108338 -1.8658786
-8.5139256 1.8012249 -1.8651168
-8.5534077 1.5949377 -1.8647872
-8.6178217 1.1800213 -1.8642312
-8.6627932 0.76264161 -1.8638136
-8.6940136 -0.075928345 -1.8633959
-8.6895704 -0.2857129 -1.863379
-8.6802053 -0.49533203 -1.8633971
-8.6659861 -0.7046997 -1.8634499
-8.5602932 -1.5372052 -1.8640109
-8.4301949 -2.1533594 -1.864796
-8.3195801 -2.5585856 -1.8654913
-8.2571678 -2.7591982 -1.8658901
-8.1900778 -2.9583604 -1.8663226
-8.0419331 -3.3518367 -1.8672884
-7.6909957 -4.1165299 -1.869615
-7.5920897 -4.3024583 -1.8702776
-7.3812499 -4.6673298 -1.8716975
-7.2694039 -4.8460526 -1.8724539
-7.1533203 -5.0221896 -1.8732415
-7.0331249 -5.195621 -1.874059
-6.9087987 -5.366272 -1.8749064
-6.7804294 -5.5340195 -1.8757837
-6.6481442 -5.6987915 -1.8766894
-6.5119042 -5.860498 -1.8776239
-5.4600291 -5.9622221 -1.7327025
-5.3175583 -6.0957279 -1.733688
-5.0231543 -6.3526797 -1.7357293
-4.8713183 -6.4759898 -1.7367842
-4.7165427 -6.5957446 -1.7378608
-4.558867 -6.7118855 -1.7389588
-4.3983884 -6.8243394 -1.7400781
-4.2352052 -6.9330339 -1.7412171
-4.069365 -7.0379033 -1.7423762
-3.9009569 -7.1388922 -1.7435546
-3.5568554 -7.3289285 -1.7459658
-2.8420899 -7.6596103 -1.7509897
-2.6583593 -7.7316771 -1.7522839
-2.0967481 -7.9216242 -1.7562472
-1.9064159 -7.9760165 -1.7575927
-1.5216894 -8.0712109 -1.7603161
-1.3274902 -8.1119204 -1.7616925
-1.1322168 -8.1479921 -1.7630775
-0.93599606 -8.1794004 -1.7644705
-0.73894531 -8.206111 -1.7658703
-0.54111326 -8.2281055 -1.7672769
-0.14374024 -8.2578068 -1.7701057
0.055703122 -8.2655201 -1.7715271
0.85492188 -8.2481518 -1.7772343
1.253916 -8.2104673 -1.7800903
1.4528515 -8.1843653 -1.7815157
1.65125 -8.1534309 -1.7829386
1.8490429 -8.1176577 -1.7843585
2.0460057 -8.0770674 -1.7857733
2.2421093 -8.0316792 -1.7871832
2.437207 -7.9814959 -1.7885871
2.8238964 -7.8668332 -1.7913733
3.0152147 -7.8023977 -1.7927532
3.2050977 -7.7332778 -1.7941244
3.3933592 -7.6594858 -1.7954849
3.5798826 -7.5810571 -1.7968342
3.7645996 -7.4980316 -1.7981715
3.9473925 -7.4104409 -1.7994963
4.1280761 -7.3183489 -1.8008069
5.3254881 -6.5516253 -1.8095297
5.6426563 -6.2951026 -1.8118523
5.7965722 -6.1609178 -1.8129818
5.9471774 -6.0229101 -1.8140887
6.1325097 -5.9178882 -1.8265103
6.4280372 -5.9102454 -1.8714972
6.7385154 -5.9020352 -1.9198486
7.7537985 -5.0193706 -1.9796175
7.876328 -4.833035 -1.9805349
7.9942479 -4.6436262 -1.9814205
8.107461 -4.4512668 -1.9822732
8.3195314 -4.0581756 -1.9838775
8.418232 -3.8576446 -1.9846286
8.5119534 -3.6546907 -1.9853443
8.600605 -3.4493997 -1.9860247
8.6841698 -3.2418942 -1.9866693
8.7625685 -3.0323079 -1.9872772
8.8357229 -2.8207419 -1.9878485
9.0233889 -2.1757996 -1.9893374
9.1624022 -1.5181738 -1.9904821
9.2803907 0.4924292 -1.9917909
9.2451468 0.9396106 -1.9916433
9.2191601 1.1623657 -1.9915096
9.1876173 1.3843848 -1.991336
9.0599413 2.0446558 -1.9905784
8.5736618 3.5333612 -1.9874542
8.3879881 3.9404838 -1.9862237
8.2876854 4.1403608 -1.9855543
8.1824217 4.3376508 -1.9848489
7.1033301 4.6944804 -1.8248278
6.8623242 5.0272503 -1.8231852
6.6053905 5.3473382 -1.821426
5.5906348 6.3573136 -1.8144195
5.4322948 6.4864483 -1.8133196
5.2708983 6.6115751 -1.8121967
4.4199414 6.4518242 -1.6761227
4.0182128 6.5193 -1.6413074
3.8042188 6.5192289 -1.6176995
3.1959863 6.5190239 -1.5560373
2.814326 6.5188909 -1.5217777
2.4483104 6.5187616 -1.4923971
2.2703514 6.5186968 -1.4794036
1.9230371 6.5185685 -1.4565922
1.7531836 6.5185051 -1.4467007
1.5855273 6.5184402 -1.4377719
1.2558594 6.5183134 -1.4227043
1.0933789 6.5182514 -1.4165149
0.93226558 6.5181875 -1.4111993
0.77224606 6.5181217 -1.4067394
0.61314452 6.5180569 -1.4031224
0.29691404 6.5179276 -1.3983766
-0.017929686 6.5177937 -1.3969042
-0.17527343 6.5177274 -1.3973895
-0.3284961 6.4333291 -1.380592
-0.48438475 6.4332609 -1.382683
-0.79814452 6.4336796 -1.3894418
-0.96866208 6.5168195 -1.4120346
-1.6230664 6.5165176 -1.4392937
-1.9613965 6.5163593 -1.4584855
-2.488291 6.5161028 -1.4948971
-2.6701562 6.5160122 -1.5092236
-2.8556542 6.5159197 -1.5247246
-3.0451171 6.5158257 -1.5414544
-3.4373729 6.5156279 -1.5788488
-3.640996 6.515523 -1.5996579
-3.8501658 6.5154133 -1.6219794
-4.6291895 6.6782646 -1.7415441
-4.9396582 6.438776 -1.7392955
-5.0903711 6.3136845 -1.7381911
-5.661572 5.7796121 -1.733991
-5.7960644 5.6380744 -1.7329985
-5.9271383 5.4934855 -1.7320296
-6.0546579 5.345932 -1.7310852
-6.1786227 5.1954975 -1.7301657
-6.5284472 4.7277641 -1.7275609
-6.6375194 4.5666852 -1.7267452
-6.9568944 4.5430264 -1.78078
-7.3169627 4.5301323 -1.8444241
-7.5379491 4.4189043 -1.8726891
-7.6392574 4.2339749 -1.8719234
-7.8286328 3.8574712 -1.8704846
-8.0000391 3.4727702 -1.8691722
-8.0788765 3.277633 -1.8685642
-8.4539356 2.074209 -1.8656085
-8.5408888 1.6632483 -1.8648925
-8.5771284 1.4564129 -1.864586
-8.6350393 1.0405377 -1.8640761
-8.6734667 0.62255859 -1.8637048
-8.6923237 0.20326842 -1.8634728
-8.6943941 -0.0065557859 -1.8634094
-8.6915627 -0.21636963 -1.863381
-8.683857 -0.42605469 -1.8633871
-8.6712399 -0.63550782 -1.8634286
-8.6537209 -0.84461182 -1.863505
-8.6313381 -1.053305 -1.8636163
-8.5719824 -1.4688036 -1.8639435
7.7702732 -2.975137 -1.9802096
7.8420215 -2.7875357 -1.9807652
7.9090915 -2.5981538 -1.9812878
7.9714451 -2.4071231 -1.9817772
8.0818939 -2.0205765 -1.9826549
8.1299019 -1.8253049 -1.9830431
8.1730366 -1.628866 -1.9833963
8.2112885 -1.4313744 -1.9837152
8.2446089 -1.2329742 -1.983999
8.2730274 -1.0337756 -1.984248
8.3283787 -0.43269286 -1.9847827
8.3368158 -0.23158447 -1.9848896
8.3403025 -0.030327758 -1.9849612
8.3387403 0.17095825 -1.9849969
8.3321972 0.37214965 -1.9849969
8.3206244 0.57310975 -1.9849609
8.2560253 1.1733606 -1.9846394
8.2245703 1.3721374 -1.9844611
8.1881933 1.5700555 -1.9842474
8.1468744 1.7669805 -1.9839984
7.9332519 2.5423143 -1.9826541
7.8679004 2.7324481 -1.9822319
7.4718847 3.6549213 -1.97962
7.1807909 4.1817508 -1.9776653
7.0752344 4.3522563 -1.9769516
6.9655175 4.5200357 -1.9762075
6.6662693 4.5581851 -1.9219689
6.346992 4.5684891 -1.8611687
6.0888572 4.6097503 -1.8175689
5.9732127 4.7532744 -1.8167771
5.8541307 4.8938446 -1.8159599
5.7316504 5.031364 -1.8151177
5.4769044 5.2969341 -1.8133618
5.3447948 5.4248343 -1.8124487
5.0715137 5.6704788 -1.8105556
4.7867384 5.9021368 -1.8085772
4.6402926 6.0125418 -1.8075579
4.3397365 6.2222147 -1.8054619
4.0295997 6.4166532 -1.8032941
3.7106836 6.5954361 -1.8010597
3.3838086 6.7582183 -1.7987761
3.2177246 6.8336258 -1.7976472
2.3317285 6.5185771 -1.6476474
2.1557422 6.5185137 -1.6340017
1.8118652 6.5183878 -1.6101522
1.6434569 6.5183258 -1.5998709
1.1496093 6.5181365 -1.5752198
0.98803711 6.518074 -1.5689822
0.82766598 6.5180097 -1.5637032
0.50965822 6.5178823 -1.5559499
0.19404297 6.5177507 -1.5518709
0.036689453 6.5176849 -1.5511926
-0.12063476 6.5176177 -1.5514178
-0.43020508 6.4331522 -1.5344696
-0.58645505 6.4330826 -1.5373815
-0.91290039 6.5167108 -1.5660795
-1.0738379 6.5166364 -1.5718343
-1.2360449 6.5165615 -1.5785534
-1.3997558 6.5164871 -1.5862584
-1.5651562 6.516408 -1.5949715
-1.7324804 6.5163274 -1.6047217
-2.2483983 6.5160794 -1.640512
-2.425869 6.5159903 -1.6547513
-2.7390916 6.8471942 -1.7551553
-3.2206445 6.6174774 -1.7515492
-3.3773046 6.5337772 -1.7504665
-3.6839354 6.3551006 -1.748237
-4.5460157 5.736237 -1.7419415
-4.812129 5.5040164 -1.7399886
-4.9408493 5.3833499 -1.739042
-5.1893845 5.1332583 -1.7372104
-5.4255857 4.8719816 -1.7354641
-5.5389061 4.7373309 -1.7346243
-6.4625387 4.526536 -1.8778167
-6.6768746 4.2116022 -1.8787856
-7.0413961 3.543184 -1.8760294
-7.4659371 2.4856341 -1.8727542
-7.5737205 2.1215172 -1.8719006
-7.7030368 1.5671735 -1.870849
-7.737412 1.3806115 -1.8705603
-7.7930079 1.00539 -1.8700765
-7.8141794 0.8169415 -1.8698815
-7.8309469 0.62806398 -1.869718
-7.8432617 0.43887022 -1.8695865
-7.851162 0.24944641 -1.8694861
-7.8382812 -0.50848389 -1.8694018
-7.8239746 -0.69752133 -1.8694601
-7.8052344 -0.88617367 -1.8695501
-7.7820797 -1.074353 -1.8696716
-7.7545114 -1.2619488 -1.8698246
-7.6862402 -1.635003 -1.8702252
-7.6455564 -1.8202578 -1.8704726
-7.6005468 -2.0045416 -1.870751
-7.5512009 -2.1877367 -1.8710605
-7.2406735 -3.0841808 -1.8730682
-7.0044236 -3.6029215 -1.8746336
-6.8267479 -3.9392078 -1.8758234
-6.7319922 -4.1042013 -1.8764613
-6.6333494 -4.2669969 -1.8771273
-6.5308399 -4.427464 -1.8778216
-6.3145313 -4.7411466 -1.8792922
-6.20083 -4.8941693 -1.8800681
-5.7104101 -5.4788761 -1.8834318
-5.5791893 -5.6177902 -1.884336
-5.3069334 -5.8863201 -1.8862164
-5.0826368 -5.9187274 -1.8567419
-4.8441305 -5.9244952 -1.8213359
-4.614326 -5.9298849 -1.7882276
-4.3924804 -5.9349232 -1.7572602
-4.2101364 -5.9854369 -1.741616
-3.9209666 -6.1887684 -1.7436324
-3.6221094 -6.3783841 -1.745721
-3.4692578 -6.4679027 -1.7467909
-2.5092285 -6.9274869 -1.7535348
-2.1749609 -7.0499535 -1.7558917
-1.6626757 -7.2036448 -1.7595117
-1.489375 -7.2467279 -1.7607381
-0.42983398 -7.4173527 -1.7682593
-0.071552731 -7.4401717 -1.7708106
0.10810547 -7.4451175 -1.7720915
0.46787107 -7.4419994 -1.7746595
0.64780271 -7.4339194 -1.7759454
0.82761717 -7.4214935 -1.7772315
1.0072266 -7.4047146 -1.778517
1.1864941 -7.3835731 -1.7798011
1.543584 -7.3282547 -1.782362
1.7212304 -7.2940898 -1.7836376
1.8981152 -7.2555919 -1.7849089
2.0741112 -7.2127814 -1.7861745
2.2491601 -7.1656756 -1.7874347
2.4231639 -7.1142983 -1.7886883
2.5959375 -7.0586643 -1.789934
2.9375391 -6.9347248 -1.7924006
3.273164 -6.7940936 -1.7948282
3.763535 -6.5524554 -1.7983836
3.9231055 -6.4638853 -1.7995428
4.2357616 -6.2749815 -1.8018178
4.5391603 -6.0707378 -1.8040301
4.6871777 -5.962996 -1.8051114
4.8878026 -5.9184875 -1.8268222
5.8491797 -5.8322015 -1.9658375
6.1302052 -5.5490212 -1.9679086
6.5252733 -5.0985689 -1.9708325
6.7699313 -4.7821894 -1.9726516
6.8863964 -4.6194458 -1.9735208
7.1072364 -4.2853708 -1.9751741
7.2114353 -4.1142321 -1.9759573
7.7455564 -3.036741 -1.980019
7.9513574 -2.4704494 -1.9816192
8.064971 -2.0848463 -1.9825195
8.1593161 -1.6939191 -1.9832834
8.2341404 -1.2986572 -1.9839091
8.289238 -0.90004456 -1.9843948
8.3244724 -0.49910703 -1.9847393
8.3397951 0.10442749 -1.9849889
8.3250093 0.50671202 -1.9849768
8.2901955 0.90774411 -1.9848216
8.235508 1.3065186 -1.9845239
8.1610737 1.7020049 -1.9840846
8.0670795 2.0931933 -1.9835047
8.0128412 2.2868731 -1.9831625
7.8900194 2.6697772 -1.9823751
7.7483983 3.0459533 -1.9814519
7.5883493 3.4144635 -1.9803954
7.4103222 3.7743804 -1.9792086
7.1105762 4.2961917 -1.9771909
7.0022559 4.4648771 -1.976457
6.4503222 4.5651765 -1.880725
6.15207 4.5808563 -1.8254735
6.011826 4.7061591 -1.8170416
5.5198927 5.2539263 -1.8136584
5.3887892 5.3829255 -1.8127528
5.2546482 5.5085797 -1.8118248
4.9774313 5.7496109 -1.8099027
4.5408201 6.0843949 -1.8068647
4.3901072 6.1885967 -1.8058136
4.2369628 6.2890143 -1.8047439
4.0814843 6.3855863 -1.8036571
3.2728026 6.8091531 -1.7980222
2.9417088 6.5187893 -1.7020875
2.570703 6.5186615 -1.6676834
2.3905761 6.5185981 -1.6524212
2.2135937 6.5185342 -1.6383826
1.5318848 6.5182829 -1.5935761
1.3667773 6.5182209 -1.5850339
1.2033105 6.5181584 -1.5774946
1.0413183 6.518095 -1.570937
0.88056636 6.5180316 -1.5653436
0.72084957 6.5179667 -1.5606941
0.56201172 6.5179033 -1.5569772
0.088701166 6.5177054 -1.5513165
-0.53473634 6.4331074 -1.5363189
-0.69148433 6.4335942 -1.5399737
-0.85995114 6.5167336 -1.5643878
-1.0205176 6.5166616 -1.569827
-1.1822754 6.5165873 -1.5762248
-2.1904004 6.5161066 -1.6360666
-2.5464549 6.5159292 -1.6649673
-2.8480272 6.7988968 -1.7543423
-3.1684375 6.6444497 -1.7519417
-3.3257811 6.5619192 -1.7508405
-3.7845409 6.2921162 -1.7475042
-4.5009766 5.773416 -1.7422714
-4.8986325 5.4235649 -1.7393526
-5.0253806 5.3009272 -1.7384197
-5.1491599 5.175385 -1.7375073
-5.3874021 4.9159136 -1.7357469
-5.5017772 4.7821317 -1.7348995
-5.6129098 4.6457462 -1.734075
-6.0604005 4.5417352 -1.8024265
-6.5416989 4.4262104 -1.8798001
-6.9272165 3.7691851 -1.8768966
-7.013711 3.5996649 -1.8762399
-7.0961719 3.4282074 -1.8756118
-7.2487693 3.0798829 -1.8744421
-7.3188767 2.9032037 -1.8739004
-7.3847852 2.7249889 -1.8733889
-7.5039258 2.3643029 -1.8724548
-7.6907225 1.6286749 -1.8709512
-7.7265329 1.4423572 -1.8706524
-7.7850289 1.0675769 -1.8701479
-7.8076658 0.87928224 -1.8699425
-7.8490329 0.31207579 -1.8695157
-7.8504491 -0.25654724 -1.8693737
-7.8420215 -0.44592652 -1.8693897
-7.811914 -0.82386047 -1.8695168
-7.7902246 -1.0122002 -1.8696278
-7.7641306 -1.2000146 -1.8697704
-7.69875 -1.5735558 -1.8701502
-7.6594825 -1.7591277 -1.8703872
-7.6158886 -1.9437371 -1.8706554
-7.5679684 -2.1272988 -1.8709549
-7.4592772 -2.4909148 -1.871646
-7.3985252 -2.6707752 -1.8720378
-7.2644529 -3.0260558 -1.8729119
-7.1911426 -3.2013233 -1.8733944
-7.11374 -3.3748491 -1.8739065
-6.9467382 -3.7163885 -1.8750188
-6.7637596 -4.0498967 -1.8762472
-6.6663671 -4.2134337 -1.8769042
-6.4600878 -4.5335627 -1.8783016
-6.3513184 -4.6899867 -1.8790417
-6.2388477 -4.8438687 -1.8798087
-5.7530079 -5.4322991 -1.8831387
-5.4895215 -5.7090726 -1.8849548
-5.3528123 -5.8428135 -1.8858989
-5.1635056 -5.9167328 -1.8689821
-4.9219923 -5.9226317 -1.8327769
-4.6893845 -5.928144 -1.7989281
-4.2570019 -5.9505439 -1.7412896
-4.1144629 -6.0549912 -1.7422826
-3.8219726 -6.2537885 -1.7443237
-3.672158 -6.3480101 -1.7453709
-3.3656836 -6.5258255 -1.7475164
-3.2092481 -6.609293 -1.7486136
-3.0507421 -6.6890721 -1.7497261
-2.8903027 -6.7651029 -1.7508532
-2.2306347 -7.0308022 -1.7554989
-2.0617089 -7.0874023 -1.7566911
-1.8913574 -7.1399755 -1.7578945
-1.7196777 -7.1885061 -1.7591082
-1.3727539 -7.2732534 -1.7615643
-0.84478515 -7.3691373 -1.7653096
-0.66716796 -7.392662 -1.7665715
-0.48890623 -7.4119248 -1.767839
-0.31011719 -7.4269066 -1.7691113
0.048681639 -7.4439631 -1.7716677
0.22848633 -7.4460068 -1.7729504
0.40838867 -7.4437127 -1.7742345
0.94787109 -7.4107375 -1.778092
1.8397363 -7.2687922 -1.7844892
2.1914356 -7.1817169 -1.787019
2.365752 -7.1317554 -1.7882745
2.5389452 -7.0775285 -1.7895231
2.7109082 -7.0190549 -1.7907636
2.8814745 -6.9563751 -1.7919955
3.2181542 -6.8184781 -1.7944299
3.3840234 -6.7433434 -1.7956311
3.548125 -6.6641173 -1.7968203
4.338408 -6.2083092 -1.8025656
4.8104587 -5.9204106 -1.8155111
5.2936521 -5.9081006 -1.8879555
5.5500879 -5.9012961 -1.9280353
5.8014255 -5.8776383 -1.9654863
5.944746 -5.7390032 -1.9665411
6.2212009 -5.4511151 -1.9685808
6.6088767 -4.9940524 -1.9714532
6.8483496 -4.6735697 -1.9732367
7.2788477 -3.9982181 -1.9764655
7.375947 -3.8228047 -1.9771991
7.4686913 -3.6449881 -1.9779021
7.5570602 -3.4648695 -1.9785745
7.7203317 -3.09814 -1.9798248
7.7951169 -2.9117622 -1.9804015
7.8652635 -2.7235501 -1.9809459
7.9307518 -2.5336056 -1.9814575
7.9915328 -2.3420274 -1.9819355
8.098691 -1.9545482 -1.9827904
8.1450682 -1.7588574 -1.9831668
8.186553 -1.562055 -1.9835082
8.2548046 -1.1655499 -1.9840875
8.3032417 -0.76604676 -1.984526
8.3200197 -0.5654968 -1.9846922
8.340332 0.037884522 -1.9849774
8.3370991 0.23914795 -1.9850008
8.3155861 0.64113462 -1.9849408
8.2741213 1.0415295 -1.9847378
8.2459173 1.2408038 -1.9845831
8.174736 1.6369019 -1.9841669
7.9738278 2.415719 -1.9829142
7.9116306 2.6069348 -1.9825147
7.8447165 2.7964873 -1.9820813
7.6968651 3.1702037 -1.981113
7.346787 3.8927655 -1.9787827
7.248281 4.0675812 -1.9781203
6.8889942 4.5508857 -1.964994
6.55583 4.5617728 -1.9008127
6.0500779 4.6587152 -1.8173035
5.4324803 5.3406534 -1.8130548
5.2993064 5.4674163 -1.8121339
5.0240331 5.7107329 -1.8102261
4.8821092 5.8271403 -1.8092403
4.737412 5.93996 -1.8082339
4.2878418 6.256247 -1.8050995
4.1331348 6.3540921 -1.8040179
3.8170214 6.5380936 -1.8018053
3.6557031 6.6239309 -1.8006167
3.3277147 6.7842364 -1.7983954
3.0045507 6.5188088 -1.708298
2.2717481 6.5185552 -1.6428906
2.0967383 6.5184927 -1.6296438
1.9244238 6.5184293 -1.6175433
1.7545409 6.5183673 -1.6065484
1.4211426 6.5182428 -1.5877452
1.2571777 6.5181789 -1.5798762
1.0947266 6.5181155 -1.572998
0.9335742 6.5180511 -1.5670868
0.45604491 6.5178604 -1.5550015
0.29820311 6.5177946 -1.5528169
-0.3272168 6.4331975 -1.5330393
-0.48309571 6.4331303 -1.5353564
-0.63953125 6.4330597 -1.5385747
-0.79681641 6.433548 -1.5428433
-1.2913476 6.5165362 -1.5810534
-1.4556054 6.5164604 -1.5890963
-1.9599414 6.5162187 -1.6194499
-2.4867284 6.5159597 -1.6598519
-2.7943358 6.8229632 -1.7547433
-2.9561522 6.7488837 -1.7535336
-3.1160157 6.6710162 -1.7523354
-3.429873 6.5045209 -1.7500845
-3.8840916 6.2275639 -1.746779
-4.0307813 6.1282563 -1.7457091
-4.4556251 5.8102484 -1.7426038
-4.72542 5.5821428 -1.7406256
-4.8560839 5.4634562 -1.7396655
-5.1085839 5.2171979 -1.7378063
-5.2302928 5.0897651 -1.7369082
-5.3489161 4.9595599 -1.7360318
-5.4643359 4.8266449 -1.7351772
-5.5765038 4.6911163 -1.7343453
-5.6989746 4.5638385 -1.7376422
-6.2586718 4.5342827 -1.8393618
-6.7101855 4.1563044 -1.8785352
-6.9855566 3.6559222 -1.876454
-7.0693455 3.4850798 -1.8758163
-7.2246776 3.1379302 -1.8746274
-7.2961717 2.9617834 -1.8740762
-7.3634667 2.7840745 -1.8735546
-7.4265623 2.6048651 -1.873063
-7.5400095 2.2424273 -1.8721691
-7.6362696 1.8752148 -1.871397
-7.7151852 1.5040381 -1.8707477
-7.748076 1.3172179 -1.8704695
-7.8203611 0.75298584 -1.8698226
-7.8356051 0.56397885 -1.86967
-7.8528123 0.18522888 -1.8694595
-7.8547559 -0.0043505859 -1.8694015
-7.8453317 -0.38333678 -1.8693807
-7.8339353 -0.57258177 -1.8694181
-7.7978806 -0.94999081 -1.8695877
-7.773242 -1.1379925 -1.8697199
-7.6729488 -1.6978858 -1.8703054
-7.6307812 -1.8828182 -1.8705635
-7.5334959 -2.2495596 -1.8711724
-7.4190817 -2.611474 -1.8719049
-7.2158494 -3.1435695 -1.8732316
-7.0596385 -3.4900222 -1.8742657
-6.7950778 -3.9953685 -1.8760363
-6.6989841 -4.1596189 -1.876684
-6.5990429 -4.3216243 -1.8773596
-6.495244 -4.4813094 -1.878063
-6.3876853 -4.6385527 -1.8787941
-5.9208689 -5.2415748 -1.8819851
-5.7953024 -5.3853941 -1.8828479
-5.5339746 -5.6641726 -1.8846477
-5.3983593 -5.7989435 -1.8855844
-5.2454491 -5.9146924 -1.8814982
-4.7653418 -5.926362 -1.8098685
-4.3189745 -5.9365549 -1.7472254
-4.0176659 -6.1230497 -1.7429577
-3.8709862 -6.2218738 -1.7439812
-3.7219336 -6.3172479 -1.7450227
-3.5705664 -6.4091196 -1.7460815
-3.4169629 -6.4974265 -1.7471572
-3.2612207 -6.582098 -1.7482488
-3.1033397 -6.6631103 -1.7493566
-2.7818358 -6.8138828 -1.7516159
-1.604082 -7.2187071 -1.7599263
-1.2556542 -7.2979178 -1.7623941
-1.0799316 -7.3312798 -1.7636404
-0.90332031 -7.3604288 -1.7648938
-0.54791993 -7.4060264 -1.7674193
-0.19017577 -7.4345374 -1.7699655
-0.010722656 -7.4423347 -1.7712442
0.52887696 -7.4397478 -1.7750955
0.7087695 -7.4301987 -1.7763811
1.2471288 -7.3754277 -1.7802355
1.4257812 -7.3484664 -1.7815168
1.6038769 -7.3171625 -1.782795
1.9578613 -7.2415628 -1.7853384
2.1335547 -7.197299 -1.7866025
2.3082323 -7.1487436 -1.78786
2.4818456 -7.0959196 -1.7891113
2.9948535 -6.9120636 -1.7928149
3.1629198 -6.8424096 -1.7940303
3.3293848 -6.76863 -1.7952353
3.4940917 -6.6907535 -1.7964288
3.8178418 -6.5228844 -1.7987779
3.9766991 -6.4329758 -1.7999324
4.2878613 -6.2414451 -1.8021972
4.5896287 -6.0346394 -1.8043988
6.0388279 -5.6441941 -1.9672345
6.1764941 -5.4996457 -1.9682504
6.4410448 -5.2003837 -1.9702078
7.344326 -3.8810589 -1.9769598
7.4385352 -3.704015 -1.9776733
7.5283494 -3.5246463 -1.9783556
7.7709079 -2.9735842 -1.9802145
7.8425879 -2.7859719 -1.9807696
8.029521 -2.212956 -1.9822367
8.1733885 -1.6272155 -1.9833993
8.2115717 -1.4297272 -1.9837176
8.244873 -1.2313244 -1.9840013
8.2966309 -0.83224791 -1.9844635
8.3284473 -0.43101317 -1.9847835
8.3403025 -0.028645629 -1.9849616
8.3387203 0.17263733 -1.984997
8.3039064 0.77538693 -1.9848886
8.2558002 1.1750213 -1.984638
8.1003122 1.9644165 -1.9837118
8.0492287 2.1589892 -1.9833926
7.9933691 2.3521886 -1.9830389
7.8673339 2.7340271 -1.982228
7.7972655 2.9224138 -1.9817719
7.7225585 3.108958 -1.981282
7.643281 3.2935612 -1.9807593
7.0743356 4.3536639 -1.9769456
6.9645896 4.5214152 -1.9762013
6.0879002 4.61095 -1.8175623
5.4758201 5.298007 -1.8133541
4.9293165 5.7890606 -1.8095684
4.6390719 6.0134377 -1.8075494
4.4900098 6.1201262 -1.8065106
4.1845117 6.3221807 -1.8043774
4.0282907 6.4174323 -1.8032848
3.869873 6.5087686 -1.8021755
3.7093554 6.5961504 -1.8010504
3.5467772 6.6793985 -1.7998805
2.6916993 6.5187039 -1.6784704
2.5092871 6.5186396 -1.6623702
2.3302538 6.5185757 -1.6475291
1.9811034 6.5184503 -1.6214181
1.3111913 6.5181999 -1.5823678
1.1482519 6.5181365 -1.5751623
0.98669922 6.5180731 -1.5689348
0.66694337 6.5179462 -1.5593311
0.19273438 6.5177493 -1.551861
0.035380859 6.5176835 -1.5511907
-0.27577147 6.4332194 -1.5324724
-0.43150389 6.4331522 -1.5344892
-0.58775389 6.433084 -1.5374093
-0.91424805 6.5167108 -1.566124
-1.0751758 6.5166364 -1.5718864
-1.2374023 6.5165615 -1.5786124
-1.7338769 6.5163288 -1.6048068
-2.2498534 6.5160785 -1.640625
-2.4273632 6.5159893 -1.654875
-2.9028614 6.7737846 -1.7539325
-3.0633886 6.6971636 -1.7527303
-3.2219238 6.6167951 -1.7515395
-3.3786132 6.5330658 -1.7504568
-3.6851854 6.3543329 -1.7482278
-4.2700782 5.9549456 -1.7439613
-4.4099512 5.846735 -1.7429379
-4.681582 5.6206999 -1.7409472
-4.8132029 5.5030255 -1.7399807
-5.1903906 5.1322002 -1.7372029
-5.310039 5.0028982 -1.7363192
-5.8721094 4.5487261 -1.7677879
-6.5767965 4.3719463 -1.879537
-6.6777048 4.2102485 -1.8787795
-6.7747264 4.0463004 -1.878049
-7.0420799 3.5417645 -1.8760241
-7.2001462 3.1957793 -1.8748158
-7.4061618 2.6642621 -1.8732221
-7.4663963 2.484134 -1.8727505
-7.5741405 2.1199999 -1.8718972
-7.6215429 1.936206 -1.8715163
-7.7376952 1.3790417 -1.870558
-7.7676463 1.1917492 -1.8703009
-7.7932129 1.0038288 -1.8700747
-7.8143358 0.815368 -1.8698802
-7.8433495 0.43729979 -1.8695855
-7.8545995 0.058319699 -1.8694171
-7.8535743 -0.13124146 -1.8693805
-7.8381934 -0.51005369 -1.8694022
-7.7542672 -1.2635138 -1.869826
-7.6452146 -1.8218024 -1.8704745
-7.6001463 -2.0060654 -1.8707534
-7.4970899 -2.3712833 -1.8714041
-7.3106055 -2.9093001 -1.8726096
-7.1653709 -3.2603314 -1.8735647
-7.0037208 -3.6043289 -1.8746383
-6.9168453 -3.7734833 -1.8752187
-6.8259668 -3.9405873 -1.8758285
-6.6324706 -4.2683344 -1.8771331
-6.4236426 -4.5868559 -1.8785495
-6.3136129 -4.7424254 -1.8792986
-6.1998825 -4.8954296 -1.8800746
-5.8372068 -5.3381701 -1.8825598
-5.4435349 -5.7547507 -1.8852721
-5.3057814 -5.8874106 -1.8862243
-4.8421969 -5.9245415 -1.8210521
-4.6124511 -5.9299283 -1.7879617
-4.3906837 -5.9349632 -1.7570111
-4.0655956 -6.0896325 -1.7426232
-3.6208496 -6.3791437 -1.7457297
-3.4679687 -6.4686379 -1.7467999
-3.3129101 -6.5545177 -1.7478864
-3.1557813 -6.636744 -1.7489886
-2.9965625 -6.7152653 -1.7501065
-2.6725585 -6.8609476 -1.7523847
-2.5078614 -6.9280291 -1.7535446
-2.3414843 -6.9912009 -1.7547169
-2.1735449 -7.0504327 -1.7559018
-2.0041211 -7.1056728 -1.7570978
-1.83333 -7.1568847 -1.7583046
-1.6612304 -7.2040253 -1.7595217
-1.4879395 -7.247067 -1.7607483
-1.1381054 -7.3207192 -1.7632275
-0.60681641 -7.3996701 -1.7670006
-0.24941406 -7.4310098 -1.7695435
-0.070048824 -7.4402313 -1.7708213
0.28946289 -7.4457145 -1.7733855
0.46936521 -7.4419451 -1.7746701
0.82912105 -7.4213676 -1.7772421
1.0087206 -7.4045529 -1.7785277
1.1879687 -7.3833785 -1.7798115
1.89958 -7.2552514 -1.7849194
2.4245899 -7.113853 -1.7886987
2.5973632 -7.0581889 -1.7899444
2.9389453 -6.9341741 -1.7924107
3.4398437 -6.7169528 -1.7960354
3.7648828 -6.5517349 -1.7983934
3.9244237 -6.4631357 -1.7995524
4.3899412 -6.173902 -1.8029414
4.6883883 -5.9620872 -1.8051202
4.8897753 -5.9184384 -1.827112
5.1297946 -5.9123535 -1.8629208
5.379365 -5.9058456 -1.9012322
5.6394334 -5.8988824 -1.9422512
6.1313672 -5.5478144 -1.9679171
6.2666602 -5.4009724 -1.9689169
6.5263281 -5.0972733 -1.9708401
6.8873339 -4.6180782 -1.9735277
6.9997754 -4.452426 -1.9743686
7.1081152 -4.2839518 -1.9751806
7.3122067 -3.9390543 -1.9767172
7.4991503 -3.5841992 -1.9781336
7.5859766 -3.4033206 -1.9787953
7.6683593 -3.2202704 -1.9794257
7.8879981 -2.6593683 -1.9811232
7.9518552 -2.4688613 -1.9816231
8.0110254 -2.2767673 -1.9820901
8.0653906 -2.0832357 -1.9825228
8.1149607 -1.8883724 -1.9829217
8.1596775 -1.6922821 -1.9832864
8.2894239 -0.89838988 -1.9843966
8.3245602 -0.49743956 -1.9847404
8.3346386 -0.29642212 -1.984859
8.3397264 -0.095190428 -1.984942
8.3348436 0.30732727 -1.9850007
8.324892 0.50838745 -1.9849764
8.3099508 0.70911741 -1.9849163
8.290019 0.90942258 -1.9848207
8.2352533 1.3081634 -1.9845223
8.1607227 1.7036376 -1.9840823
8.1161232 1.8998157 -1.9838098
8.0123634 2.2884765 -1.9831594
7.9532809 2.4806926 -1.9827827
7.8894725 2.6713629 -1.9823714
7.8209567 2.8603313 -1.9819266
7.6699901 3.2327619 -1.9809356
7.587656 3.4159758 -1.9803909
7.4095407 3.7758563 -1.9792033
7.3138866 3.9522796 -1.9785616
7.1096973 4.2976017 -1.977185
7.0013375 4.4662809 -1.9764508
6.1499119 4.5811968 -1.8251135
6.0108495 4.7073455 -1.8170348
5.8928905 4.8488688 -1.8162261
5.7714844 4.9873881 -1.8153918
5.6467576 5.1227922 -1.8145334
4.9762597 5.7505779 -1.8098943
4.8333693 5.8657746 -1.8089017
4.5395703 6.0852752 -1.806856
4.3888278 6.1894464 -1.8058046
4.2356739 6.2898355 -1.8047351
4.0801854 6.3863702 -1.803648
3.7626269 6.5677066 -1.8014239
3.6006835 6.6522379 -1.800245
3.4369628 6.7330532 -1.7991368
3.2714453 6.8097744 -1.7980126
2.9401367 6.5187883 -1.7019339
2.5691991 6.5186615 -1.6675503
2.3890917 6.5185966 -1.6523001
2.2121289 6.5185342 -1.6382715
1.3654003 6.5182195 -1.5849661
1.0399804 6.5180936 -1.5708869
0.87922847 6.5180316 -1.5653007
0.56069332 6.5179019 -1.5569501
0.4025 6.5178385 -1.5541602
-0.069941401 6.5176396 -1.5512466
-0.22436523 6.4332428 -1.532002
-0.69278318 6.4335928 -1.540007
-0.86128902 6.5167351 -1.5644283
-1.0218555 6.5166607 -1.5698755
-1.1836231 6.5165873 -1.5762819
-1.6783496 6.5163541 -1.6014645
-1.8471093 6.5162749 -1.6119338
-2.3683496 6.5160184 -1.6500307
-2.5479589 6.5159307 -1.6650974
-2.849375 6.7982841 -1.7543322
-3.0105565 6.7229156 -1.7531261
-3.4822071 6.4748406 -1.7497042
-3.6351464 6.3848529 -1.7485919
-3.934082 6.1942973 -1.7464144
-4.0799413 6.0938287 -1.7453504
-4.3640232 5.8828678 -1.7432742
-4.7700195 5.5422525 -1.7402978
-4.8997169 5.4225554 -1.7393447
-5.2708497 5.0459404 -1.7366089
-5.3883786 4.9148164 -1.7357397
-5.5027342 4.7810001 -1.7348925
-5.6138477 4.6446052 -1.7340679
-6.5426168 4.4248686 -1.8797934
-6.6447558 4.2639532 -1.879027
-6.8374901 3.9353154 -1.8775753
-6.927959 3.7677886 -1.8768908
-7.0144043 3.5982451 -1.8762347
-7.1751461 3.2534595 -1.8750076
-7.3194332 2.9017267 -1.8738962
-7.3853126 2.7235076 -1.8733847
-7.504375 2.3627961 -1.8724513
-7.557539 2.1805189 -1.8720297
-7.6063571 1.9970697 -1.8716388
-7.6508689 1.8125781 -1.8712783
-7.7268162 1.4408081 -1.8706499
-7.7582321 1.2537414 -1.8703823
-7.826025 0.68897581 -1.8697674
-7.8397851 0.4998596 -1.8696253
-7.6155176 -1.9452615 -1.8706579
-7.5153027 -2.3112435 -1.8712879
-7.4587989 -2.4924126 -1.8716491
-7.3980079 -2.6722612 -1.8720411
-7.3330078 -2.8506534 -1.8724635
-7.2638474 -3.0275335 -1.8729161
-7.1905079 -3.2027678 -1.8733987
-7.1130762 -3.3762827 -1.8739109
-6.9460058 -3.7177894 -1.8750237
-6.6655273 -4.2147779 -1.8769097
-6.459209 -4.5348697 -1.8783077
-6.1217284 -4.9963789 -1.8806088
-5.4883986 -5.7101984 -1.8849624
-5.1614451 -5.9167833 -1.8686677
-4.9200096 -5.9226794 -1.832485
-4.4631348 -5.9333367 -1.7670144
-4.2558398 -5.9514208 -1.7412978
-3.9682324 -6.1569257 -1.7433026
-3.6709082 -6.3487787 -1.7453796
-3.51875 -6.4394541 -1.7464443
-3.364414 -6.5265274 -1.7475255
-3.0494335 -6.6897211 -1.7497351
-2.8889744 -6.7657156 -1.7508627
-2.5624902 -6.9062786 -1.7531596
-2.3966796 -6.9707475 -1.7543278
-2.0603027 -7.0878525 -1.756701
-1.8899609 -7.1403971 -1.7579043
-1.5453613 -7.2332902 -1.7603418
-1.371289 -7.2735729 -1.7615746
-1.1962109 -7.3096948 -1.7628155
-1.0201758 -7.3416271 -1.7640643
-0.84329098 -7.3693504 -1.7653201
-0.66570312 -7.392838 -1.7665819
-0.48744139 -7.4120646 -1.7678494
0.94937497 -7.4105968 -1.7781026
1.4861914 -7.338347 -1.7819502
2.0175097 -7.2270498 -1.7857674
2.1928711 -7.1813273 -1.7870294
2.7123144 -7.0185485 -1.7907739
2.8828709 -6.9558315 -1.7920055
3.0519824 -6.8889322 -1.7932278
3.3853514 -6.7427115 -1.7956405
3.7116895 -6.580153 -1.7980071
4.1859765 -6.3064799 -1.801455
4.3396678 -6.2074628 -1.8025748
4.4909668 -6.1046648 -1.8036783
4.8123732 -5.9203625 -1.8157918
5.2957225 -5.9080462 -1.8882737
5.8026171 -5.8764987 -1.965495
5.9459176 -5.7378421 -1.9665498
6.0858493 -5.595614 -1.9675813
6.3552146 -5.3007774 -1.9695721
6.849277 -4.672226 -1.9732434
6.9630466 -4.5074944 -1.9740936
7.1783104 -4.1696773 -1.9757081
7.2796578 -3.9967723 -1.9764715
7.3767285 -3.8213515 -1.9772048
7.4694433 -3.6435194 -1.9779078
7.5577831 -3.4633465 -1.97858
7.6416211 -3.2810147 -1.9792205
7.7209668 -3.0966001 -1.9798297
7.7957029 -2.9102223 -1.9804062
7.9312692 -2.5320034 -1.9814614
7.992002 -2.3404322 -1.9819393
8.0479584 -2.147367 -1.9823835
8.0990915 -1.9529284 -1.9827936
8.1454201 -1.7572436 -1.9831696
8.2234278 -1.362586 -1.9838178
8.2550392 -1.1638976 -1.9840896
8.3034182 -0.76440245 -1.9845276
8.3318748 -0.36289123 -1.9848238
8.3385839 -0.16172729 -1.9849185
8.3370314 0.24081604 -1.9850008
8.3287497 0.44193357 -1.9849883
8.2456732 1.2424518 -1.9845816
8.2125092 1.4409393 -1.984391
8.1313772 1.8351024 -1.9839034
8.0308495 2.2246032 -1.9832766
7.9733591 2.4173114 -1.9829113
7.6962008 3.1717412 -1.9811087
7.5300097 3.5374236 -1.9800078
7.3459959 3.8942437 -1.9787774
7.2474508 4.0690217 -1.9781147
7.144619 4.2412443 -1.9774209
5.8119822 4.9419241 -1.8156704
5.5614648 5.211668 -1.8139453
5.4313965 5.3417192 -1.8130473
5.2981834 5.4684539 -1.8121262
5.1620116 5.5917997 -1.8111831
4.8809276 5.8280778 -1.8092321
4.4389257 6.1554227 -1.8061541
4.286582 6.2570634 -1.8050905
4.1318455 6.354876 -1.8040091
3.974834 6.4488263 -1.8029106
3.8156934 6.538825 -1.801796
3.3263769 6.7848587 -1.7983862
3.0029492 6.5188103 -1.708138
2.8142674 6.5187454 -1.6898282
2.4482715 6.5186176 -1.6572049
2.2703028 6.5185537 -1.6427773
2.0953124 6.5184927 -1.6295401
1.9229883 6.5184293 -1.6174459
1.5854784 6.5183039 -1.5965483
1.4197851 6.5182414 -1.587677
0.93224609 6.5180521 -1.567042
0.77222657 6.5179877 -1.5620891
0.61313474 6.5179238 -1.5580734
0.13939452 6.5177274 -1.5515338
-0.3284961 6.4331961 -1.5330551
-0.64084959 6.4330583 -1.5386053
-2.1341307 6.5161343 -1.6318555
-2.3096581 6.5160489 -1.6453178
-2.9574804 6.7482548 -1.7535238
-3.5848339 6.4149981 -1.748958
-3.7362401 6.3226309 -1.7478561
-3.8853319 6.2267523 -1.74677
-4.1761522 6.0247049 -1.7446476
-4.4567676 5.8093252 -1.7425952
-4.5930271 5.6968122 -1.7415969
-4.8571386 5.4624686 -1.7396578
-4.9848533 5.3407831 -1.7387183
-5.1096091 5.2161503 -1.737799
-5.3498631 4.9584661 -1.7360247
-6.5079684 4.4775639 -1.8800528
-6.8067088 3.9902387 -1.8778079
-6.8984861 3.8234003 -1.8771142
-6.9862499 3.654511 -1.8764486
-7.1497068 3.3109648 -1.8752024
-7.2253027 3.1364586 -1.8746225
-7.2967477 2.9603112 -1.8740717
-7.3639941 2.7825902 -1.8735507
-7.4858789 2.4227991 -1.8725973
-7.5906835 2.0578339 -1.8717648
-7.636621 1.8736835 -1.8713942
-7.7154589 1.5025067 -1.8707453
-7.8357224 0.56242555 -1.8696688
-7.8547459 -0.0059246826 -1.8694012
-7.8522167 -0.19547302 -1.8693752
-7.833818 -0.57413268 -1.8694186
-7.8179684 -0.76304322 -1.8694878
-7.7104688 -1.5135705 -1.8700805
-7.672617 -1.6994085 -1.8703076
7.0421286 -2.6963303 -1.9750783
7.1675682 -2.3545592 -1.9760531
7.2239161 -2.1813903 -1.9764953
7.3237109 -1.8310171 -1.9772887
7.406045 -1.4760009 -1.9779588
7.4405661 -1.2970245 -1.9782467
7.5341306 -0.57402098 -1.9790823
7.546279 -0.39206055 -1.9792112
7.553916 -0.20983887 -1.9793078
7.5570211 -0.027481688 -1.9793725
7.5556054 0.15490417 -1.9794047
7.5392184 0.51928711 -1.9793725
7.4523535 1.2433032 -1.9789206
7.3821092 1.601109 -1.9785025
7.3403711 1.7785668 -1.978246
7.2942576 1.954906 -1.9779578
7.2437987 2.1300232 -1.9776384
7.1889939 2.303808 -1.9772877
7.0666208 2.6469445 -1.9764941
6.8516989 3.1489673 -1.9750772
6.6003027 3.6332939 -1.9733957
6.5086617 3.7903349 -1.9727781
6.2110448 4.2469144 -1.9707605
5.9944139 4.538249 -1.9692822
5.7257323 4.5563288 -1.9165914
5.2171874 4.5797501 -1.8183062
5.0829883 4.6838837 -1.8104082
4.7243457 5.0324345 -1.80793
4.5993066 5.1425128 -1.8070632
4.073945 5.5506511 -1.8034093
3.7972949 5.7346172 -1.8014778
3.5122557 5.9046173 -1.7994833
3.3668261 5.9842706 -1.7984641
3.2195799 6.0602937 -1.797431
3.0706151 6.1326566 -1.7963847
2.9199901 6.201314 -1.7953259
2.767832 6.2662358 -1.7942551
2.3030469 6.4382696 -1.7909783
2.145664 6.487946 -1.7898669
1.6674707 6.6134162 -1.7864228
1.1824218 6.7039566 -1.7830291
1.0196387 6.7262235 -1.7818841
0.69300783 6.7588215 -1.7795779
0.52932614 6.7691655 -1.7784176
0.36558592 6.7755313 -1.777254
-0.61356443 6.7306781 -1.7702339
-0.77530271 6.7094769 -1.7690648
-0.93639648 6.6843972 -1.767897
-1.0966992 6.655457 -1.7667317
-1.2561816 6.6226959 -1.7655694
-1.5722948 6.5461249 -1.7633495
-1.883916 6.4544058 -1.7611046
-2.0378418 6.4030194 -1.7599943
-2.1904101 6.348001 -1.7588928
-2.3414941 6.2893853 -1.7578011
-2.4910741 6.2272038 -1.7567194
-2.6390233 6.1615191 -1.7556481
-3.0723436 5.9438004 -1.7525057
-3.3516698 5.7819204 -1.7504748
-3.7548535 5.5150223 -1.7475357
-3.8847656 5.4198551 -1.7465866
-4.2599411 5.1165619 -1.7438388
-4.4973631 4.9001408 -1.7420944
-4.6120605 4.7878532 -1.7412499
-4.8439255 4.565567 -1.7434773
-5.0651755 4.5483418 -1.7830737
-5.6911325 4.4103885 -1.885866
-5.7935548 4.2700324 -1.8851025
-5.8926268 4.1273503 -1.8843625
-5.9882421 3.9824262 -1.8836465
-6.4131737 3.2270653 -1.8804388
-6.5575585 2.9121478 -1.8793354
-6.8008885 2.2642188 -1.8774486
-6.8520703 2.0989842 -1.8770449
-6.9426951 1.7652283 -1.8763207
-7.0489063 1.2577606 -1.8754449
-7.0763378 1.0871418 -1.8752096
-7.119082 0.74427062 -1.8748249
-7.1456833 0.39983946 -1.8745551
-7.1529002 0.22725829 -1.8744638
-7.1560545 0.054566041 -1.8744011
-7.0647459 -1.1496991 -1.8747729
-7.0024219 -1.489538 -1.8751386
-6.9652634 -1.6582947 -1.8753647
-6.7205372 -2.4868038 -1.8769186
-6.6599607 -2.6488221 -1.8773131
-6.5274119 -2.9684687 -1.8781848
-6.3799119 -3.2816854 -1.8791647
-6.1312304 -3.7379503 -1.8808333
-6.0411911 -3.8860846 -1.8814414
-5.9476171 -4.0320926 -1.8820752
-5.8506541 -4.1759276 -1.8827337
-5.7502732 -4.3174729 -1.883417
-5.5394626 -4.5934162 -1.8848574
-5.3157029 -4.8593078 -1.8863924
-5.1990919 -4.9882984 -1.8871945
-4.8310938 -5.3585486 -1.8897345
-4.7025781 -5.4761581 -1.8906244
-4.5712595 -5.5907445 -1.8915347
-4.3004394 -5.810576 -1.893416
-4.1586032 -5.9121666 -1.8932546
-3.9520409 -5.9169769 -1.8637017
-3.3672459 -5.929594 -1.7860554
-3.1824803 -5.9332504 -1.7635021
-3.0152929 -5.9628277 -1.7501477
-2.5805664 -6.1760998 -1.7532003
-2.1308594 -6.3580627 -1.756367
-1.9780273 -6.4115677 -1.7574452
-1.8238281 -6.4614396 -1.758534
-1.6684082 -6.5076385 -1.7596323
-1.3541504 -6.5888801 -1.7618561
-1.0359863 -6.6550555 -1.764111
-0.71458983 -6.7059512 -1.7663926
-0.39068359 -6.7413998 -1.7686956
0.098232418 -6.7652993 -1.7721789
0.26164061 -6.7654071 -1.773345
0.75184566 -6.7420464 -1.7768484
1.0777148 -6.7067127 -1.7791821
1.401914 -6.6555853 -1.7815074
1.8833593 -6.5494304 -1.7849677
2.0421777 -6.5062342 -1.786111
2.2000196 -6.4591637 -1.787248
2.3567286 -6.4082389 -1.7883782
2.5122657 -6.353487 -1.789501
2.6665235 -6.2949224 -1.7906152
3.1206543 -6.0966949 -1.7939019
3.4152148 -5.9460912 -1.7960387
4.198369 -5.9069767 -1.8981531
4.4126954 -5.9015512 -1.9300762
4.6174316 -5.8742676 -1.9570383
4.7603903 -5.7642078 -1.9580841
5.0382419 -5.5335369 -1.9601202
5.1728806 -5.4130774 -1.9611089
5.3046579 -5.2892628 -1.9620779
5.4333692 -5.1622071 -1.963026
5.5590038 -5.0319519 -1.9639525
5.8005857 -4.7621861 -1.9657393
6.0288086 -4.480607 -1.9674331
6.1377149 -4.3355975 -1.968244
6.2430468 -4.1878796 -1.9690301
6.4427438 -3.8847146 -1.9705255
6.5369625 -3.7294359 -1.9712337
6.6273632 -3.5718288 -1.9719156
6.7138476 -3.4119806 -1.9725698
6.8749413 -3.0859714 -1.9737949
7.0197754 -2.7521927 -1.974906
7.0859962 -2.5826585 -1.9754179
7.1479883 -2.4114795 -1.9759001
7.2057519 -2.2387934 -1.9763525
7.3084083 -1.8892699 -1.9771661
7.3532128 -1.7126635 -1.9775268
7.4612107 -1.1767541 -1.9784219
7.5109668 -0.81554383 -1.9788607
7.5291114 -0.63410336 -1.9790324
7.5427637 -0.45223814 -1.9791721
7.5521288 0.27695191 -1.9794083
7.5296874 0.64101499 -1.9793327
7.5116892 0.82250059 -1.9792465
7.4892187 1.0034912 -1.9791281
7.4308105 1.3634583 -1.9787948
7.3949509 1.542226 -1.9785806
7.3546581 1.7200177 -1.9783343
7.2609372 2.0722802 -1.9777473
7.0879879 2.5906658 -1.9766335
6.9516015 2.928333 -1.9757388
6.8771873 3.0944653 -1.9752462
6.7987108 3.2586706 -1.9747244
6.7162204 3.4208441 -1.9741735
6.629746 3.5808771 -1.9735934
6.5394039 3.7386785 -1.9729855
6.4451756 3.8941522 -1.9723492
6.1401267 4.3456388 -1.9702773
6.0311813 4.49085 -1.9695337
5.291543 4.5707965 -1.8314553
4.8865137 4.8811784 -1.8090521
4.7650781 4.9953632 -1.8082123
4.6409278 5.1064668 -1.8073519
4.3847947 5.3192182 -1.8055737
4.2530079 5.420733 -1.8046567
3.8436229 5.705163 -1.8018014
3.5599413 5.8774934 -1.7998173
3.415117 5.958333 -1.7988025
3.2684667 6.0355644 -1.797774
3.120039 6.1091447 -1.7967318
2.8183007 6.2451944 -1.7946104
2.5106347 6.3662066 -1.792443
2.0397167 6.5190349 -1.7891182
1.880625 6.5622354 -1.7879928
1.5597656 6.6367021 -1.7856717
1.0734961 6.7193022 -1.7822634
0.74706054 6.7545342 -1.7799603
0.58345699 6.7661858 -1.7788017
0.41971678 6.7738667 -1.7776392
-1.2035449 6.6339469 -1.7659533
-1.3624609 6.5988774 -1.7648593
-1.6771094 6.5170803 -1.7625948
-1.8327441 6.4705839 -1.7614735
-1.9871191 6.4204106 -1.7603602
-2.1401367 6.3665886 -1.7592559
-2.5902929 6.18362 -1.7560012
-3.1667285 5.8910818 -1.7518197
-3.8420606 5.4516511 -1.7468988
-4.0962791 5.2543168 -1.7450387
-4.2197165 5.1512542 -1.7441341
-4.4588671 4.9366608 -1.7423776
-4.5744529 4.8252692 -1.7415267
-4.6949315 4.7191653 -1.7436335
-5.4760838 4.5324812 -1.8618901
-5.6565332 4.456264 -1.8861234
-5.7600975 4.3166838 -1.8853521
-5.9570212 4.0305815 -1.8838806
-6.1400681 3.7357171 -1.8825058
-6.3089061 3.4327569 -1.8812306
-6.4631543 3.122406 -1.8800579
-6.5347166 2.9646485 -1.8795104
-6.6025391 2.8053076 -1.8789896
-6.7267575 2.4821789 -1.8780283
-6.7831054 2.3185859 -1.8775882
-6.9288082 1.8206756 -1.8764328
-7.0389647 1.3140038 -1.8755288
-7.0924315 0.97260129 -1.8750683
-7.1131444 0.80106443 -1.8748807
-7.129775 0.62912107 -1.8747219
-7.1424022 0.45684692 -1.8745918
-7.1509471 0.28431946 -1.8744907
-7.144619 -0.4062683 -1.8743756
-7.1171579 -0.75058895 -1.8744916
-6.9779687 -1.6026086 -1.8752868
-6.8467579 -2.1041338 -1.8761069
-6.7951756 -2.269146 -1.8764365
-6.7397165 -2.4329512 -1.8767941
-6.4797263 -3.0740619 -1.8785006
-6.4053221 -3.2303877 -1.8789953
-6.3272557 -3.384973 -1.8795164
-6.1602244 -3.6885266 -1.8806378
-6.0713377 -3.8373523 -1.8812374
