# .PCD v0.7 - Point Cloud Data file format
VERSION 0.7
FIELDS x y z
SIZE 4 4 4
TYPE F F F
COUNT 1 1 1
WIDTH 1494
HEIGHT 1
VIEWPOINT 0 0 0 1 0 0 0
POINTS 1494
DATA ascii
-6.4962692 -3.0370028 -1.8782897
-6.4228125 -3.19364 -1.8787793
-6.3456445 -3.3485601 -1.8792955
-6.1804199 -3.652843 -1.8804071
-5.9059472 -4.0942183 -1.8822689
-5.8075681 -4.2369847 -1.8829398
-5.705791 -4.3774424 -1.8836355
-5.380703 -4.7842197 -1.8858676
-5.1480956 -5.0424261 -1.8874725
-5.0271974 -5.1674256 -1.8883085
-4.646904 -5.5251074 -1.8909473
-4.5144825 -5.6383219 -1.8918686
-4.3793259 -5.7484403 -1.8928106
-4.0639648 -5.9049072 -1.8775369
-3.4707713 -5.9180174 -1.7969836
-3.2836719 -5.9218211 -1.7735659
-2.2192187 -6.3251972 -1.755733
-2.0672753 -6.3807907 -1.7568076
-1.7593163 -6.4810972 -1.7589883
-1.4465332 -6.5666785 -1.7612071
-1.2885449 -6.6038632 -1.7623291
-0.96980464 -6.6668878 -1.7645957
-0.80925781 -6.6926703 -1.7657388
-0.48618162 -6.7326865 -1.768042
-0.32385743 -6.7468696 -1.7692004
-0.16113281 -6.7571521 -1.7703626
0.16514648 -6.7659698 -1.7726961
0.49190429 -6.7590461 -1.7750363
0.81838864 -6.7363334 -1.7773783
1.1437988 -6.6978278 -1.7797165
1.6282715 -6.6105242 -1.7832043
1.9477148 -6.5327358 -1.7855086
2.1060545 -6.4880099 -1.7866522
2.2633789 -6.4394217 -1.7877898
2.5745118 -6.3307395 -1.7900419
3.0311327 -6.1393604 -1.7933547
3.3276854 -5.9932384 -1.7955111
3.4732811 -5.9146142 -1.7965415
4.2758689 -5.8957286 -1.9075984
4.6745996 -5.8315911 -1.9575931
4.8164744 -5.7201781 -1.9586343
4.9556251 -5.6052647 -1.9596571
5.0919824 -5.4869194 -1.9606605
5.2254395 -5.3651876 -1.9616441
5.8467283 -4.7084851 -1.9662435
5.9611816 -4.5680757 -1.9670956
6.3837986 -3.9789031 -1.9702575
6.7468457 -3.3500388 -1.9730023
6.9776464 -2.8560023 -1.9747692
7.1109276 -2.5174854 -1.9758021
7.1713181 -2.3457904 -1.9762744
7.2274313 -2.1726236 -1.9767163
7.2792478 -1.9980856 -1.9771274
7.3267479 -1.8222713 -1.9775085
7.369873 -1.64531 -1.9778584
7.4429197 -1.2883667 -1.9784641
7.4982128 -0.92814326 -1.9789437
7.5191307 -0.74709165 -1.9791359
7.5355954 -0.56554562 -1.979296
7.5578418 -0.019212035 -1.9795822
7.5394626 0.52730531 -1.9795779
7.5242867 0.70897579 -1.9795115
7.5045996 0.89022338 -1.9794129
7.4804587 1.0708996 -1.9792821
7.4518652 1.25091 -1.9791194
7.4187789 1.4301562 -1.9789242
7.3393455 1.7858386 -1.9784385
7.2931151 1.9620538 -1.9781486
7.1283102 2.4829071 -1.9770902
6.8495798 3.1551745 -1.9752517
6.7696385 3.3185687 -1.9747176
6.2082324 4.2520719 -1.9709167
5.728662 4.5656047 -1.9187133
5.4640331 4.5744843 -1.8665011
5.2188964 4.5878291 -1.820039
4.9633007 4.8067999 -1.8097317
4.7213278 5.0359001 -1.8080533
4.3384571 5.3561845 -1.8053873
4.2058301 5.4564762 -1.8044614
3.9336424 5.6469841 -1.8025576
3.6527147 5.8237481 -1.800588
3.5092187 5.9068608 -1.7995803
2.6113575 6.3289032 -1.7932522
1.9845605 6.5348196 -1.7888141
1.5039746 6.6485052 -1.7854009
1.3423241 6.6785417 -1.7842507
1.0173438 6.7267375 -1.7819284
0.85424805 6.7449408 -1.7807729
0.69086915 6.7591887 -1.779616
0.52728516 6.7694621 -1.7784532
0.1999414 6.7780986 -1.7761168
-0.29009765 6.7613835 -1.7725977
-0.45280272 6.7479486 -1.7714231
-0.77667969 6.7094169 -1.7690916
-0.93767577 6.6843486 -1.7679335
-1.0979102 6.6554413 -1.7667799
-1.5732031 6.545917 -1.7633526
-1.7295312 6.5018973 -1.7622235
-1.8846582 6.4541788 -1.761102
-2.1909571 6.347774 -1.7588849
-2.4914551 6.2270083 -1.7567062
-2.6393065 6.1613312 -1.7556326
-2.9298437 6.0196209 -1.75352
-3.3515527 5.781868 -1.7504464
-3.7545018 5.5151005 -1.7475003
-4.0117869 5.3218679 -1.7456139
-4.1367774 5.2208085 -1.7446957
-4.259326 5.1168571 -1.7437946
-4.4966016 4.900579 -1.7420459
-4.6112695 4.7883596 -1.741199
-5.0735841 4.5575385 -1.7863232
-5.9869723 3.9837968 -1.8835692
-6.079082 3.8368096 -1.8828759
-6.2526755 3.5367119 -1.8815635
-6.4118357 3.2289648 -1.8803527
-6.6855955 2.5933075 -1.8782454
-6.7445602 2.4307032 -1.8777854
-6.7996578 2.2667859 -1.8773528
-6.8508787 2.1016662 -1.8769479
-7.0164647 1.4308563 -1.8756067
-7.0479488 1.2610101 -1.8753418
-7.1183004 0.74786007 -1.8747188
-7.1336913 0.57590514 -1.8745685
-7.1556053 0.058572385 -1.8742913
-7.1410546 -0.45895872 -1.8742752
-7.1281052 -0.63108212 -1.8743277
-7.1111326 -0.80287594 -1.8744091
-7.0901074 -0.97421873 -1.8745196
-7.0360446 -1.3152386 -1.8748273
-7.0029783 -1.4847168 -1.8750246
-6.9659762 -1.6534064 -1.8752502
-6.8801074 -1.9879861 -1.8757867
-6.778574 -2.3182821 -1.8764367
-6.661582 -2.6435695 -1.8771981
-6.3821969 -3.2762792 -1.8790507
-6.3031054 -3.4302433 -1.879581
-5.9508395 -4.0266299 -1.8819635
-5.854033 -4.1704597 -1.8826228
-5.753818 -4.3120103 -1.8833071
-5.6502633 -4.451221 -1.8840158
-5.43332 -4.7222662 -1.8855054
-5.3200583 -4.8539591 -1.8862857
-5.0841599 -5.1092882 -1.8879144
-4.9616795 -5.2327762 -1.8887624
-4.7079196 -5.4710717 -1.8905231
-4.5767674 -5.5857263 -1.8914351
-4.4428906 -5.69731 -1.8923674
-3.9549315 -5.9074316 -1.8620428
-3.754668 -5.9119353 -1.8343762
-3.560039 -5.9161444 -1.8085046
-3.370625 -5.9200735 -1.7843249
-3.1860449 -5.923739 -1.7617487
-3.0220506 -5.9591107 -1.750072
-2.8790917 -6.0337338 -1.7510779
-2.5877831 -6.1727929 -1.7531304
-2.4395897 -6.2371302 -1.7541761
-2.1385448 -6.3552256 -1.7563033
-1.8318261 -6.4589376 -1.7584746
-1.5201172 -6.5479879 -1.7606847
-1.2041016 -6.6221094 -1.7629293
-1.0446875 -6.6535068 -1.7640631
-0.88446289 -6.6810856 -1.7652032
-0.72352535 -6.7048259 -1.7663498
-0.5619629 -6.7247105 -1.7675015
-0.39986327 -6.7407131 -1.7686578
-0.074433595 -6.7610288 -1.7709823
0.4154492 -6.7620811 -1.7744884
0.57880861 -6.7545428 -1.7756594
0.74207032 -6.7430615 -1.7768307
1.2300977 -6.684926 -1.7803372
1.5530761 -6.6264677 -1.7826623
1.873291 -6.5523314 -1.7849715
2.6564453 -6.299263 -1.7906356
2.9608202 -6.1714249 -1.7928439
3.2588964 -6.0287366 -1.7950107
3.4054003 -5.9519043 -1.7960769
3.9702051 -5.903245 -1.863356
4.7504101 -5.7727561 -1.9581493
5.1633496 -5.4225621 -1.9611863
5.2953024 -5.2990685 -1.9621595
5.5500097 -5.0423651 -1.9640423
6.0206933 -4.4922071 -1.9675392
6.2354002 -4.200048 -1.9691437
6.3373728 -4.0499911 -1.9699087
6.4356151 -3.897418 -1.9706476
6.7075486 -3.425462 -1.9727035
6.7903805 -3.2637224 -1.973334
6.8692479 -3.0999253 -1.9739367
6.9440136 -2.9341955 -1.9745104
7.0147557 -2.7666047 -1.9750557
7.255537 -2.0799248 -1.9769388
7.427412 -1.3722028 -1.9783337
7.509912 -0.83187741 -1.9790499
7.54249 -0.46880248 -1.9793676
7.5520215 -0.28676146 -1.9794782
7.5570602 -0.10451843 -1.9795568
7.5575485 0.077789307 -1.9796026
7.5535254 0.26005369 -1.9796164
7.5143847 0.80546445 -1.9794631
7.4923143 0.98643005 -1.9793472
7.4347949 1.3463933 -1.9790194
7.3595214 1.702976 -1.9785638
7.095068 2.5739055 -1.9768736
7.0294042 2.7437029 -1.9764432
6.9595604 2.9117687 -1.9759823
6.807529 3.2423613 -1.9749712
6.7254782 3.4046659 -1.9744216
6.549541 3.7228203 -1.9732367
6.4557323 3.8784735 -1.9726013
6.3581738 4.031702 -1.9719387
5.8576269 4.5612054 -1.9445297
5.5861034 4.5704131 -1.8904482
5.328877 4.5789447 -1.8402599
5.1337204 4.6310954 -1.8109105
4.7789159 4.9833879 -1.8084531
4.5286622 5.203052 -1.8067131
4.3996582 5.3081255 -1.8058141
4.1343064 5.5084782 -1.8039614
3.9981346 5.6036286 -1.803009
3.8597167 5.6953754 -1.8020397
3.7191992 5.783649 -1.8010545
3.5766211 5.8684111 -1.800054
3.2857029 6.0272136 -1.7980087
3.1375487 6.1011734 -1.7969652
2.9876952 6.1714444 -1.7959093
2.8362987 6.2380009 -1.7948413
2.6833985 6.3008099 -1.7937614
2.5291114 6.359827 -1.7926708
2.3734961 6.4150434 -1.7915699
1.8998926 6.5575604 -1.7882131
1.2560742 6.6929116 -1.7836369
0.76735348 6.7530193 -1.780159
0.60383785 6.765152 -1.7789978
0.27653319 6.7774982 -1.7766645
0.11288086 6.7777262 -1.7754936
-0.050585937 6.7739997 -1.774321
-0.21382812 6.7663288 -1.7731471
-0.53917968 6.7392011 -1.7707986
-1.1828222 6.6385026 -1.7661681
-1.8122168 6.4769669 -1.7616256
-2.1197851 6.3739715 -1.7594005
-3.0059178 5.9796357 -1.7529663
-3.2869627 5.8209052 -1.7509179
-3.8238671 5.4648724 -1.7469921
-3.9524219 5.3681498 -1.7460494
-4.2022853 5.1658597 -1.7442142
-4.4420214 4.9521637 -1.7424486
-4.5579591 4.841198 -1.7415926
-4.6711621 4.7275786 -1.7407562
-4.7815723 4.6113749 -1.739939
-5.4497361 4.5430498 -1.8583499
-5.6409373 4.4762712 -1.8861605
-5.744873 4.3371272 -1.8853843
-5.8454685 4.1956158 -1.8846313
-6.2964549 3.4555511 -1.8812313
-6.5238085 2.9884808 -1.8794954
-6.7743554 2.3436522 -1.8775518
-6.8273926 2.1790783 -1.8771341
-6.9217577 1.846535 -1.8763812
-6.9630566 1.6787505 -1.8760467
-7.000361 1.5100695 -1.8757403
-7.0337205 1.3405701 -1.8754619
-7.1097264 0.82819515 -1.8747989
-7.1269922 0.65641415 -1.8746352
-7.1494431 0.31189331 -1.8743945
-7.1527243 -0.20584472 -1.8742504
-7.1195602 -0.7225287 -1.8743675
-7.1004391 -0.8941046 -1.8744644
-7.0772848 -1.0651709 -1.8745903
-7.0189352 -1.4055059 -1.8749288
-6.9446774 -1.7427948 -1.8753817
-6.6903219 -2.5679517 -1.8770101
-6.5616503 -2.8889055 -1.8778564
-6.4916697 -3.0470974 -1.8783205
-6.4179587 -3.2036276 -1.8788116
-6.3405762 -3.3584306 -1.8793294
-6.259541 -3.511405 -1.8798739
-6.1748924 -3.6624758 -1.8804446
-5.8011522 -4.2460628 -1.8829837
-5.6991405 -4.3863692 -1.8836809
-5.5938377 -4.5242987 -1.8844028
-5.3734274 -4.7926607 -1.8859178
-5.2584863 -4.9229407 -1.8867102
-4.8952928 -5.2973108 -1.8892224
-4.638545 -5.5324535 -1.8910054
-4.3705955 -5.7553906 -1.8928714
-4.2326465 -5.8621116 -1.8938339
-3.4586425 -5.9182687 -1.7954328
-2.9462304 -5.9992337 -1.7506052
-2.6565528 -6.1414895 -1.7526455
-2.360127 -6.2699227 -1.7547373
-2.0574803 -6.3842306 -1.7568768
-1.9040819 -6.435976 -1.7579627
-1.7493848 -6.4840674 -1.7590586
-1.5934961 -6.5284772 -1.760164
-1.4364355 -6.5691757 -1.7612787
-0.95955074 -6.668653 -1.7646688
-0.79894531 -6.6941919 -1.7658124
-0.31343749 -6.7476439 -1.7692748
-0.1506836 -6.7576795 -1.7704375
0.17561524 -6.7659922 -1.772771
0.33899415 -6.7642479 -1.7739407
0.50237304 -6.7585611 -1.7751113
0.66567379 -6.7489266 -1.7762823
0.82881832 -6.7353449 -1.7774533
1.4777343 -6.6415558 -1.7821195
1.6385645 -6.608274 -1.7832785
2.2734179 -6.4361773 -1.7878623
2.4295213 -6.3835068 -1.7889919
2.5844433 -6.3270025 -1.7901138
2.7379882 -6.2667241 -1.7912267
3.0407422 -6.1349082 -1.7934244
3.6777928 -5.910068 -1.8232397
4.0793457 -5.9006047 -1.8788924
4.2895212 -5.8953838 -1.9096272
4.5067186 -5.8898063 -1.9424816
4.6837692 -5.8245544 -1.9576603
5.2339354 -5.3572645 -1.9617068
5.3642673 -5.2320366 -1.9626688
5.4915333 -5.1035733 -1.9636095
5.7365332 -4.8372736 -1.965425
5.9684081 -4.5589733 -1.9671493
6.4863572 -3.8152401 -1.9710296
6.5788379 -3.6589787 -1.9717278
6.7521582 -3.3396835 -1.9730427
6.8328609 -3.1768155 -1.9736584
6.9821582 -2.8452561 -1.974804
7.0506539 -2.6767414 -1.9753336
7.1149511 -2.5065408 -1.9758334
7.1750488 -2.3347309 -1.9763035
-2.7985058 5.4551544 -1.7543288
-2.9276953 5.3831778 -1.7533875
-3.180537 5.2302103 -1.7515422
-3.3040624 5.1493158 -1.7506393
-3.4255567 5.0655475 -1.74975
-3.5449803 4.9789557 -1.7488753
-3.6622362 4.889595 -1.748015
-4.1616893 4.5638189 -1.7672976
-5.0072751 4.3112187 -1.8906574
-5.1077929 4.1875262 -1.8899093
-5.2997851 3.9333379 -1.8884759
-5.479404 3.6705558 -1.8871292
-5.8719726 2.9798975 -1.8841587
-5.9404688 2.8366046 -1.8836349
-6.0672264 2.5454967 -1.88266
-6.1253805 2.3978417 -1.8822094
-6.180068 2.2488866 -1.8817834
-6.3998046 1.4875726 -1.8800335
-6.4622946 1.1768744 -1.8795139
-6.4880466 1.0205371 -1.8792932
-6.5100975 0.86365724 -1.8790988
-6.5430856 0.54860228 -1.8787893
-6.5540137 0.39059448 -1.8786743
-6.5647068 0.074052736 -1.8785242
-6.5604882 -0.24262023 -1.8784808
-6.4848728 -1.0304248 -1.8788384
-6.3952146 -1.4970428 -1.8793716
-6.3580174 -1.6510626 -1.879602
-6.2727928 -1.9563293 -1.8801409
-6.2248044 -2.1074076 -1.8804492
-6.1732616 -2.2573345 -1.8807833
-6.1181836 -2.4060411 -1.8811429
-5.9975486 -2.69944 -1.881938
-5.9320703 -2.8439758 -1.882373
-5.8631835 -2.9869645 -1.8828328
-5.7909179 -3.1283259 -1.8833169
-5.715322 -3.2679772 -1.8838257
-5.6364255 -3.4058428 -1.8843582
-5.3803611 -3.8079805 -1.8860973
-5.2887106 -3.9379582 -1.8867229
-5.1939745 -4.0657701 -1.8873714
-4.8917871 -4.4355597 -1.8894482
-4.7852345 -4.5540285 -1.8901832
-4.675869 -4.6699944 -1.890939
-3.9637792 -5.3094296 -1.8958868
-3.8363378 -5.406023 -1.8967764
-3.7066112 -5.4996147 -1.8976834
-3.4404395 -5.6775413 -1.899547
-2.8399999 -5.9047446 -1.8748295
-2.6680565 -5.9079795 -1.8548778
-1.6995801 -5.9227676 -1.7631143
-1.4107813 -5.9926791 -1.7615964
-1.2665429 -6.0284643 -1.7626204
-1.1214257 -6.0608063 -1.7636517
-0.97546875 -6.0896726 -1.7646896
-0.82877928 -6.1150451 -1.7657336
-0.53355467 -6.1552253 -1.7678372
-0.38517576 -6.1699948 -1.7688959
-0.23636718 -6.1812024 -1.7699583
0.062080078 -6.1928692 -1.7720916
0.21157226 -6.193306 -1.7731614
0.36109373 -6.1901355 -1.7742324
0.95809567 -6.1413488 -1.7785167
1.6951171 -5.9993048 -1.7838249
1.8404297 -5.9601779 -1.7848741
1.9846581 -5.9171453 -1.7858075
2.1438866 -5.9146795 -1.8001486
2.3057129 -5.9120035 -1.8157376
2.9842968 -5.8990331 -1.8916286
3.1632128 -5.8951688 -1.9143066
3.3464258 -5.8910317 -1.9386162
3.5066404 -5.8404069 -1.9492315
3.6484277 -5.7571778 -1.9502656
3.7882226 -5.6704679 -1.9512864
4.0614452 -5.4867926 -1.9532847
4.1947069 -5.3899283 -1.9542612
4.3255954 -5.2897801 -1.9552212
4.454082 -5.1864066 -1.9561648
4.5800586 -5.0798736 -1.9570913
4.7034278 -4.9702287 -1.9579998
4.9420896 -4.741878 -1.9597611
5.0572166 -4.6232996 -1.9606128
5.1694627 -4.5018802 -1.9614444
5.2787204 -4.3776889 -1.9622552
5.3849316 -4.2508016 -1.963045
5.4880958 -4.1212916 -1.9638134
5.5879979 -3.9892321 -1.9645593
5.6846776 -3.8547094 -1.9652826
5.7780566 -3.7177975 -1.9659827
5.954658 -3.4371355 -1.9673121
6.0377636 -3.2935605 -1.9679403
6.1173339 -3.1479301 -1.968544
6.5175681 -2.2362044 -1.9716204
6.5710058 -2.0787897 -1.9720397
6.666162 -1.7601483 -1.9727949
6.7078028 -1.599118 -1.9731305
6.7454977 -1.4370825 -1.9734378
6.7791114 -1.27414 -1.9737167
6.8087597 -1.1103973 -1.9739668
6.8558297 -0.78090513 -1.9743803
6.9008298 -0.11680053 -1.974857
6.8645411 0.7143414 -1.9747908
6.8449512 0.87966126 -1.974689
6.6423926 1.856568 -1.9734668
6.5946579 2.0159326 -1.9731622
6.5429978 2.1740441 -1.9728291
6.4874902 2.3308027 -1.9724684
6.2979589 2.7920067 -1.9712192
6.1529784 3.0909667 -1.9702511
6.0750098 3.2376239 -1.9697272
5.9934864 3.382266 -1.9691774
5.9084473 3.524821 -1.9686019
5.819912 3.6651897 -1.9680008
5.7279782 3.8032866 -1.967375
5.6327438 3.9390399 -1.966725
5.3275099 4.3313837 -1.9646316
5.2194824 4.456944 -1.9638876
5.0833302 4.5572147 -1.9534596
4.630537 4.5727801 -1.8621281
4.2688379 4.6430864 -1.804723
4.0363278 4.8392096 -1.8031045
3.7946875 5.0235319 -1.8014178
3.2865624 5.3551435 -1.7978582
3.0213475 5.5017033 -1.7959943
2.4719043 5.7547503 -1.7921206
2.331084 5.8094721 -1.7911254
2.1890428 5.8607168 -1.7901205
2.0458887 5.9084611 -1.7891072
1.9016894 5.9526896 -1.7880853
1.7565527 5.9933782 -1.787056
1.1682422 6.120369 -1.7828751
1.019668 6.1431217 -1.7818167
0.87067384 6.1622515 -1.7807549
0.72135741 6.1777592 -1.7796898
0.57178712 6.1896477 -1.7786222
0.42206055 6.1979094 -1.7775521
-0.027119139 6.2009697 -1.774338
-0.32574219 6.1849747 -1.7721969
-0.47456053 6.1715922 -1.7711288
-0.62291014 6.1546454 -1.7700629
-0.77071285 6.1341434 -1.7690005
-1.0643749 6.0825591 -1.7668866
-1.4987304 5.9790583 -1.7637537
-1.6415527 5.9376931 -1.7627218
-2.6056836 5.5552521 -1.7557321
-2.7374413 5.4877896 -1.7547734
-2.8674512 5.4172382 -1.7538266
-3.1220703 5.2670612 -1.7519692
-3.3689842 5.1050968 -1.7501642
-3.4893651 5.0198236 -1.7492828
-3.6076269 4.9317522 -1.7484158
-3.7237108 4.8409429 -1.7475637
-3.8375781 4.7474394 -1.746727
-4.4700193 4.552093 -1.8255106
-4.8544431 4.4884844 -1.8917925
-4.9592381 4.3682904 -1.8910147
-5.0611329 4.2456937 -1.8902569
-5.160068 4.1207819 -1.8895195
-5.2559571 3.9936039 -1.8888037
-5.4384961 3.7327788 -1.8874365
-5.5250387 3.5992706 -1.886786
-5.6083884 3.4638054 -1.8861578
-5.6884766 3.3264508 -1.8855526
-5.9088473 2.9038591 -1.883877
-5.9755564 2.7597399 -1.883366
-6.0986228 2.4670997 -1.8824172
-6.2076755 2.1691394 -1.8815672
-6.2569337 2.0183599 -1.8811798
-6.3025584 1.8664911 -1.8808175
-6.3446188 1.7136194 -1.8804811
-6.4178414 1.405205 -1.8798852
-6.4489841 1.2498169 -1.8796262
-6.4764452 1.0937653 -1.8793932
-6.5203319 0.77999693 -1.8790061
-6.5367088 0.62244445 -1.8788524
-6.5493751 0.46456298 -1.8787249
-6.5650487 -0.010203857 -1.8785021
-6.5628123 -0.16855042 -1.8784814
-6.5568652 -0.32680115 -1.8784869
-6.5471873 -0.48486936 -1.8785195
-6.5166893 -0.80011779 -1.8786645
-6.4958692 -0.95712644 -1.8787768
-6.4713573 -1.1136175 -1.8789158
-6.3758788 -1.5790955 -1.879491
-6.1978025 -2.1873221 -1.8806239
-6.1443944 -2.3366146 -1.8809713
-6.087461 -2.4846327 -1.8813446
-5.8958397 -2.9202509 -1.8826144
-5.8251562 -3.0623822 -1.8830873
-5.7510934 -3.2028451 -1.8835847
-5.6737499 -3.3415618 -1.884106
-5.5931249 -3.4784422 -1.8846513
-4.9406443 -4.3792806 -1.8891116
-4.8354392 -4.4989014 -1.8898367
-4.7273827 -4.6160464 -1.8905828
-4.6165528 -4.7306428 -1.8913494
-4.2678514 -5.0585303 -1.8937689
-4.0225587 -5.2632117 -1.8954769
-3.6366699 -5.5481634 -1.8981726
-3.3681934 -5.7227573 -1.9000534
-3.2308006 -5.8052769 -1.9010177
-3.0914159 -5.8845482 -1.9019967
-2.9217479 -5.9031467 -1.8846747
-1.4778711 -5.9747558 -1.7611206
-1.0438769 -6.0765991 -1.7642032
-0.75047851 -6.1271119 -1.7662911
-0.60284179 -6.1470947 -1.7673434
-0.45465818 -6.1635284 -1.7684
-0.15707031 -6.1857057 -1.7705249
-0.0078320308 -6.1914258 -1.7715918
0.1416211 -6.1935458 -1.7726607
0.73941404 -6.1659698 -1.7769457
1.0371679 -6.1305046 -1.7790852
1.1854589 -6.107368 -1.780152
1.6268359 -6.016397 -1.7833323
1.9173437 -5.9379153 -1.7854296
2.5593164 -5.9074802 -1.8421525
4.5214157 -5.1301122 -1.9566598
4.6460156 -5.021915 -1.9575769
4.7679977 -4.9106426 -1.9584759
5.0036912 -4.6791444 -1.9602168
5.2279587 -4.4361415 -1.9618783
5.6398339 -3.9179623 -1.9649469
5.7347751 -3.7821517 -1.9656582
5.8263769 -3.6440065 -1.9663458
5.9145603 -3.5035923 -1.9670097
6.3026071 -2.7706354 -1.9699576
6.3692284 -2.6184893 -1.97047
6.6452832 -1.8351235 -1.9726281
6.7283497 -1.5130255 -1.9732977
6.7954197 -1.1871099 -1.9738535
6.8228612 -1.0229772 -1.9740881
6.898994 -0.194682 -1.9748257
6.8858495 0.47089049 -1.9748864
6.8546386 0.80236083 -1.9747403
6.8328609 0.96740782 -1.974623
6.7771778 1.2956005 -1.9743007
6.7432323 1.4585327 -1.9740957
6.6633692 1.7815942 -1.9735996
6.456377 2.4136243 -1.972265
6.260869 2.872246 -1.9709723
5.8617673 3.599776 -1.9682852
5.7714157 3.7389507 -1.967671
5.6777244 3.8758147 -1.9670321
5.5806932 4.0102825 -1.966369
5.3769822 4.2717118 -1.9649718
4.7327342 4.5693378 -1.882363
4.5169044 4.5765581 -1.8399059
4.3218651 4.5955386 -1.8050915
3.9729102 4.8894148 -1.8026624
3.7289648 5.0705266 -1.8009585
3.4766698 5.2393193 -1.7991918
3.3475976 5.3189716 -1.7982867
3.0840137 5.4685931 -1.796435
2.9496386 5.5384707 -1.7954894
2.8137109 5.6050153 -1.7945322
2.6762402 5.668189 -1.7935629
2.5373633 5.7279582 -1.7925829
1.9692968 5.9324346 -1.7885644
1.8245898 5.974782 -1.7875385
1.532539 6.0487957 -1.7854657
1.3853809 6.0804377 -1.7844198
1.2375976 6.1084833 -1.7833685
0.79125977 6.1709576 -1.7801886
0.64178711 6.1845365 -1.7791219
0.49213865 6.1944952 -1.778053
0.19259766 6.2035394 -1.7759112
0.042871092 6.202631 -1.7748394
-0.25599608 6.1900053 -1.7726974
-0.40497071 6.1782966 -1.7716283
-0.70161134 6.1441765 -1.7694974
-1.1419824 6.0664773 -1.7663274
-1.431543 5.9972453 -1.7642387
-1.71708 5.9143033 -1.7621757
-1.8581543 5.8677664 -1.7611552
-1.9980078 5.8178959 -1.7601424
-2.1365235 5.7647171 -1.7591387
-2.2736816 5.7082791 -1.7581439
-2.6759765 5.5197439 -1.7552208
-2.9359081 5.3784599 -1.7533275
-3.0631738 5.303267 -1.752399
-3.4332812 5.0600801 -1.7496935
-4.0074997 4.5991035 -1.7454764
-4.5818553 4.5477347 -1.8471953
-4.7993455 4.5391107 -1.8901749
-4.9105468 4.4248319 -1.8913763
-5.0138278 4.3033576 -1.8906088
-5.396914 3.7945526 -1.8877485
-5.5697851 3.5274346 -1.886449
-5.6514158 3.390954 -1.8858331
-5.9447556 2.8273664 -1.8836023
-6.071084 2.5360656 -1.8826302
-6.1834373 2.2392938 -1.8817571
-6.3254004 1.7852691 -1.8806354
-6.4020019 1.4776586 -1.8800154
-6.4348731 1.3226172 -1.8797442
-6.4895506 1.0104889 -1.8792801
-6.5113864 0.85358155 -1.8790873
-6.5545897 0.38045105 -1.8786678
-6.5643258 -0.09446533 -1.8784877
-6.5521579 -0.41093627 -1.8785011
-6.5251365 -0.72649109 -1.878621
-6.4832907 -1.040462 -1.8788475
-6.4568357 -1.1966345 -1.8790005
-6.39292 -1.5069427 -1.8793856
-6.3555079 -1.660913 -1.8796176
-6.2216015 -2.1170566 -1.8804699
-6.1698337 -2.2669101 -1.8808056
-6.114531 -2.4155345 -1.8811667
-6.0557227 -2.5628455 -1.8815533
-5.6312499 -3.4146206 -1.8843932
-5.4633203 -3.684453 -1.8855324
-5.3745899 -3.8163815 -1.8861368
-4.9889059 -4.3224735 -1.8887795
-4.5564647 -4.790565 -1.8917657
-4.4414353 -4.9011364 -1.8925631
-4.3238182 -5.0089993 -1.8933798
-4.2035937 -5.1140962 -1.8942158
-3.8280761 -5.4121208 -1.8968343
-3.6981933 -5.5055113 -1.8977422
-3.5660546 -5.5958362 -1.8986666
-3.4317577 -5.6830392 -1.8996078
-3.1569042 -5.8478618 -1.9015365
-2.4888573 -5.9111633 -1.8352089
-2.0018847 -5.9188046 -1.7878338
-1.8446972 -5.9209423 -1.7745185
-1.689707 -5.9228864 -1.76237
-1.5448632 -5.9560885 -1.7606454
-1.4015429 -5.9950786 -1.7616622
-0.96609372 -6.0914025 -1.7647564
-0.67200196 -6.1381822 -1.7668504
-0.52405274 -6.1562796 -1.7679052
-0.37562498 -6.1708231 -1.7689639
-0.07769531 -6.1891947 -1.7710922
0.071650386 -6.1930017 -1.7721602
0.52018553 -6.1828022 -1.7753729
0.66958004 -6.1721787 -1.7764443
0.96762693 -6.1401 -1.7785853
1.8497168 -5.9575448 -1.7849412
1.9948144 -5.9169946 -1.7866893
2.4810839 -5.9089184 -1.8337495
2.6491015 -5.9057841 -1.8520739
2.8205273 -5.9024134 -1.8718133
2.9956639 -5.8987927 -1.8930366
3.1748047 -5.8949118 -1.9158152
3.7971191 -5.6647911 -1.9513513
3.9346776 -5.5744281 -1.9523569
4.203125 -5.3836026 -1.9543228
4.3339157 -5.2832494 -1.9552822
4.4622459 -5.1796656 -1.9562248
4.8317871 -4.8502064 -1.9589465
5.2856345 -4.3696384 -1.9623067
5.3916306 -4.2425733 -1.9630951
5.6907716 -3.8460033 -1.9653282
5.9600878 -3.427994 -1.9673532
6.1222949 -3.1385272 -1.9685816
6.3385253 -2.689899 -1.9702334
6.4640331 -2.3822551 -1.9712036
6.5742869 -2.0686462 -1.9720653
6.8358297 -0.9353894 -1.9742013
6.8742089 -0.60473692 -1.9745529
6.8872557 -0.43878782 -1.9746847
6.8962011 -0.27254272 -1.9747876
6.9010253 -0.10613464 -1.9748608
6.9017282 0.060363159 -1.9749048
6.8983102 0.22681335 -1.9749191
6.8908105 0.39312744 -1.9749038
6.8634276 0.7249487 -1.9747851
6.8435254 0.89024776 -1.9746814
6.8196387 1.0549817 -1.9745487
6.7916307 1.2190595 -1.9743865
6.7596188 1.3823986 -1.9741954
6.683486 1.7063781 -1.9737258
6.591455 2.0261016 -1.9731414
6.4837985 2.3408008 -1.9724441
6.4241891 2.4960229 -1.9720536
6.3607321 2.6496825 -1.9716352
6.2935448 2.8016968 -1.9711899
6.2226658 2.9519842 -1.9707174
6.0698924 3.2469482 -1.9696926
5.9881539 3.3914702 -1.9691412
5.8141308 3.674113 -1.9679615
5.5277634 4.0808182 -1.9660064
5.4257712 4.2114592 -1.9653071
5.0681543 4.5577483 -1.9503301
3.5363965 5.2009549 -1.7996106
3.1462891 5.4347563 -1.796873
3.0127344 5.506186 -1.7959335
2.7407422 5.6390471 -1.7940179
2.4629004 5.7583661 -1.7920568
2.3220215 5.8128581 -1.7910614
1.0101074 6.1444583 -1.7817487
0.71176755 6.1786323 -1.7796212
0.11292969 6.2035041 -1.7753412
-0.036718749 6.2006769 -1.7742693
-0.18615234 6.1942449 -1.7731984
-0.48408201 6.1706133 -1.7710605
-0.6324023 6.1534381 -1.7699947
-0.78016597 6.1327081 -1.7689325
-1.07375 6.0806742 -1.7668191
-1.3641309 6.0146794 -1.7647253
-1.5079297 5.9765105 -1.7636873
-1.6506835 5.934926 -1.7626559
-1.7922851 5.8899603 -1.7616317
-1.9327148 5.8416448 -1.7606155
-2.2096679 5.7350907 -1.7586083
-2.3460546 5.6769266 -1.7576187
-2.4809082 5.6155596 -1.7566392
-2.8757226 5.4126091 -1.7537662
-3.1301367 5.2620525 -1.7519102
-3.2544239 5.182332 -1.751002
-3.3767576 5.0997148 -1.750107
-3.6151464 4.9260087 -1.7483605
-3.9561913 4.645052 -1.7458543
-4.6963477 4.5432181 -1.8696902
-4.8612499 4.4808478 -1.8917421
-5.0675583 4.2377582 -1.8902088
-5.1662989 4.1126895 -1.889473
-5.262002 3.9853778 -1.8887585
-5.3546286 3.8558698 -1.8880655
-5.6136036 3.4550481 -1.8861184
-5.6935153 3.3175836 -1.8855145
-5.7700782 3.1783001 -1.8849341
-5.9797168 2.7504394 -1.883334
-6.102334 2.4576209 -1.8823885
-6.1584177 2.3091877 -1.8819525
-6.2599607 2.0086467 -1.8811556
-6.3471971 1.7037768 -1.8804603
-6.3854003 1.5499359 -1.880151
-6.4199414 1.3952631 -1.8798678
-6.5016308 0.92707396 -1.8791741
-6.5650196 -0.020363769 -1.8785
-6.5625391 -0.17870361 -1.8784808
-6.5328221 -0.65277344 -1.8785833
-6.5154591 -0.81020385 -1.8786709
-6.4944239 -0.96717525 -1.8787848
-6.4696679 -1.1236359 -1.8789256
-6.4412889 -1.2794714 -1.8790927
-6.3341112 -1.7424664 -1.8797518
-6.2445993 -2.046536 -1.8803216
-6.1945114 -2.1969414 -1.8806453
-6.1408396 -2.3461499 -1.8809946
-5.8914161 -2.9294121 -1.8826441
-5.820498 -3.0714474 -1.8831185
-5.5878415 -3.4871597 -1.8846869
-5.4165039 -3.7549069 -1.8858511
-5.3261032 -3.8857253 -1.8864676
-5.2326074 -4.0144172 -1.8871069
-4.3791795 -4.9588709 -1.8929952
-4.2601366 -5.065269 -1.8938226
-4.1385837 -5.1688581 -1.8946683
-4.0145411 -5.2695875 -1.8955328
-3.8880858 -5.3673759 -1.8964151
-3.7593067 -5.462182 -1.8973147
-3.6281543 -5.5539575 -1.8982321
-3.4948828 -5.6426244 -1.8991653
-3.3594432 -5.7281475 -1.9001149
-3.2219336 -5.8104596 -1.90108
-2.9104979 -5.9033689 -1.8833063
-2.400625 -5.9126596 -1.8259567
-2.2370703 -5.9153037 -1.8095796
-2.0762792 -5.9177361 -1.7944756
-1.6115332 -5.9366746 -1.7601727
-1.4687402 -5.9772577 -1.7611853
-1.1801171 -6.0481634 -1.7632345
-1.0344921 -6.0784369 -1.7642698
-0.74103516 -6.1285019 -1.7663585
-0.44514647 -6.164464 -1.768468
-0.29651368 -6.1771064 -1.7695287
0.30072266 -6.1918535 -1.7738
0.4502539 -6.186532 -1.7748715
0.74898434 -6.1650534 -1.7770144
0.89800781 -6.1488938 -1.778085
1.0466796 -6.1291294 -1.7791537
1.1949219 -6.1057591 -1.7802202
1.342666 -6.0787902 -1.7812839
1.4897461 -6.0482354 -1.7823437
1.7818652 -5.9764047 -1.784451
2.2400391 -5.9131098 -1.8092898
2.4035645 -5.9103055 -1.8256451
2.7398436 -5.9040208 -1.8623959
2.9132128 -5.9005194 -1.8829156
3.0904295 -5.8967614 -1.9049555
3.448828 -5.8730173 -1.9488101
3.5914061 -5.7912097 -1.9498495
4.1411524 -5.429441 -1.9538686
4.2729783 -5.330615 -1.9548352
4.5294919 -5.1232677 -1.9567193
4.7757225 -4.9034052 -1.9585327
4.8948045 -4.7889404 -1.9594119
5.0111036 -4.6715245 -1.9602714
5.1244822 -4.5512495 -1.9611108
5.2349706 -4.4281721 -1.9619305
5.3424315 -4.3023572 -1.9627289
5.4468064 -4.1739006 -1.9635059
5.547998 -4.0428567 -1.9642607
5.6460447 -3.9093261 -1.9649932
5.8321385 -3.6350665 -1.9663891
6.0046191 -3.3517952 -1.9676895
6.1630564 -3.0601768 -1.9688914
6.3733888 -2.6086843 -1.970502
6.494873 -2.2993786 -1.9714434
6.6914549 -1.6642693 -1.9729983
6.7660446 -1.340036 -1.9736078
6.8244629 -1.0124365 -1.9741021
6.8476267 -0.84761292 -1.9743061
6.8925681 -0.35035706 -1.9747432
6.8712597 0.64744508 -1.9748232
6.8533497 0.81296629 -1.9747337
6.7409081 1.4689513 -1.9740815
6.7027245 1.6309308 -1.9738461
6.5643258 2.1103563 -1.9729669
6.3254786 2.7307751 -1.9714019
6.2562985 2.8818877 -1.9709418
6.0268259 3.3241057 -1.9694024
5.9431934 3.4675078 -1.9688373
5.8560839 3.6087749 -1.9682466
5.6715722 3.884516 -1.9669901
5.5743847 4.0188212 -1.9663258
5.4738965 4.1506476 -1.9656373
5.370244 4.2799258 -1.9649255
5.2634668 4.4065619 -1.964191
5.1536622 4.5304875 -1.9634337
4.3146191 4.6020918 -1.8050412
4.2004786 4.7027521 -1.8042477
4.0840135 4.8005509 -1.8034369
3.9652147 4.8954072 -1.8026086
3.8441601 4.9872904 -1.8017635
3.5957129 5.1618876 -1.8000262
3.4684668 5.244523 -1.7991345
3.3392675 5.3239689 -1.7982281
2.9409668 5.5428338 -1.7954284
2.8049219 5.609169 -1.7944702
2.3881054 5.7877908 -1.7915286
2.1038282 5.889606 -1.7895176
1.9600488 5.9352546 -1.788499
1.8152832 5.9773722 -1.7874728
1.2280957 6.1101594 -1.7833009
1.0797168 6.134367 -1.7822446
0.93085933 6.1549602 -1.7811841
0.78169918 6.1719317 -1.7801203
0.63220704 6.1852851 -1.7790533
0.18298827 6.2035871 -1.7758424
-0.1162793 6.1977081 -1.7736993
-0.26555663 6.1893644 -1.7726288
-0.41451171 6.1774273 -1.7715598
-0.56306642 6.1619172 -1.7704931
-1.0053027 6.0941057 -1.7673119
-1.1513379 6.0644746 -1.76626
-1.4407519 5.9947991 -1.7641723
-1.7261621 5.9114189 -1.7621102
-2.0069237 5.8145795 -1.7600781
-2.2824023 5.7045474 -1.7580807
-2.4179981 5.6446686 -1.7570964
-2.5520215 5.5816131 -1.7561224
-2.6844432 5.5154023 -1.7551591
-2.8151562 5.4460969 -1.7542074
-2.9441309 5.3737273 -1.7532675
-3.0712597 5.2983418 -1.7523398
-3.5601366 4.9676533 -1.748764
-3.6771288 4.8779364 -1.7479059
-3.9043846 4.690434 -1.7462356
-4.1867967 4.5628815 -1.77194
-4.386826 4.5552983 -1.8095739
-4.8112888 4.5363312 -1.8921127
-4.9172754 4.4171162 -1.8913263
-5.1204977 4.1714969 -1.8898147
-5.3116598 3.9167473 -1.8883871
-5.4904881 3.6534259 -1.8870459
-5.5751266 3.5187335 -1.8864088
-5.6565332 3.3821392 -1.8857943
-5.9490428 2.8181126 -1.8835692
-6.0136814 2.6731012 -1.8830731
-6.2374902 2.0793738 -1.881333
-6.3679686 1.6220349 -1.8802927
-6.5306053 0.68606991 -1.8789108
-6.5447068 0.52835691 -1.878773
-6.5551562 0.37031189 -1.8786615
-6.5641699 -0.10461669 -1.8784863
-6.5515232 -0.42107117 -1.8785033
-6.5240526 -0.73659176 -1.8786265
-6.5047359 -0.89378536 -1.8787282
-6.481709 -1.0504864 -1.8788564
-6.4550195 -1.2066308 -1.8790112
-6.3117089 -1.8237499 -1.8798932
-6.2183785 -2.1267004 -1.8804907
-6.1663961 -2.2764852 -1.8808279
-6.1108594 -2.4250231 -1.8811908
-6.051836 -2.5722363 -1.8815789
-5.9234376 -2.8624017 -1.8824306
-5.7053809 -3.285758 -1.8838927
-5.6260643 -3.4233971 -1.8844284
-5.083447 -4.2073016 -1.8881296
-4.6616306 -4.6846862 -1.8910376
-4.5491505 -4.7977285 -1.8918163
-4.3161716 -5.0158286 -1.893433
-4.1957812 -5.1207366 -1.8942703
-4.0728908 -5.222816 -1.895126
-3.2865233 -5.7723455 -1.9006265
-3.1479492 -5.8529282 -1.9015994
-2.9929492 -5.9017248 -1.8934377
-2.6462793 -5.9083772 -1.8524243
-1.991748 -5.9189482 -1.7869443
-1.6798242 -5.9230051 -1.7616296
-1.5356445 -5.9586883 -1.7607107
-1.2479687 -6.0328069 -1.7627525
-1.1027539 -6.0647006 -1.7637844
-0.95671874 -6.0931234 -1.7648231
-0.80994141 -6.1180439 -1.7658677
-0.36611328 -6.1716356 -1.769032
0.081230469 -6.1931248 -1.7722288
0.38026366 -6.1894689 -1.7743697
0.97716796 -6.138833 -1.7786539
1.4210352 -6.0629816 -1.7818484
1.8589941 -5.9549022 -1.7850082
2.0049608 -5.9168406 -1.7875793
2.3266797 -5.9116449 -1.8178297
2.4917674 -5.9087243 -1.8348849
2.6599803 -5.9055753 -1.8532968
3.0070019 -5.8985519 -1.8944485
3.1864452 -5.8946538 -1.9173304
3.8060057 -5.6590981 -1.9514163
4.2116013 -5.3772626 -1.954385
4.4703808 -5.1729174 -1.9562848
4.7190528 -4.9559436 -1.9581149
5.0717673 -4.6078873 -1.9607204
5.1836619 -4.4861069 -1.9615496
5.2925487 -4.3615632 -1.962358
5.5010448 -4.1045022 -1.9639102
5.7897949 -3.7000644 -1.9660708
5.8794041 -3.5605602 -1.9667448
5.965498 -3.4188435 -1.9673941
6.0481739 -3.274991 -1.9680192
6.2027831 -2.9812877 -1.9691939
6.2745996 -2.8315868 -1.969743
6.3428025 -2.680136 -1.9702666
6.407197 -2.5269952 -1.9707628
6.6266308 -1.8996313 -1.9724795
6.7500486 -1.4162402 -1.9734753
6.7831736 -1.2531793 -1.9737505
6.8122754 -1.0893451 -1.9739969
6.8373337 -0.92480528 -1.9742144
6.8582907 -0.75969726 -1.974403
6.887959 -0.42812011 -1.9746923
6.8966308 -0.2618756 -1.9747931
6.9016504 0.07103882 -1.9749066
6.8901463 0.40380004 -1.9749017
6.8622556 0.73556089 -1.9747794
6.8179393 1.0655236 -1.9745388
6.7896972 1.2295697 -1.974375
6.7574315 1.3928399 -1.9741821
6.7211032 1.5552453 -1.9739599
6.6807909 1.7166991 -1.9737091
6.6364746 1.8770709 -1.9734291
6.4800682 2.3507988 -1.97242
6.4202247 2.505924 -1.9720275
6.3565722 2.6594837 -1.9716078
6.0647559 3.256289 -1.9696579
5.7159472 3.820827 -1.967293
5.6202636 3.9562798 -1.9666396
5.4191113 4.2197614 -1.9652612
5.0529785 4.5582795 -1.9472073
4.8227048 4.5662713 -1.9003631
3.9011035 4.944665 -1.8021612
3.7788963 5.0349431 -1.8013074
3.5282421 5.2062483 -1.7995535
3.399951 5.2871904 -1.7986541
3.1377928 5.4394341 -1.796813
2.8687792 5.5785503 -1.7949202
2.7319336 5.6430826 -1.7939557
2.5936229 5.7042336 -1.7929797
2.0274608 5.9143362 -1.7889767
1.1492089 6.1234903 -1.7827394
1.0005566 6.1457758 -1.7816806
0.55258787 6.1909099 -1.7784849
0.40286133 6.1987042 -1.7774152
0.25307617 6.202879 -1.7763439
-0.046308592 6.2003741 -1.7742006
-0.64189452 6.1522136 -1.7699267
-0.78960937 6.131259 -1.7688644
-0.93672848 6.1067719 -1.7678057
-1.3733789 6.0123343 -1.7646585
-1.9416894 5.8384333 -1.7605505
-2.0807519 5.7865849 -1.7595431
-2.218457 5.7314591 -1.7585446
-2.3547363 5.6730866 -1.7575556
-2.489502 5.6115117 -1.7565768
-2.754209 5.478909 -1.7546514
-2.8840039 5.4079742 -1.7537059
-3.012002 5.3339887 -1.7527725
-3.1381249 5.2570267 -1.7518518
-3.2623241 5.1771231 -1.7509444
-3.5046484 5.0086846 -1.7491708
-3.6226463 4.9202509 -1.7483054
-3.7384667 4.8290997 -1.7474554
-3.8520019 4.7352581 -1.7466209
-4.2921777 4.5589094 -1.7916476
-4.496748 4.5510578 -1.8306664
-4.8680177 4.4732051 -1.8916918
-4.9724512 4.3526969 -1.8909163
-5.0739841 4.2298112 -1.890161
-5.1725192 4.1045928 -1.8894266
-5.3604589 3.8474956 -1.8880218
-5.4497657 3.7157695 -1.8873518
-5.5358982 3.5820122 -1.8867041
-5.6188278 3.4462907 -1.8860791
-5.6984959 3.3087018 -1.8854768
-5.7748828 3.1693127 -1.8848977
-5.8479295 3.0282061 -1.884342
-5.9175973 2.8854601 -1.8838103
-6.0466895 2.5953503 -1.8828186
-6.1618943 2.2996259 -1.8819253
-6.3081641 1.8469409 -1.8807729
-6.3497558 1.6939392 -1.8804398
-6.3877344 1.5400409 -1.8801321
-6.4220409 1.3853192 -1.8798506
-6.4527149 1.2298371 -1.8795948
-6.5030174 0.91701168 -1.879162
-6.5385351 0.60221434 -1.8788345
-6.5507226 0.44429016 -1.8787103
-6.5591989 0.28614563 -1.8786129
-6.5639548 0.12785156 -1.8785422
-6.5649509 -0.030518798 -1.8784982
-6.5456738 -0.50512511 -1.8785256
-6.4929395 -0.97722596 -1.8787931
-6.3710642 -1.5988445 -1.8795208
-6.1911716 -2.2065401 -1.880667
-6.0798826 -2.5035164 -1.8813943
-5.5825391 -3.4958658 -1.8847232
-5.4982715 -3.630599 -1.8852948
-5.4108005 -3.7633569 -1.8858899
-5.3202047 -3.8940418 -1.8865079
-5.2265134 -4.0225945 -1.8871487
-5.129746 -4.1489549 -1.8878117
-4.9273338 -4.3947601 -1.8892032
-4.8217578 -4.5140619 -1.8899311
-4.602119 -4.7451568 -1.8914492
-4.4882126 -4.8568077 -1.8922386
-4.3716016 -4.9657807 -1.893048
-4.2524314 -5.0719976 -1.893876
-3.7509179 -5.4681678 -1.8973733
-3.6197166 -5.5597348 -1.8982911
-3.2130663 -5.8156271 -1.9011422
-2.7260547 -5.9069071 -1.8614929
-2.2266991 -5.9154649 -1.8085742
-2.066035 -5.9178858 -1.7935494
-1.9079101 -5.9201026 -1.779754
-1.7520703 -5.9221239 -1.767139
-1.3156152 -6.0166941 -1.762272
-1.0251563 -6.0802569 -1.7643362
-0.58385742 -6.1494007 -1.7674786
-0.43560547 -6.1653814 -1.7685357
-0.28697264 -6.1777973 -1.7695968
-0.13794921 -6.1866431 -1.7706615
0.31030273 -6.1916165 -1.7738686
0.60925782 -6.1769028 -1.7760116
0.75852537 -6.1641278 -1.777083
1.204414 -6.1041389 -1.7802883
1.3521191 -6.0769396 -1.7813519
1.4991796 -6.0461564 -1.7824115
1.9358593 -5.9324017 -1.7855636
2.0895116 -5.9155407 -1.7951391
3.1019433 -5.8965116 -1.9064213
3.740957 -5.700315 -1.9509411
4.1496873 -5.423203 -1.9539312
4.2813964 -5.3241687 -1.9548968
4.4106932 -5.2218843 -1.955846
4.6617966 -5.0078306 -1.9576931
4.9023337 -4.781498 -1.9594674
5.0184469 -4.663909 -1.9603258
5.1316504 -4.5434508 -1.9611639
5.3492284 -4.2941966 -1.9627794
5.6521974 -3.9006896 -1.9650394
5.7466893 -3.7645845 -1.9657474
5.8378806 -3.6261194 -1.9664325
5.9256153 -3.4854271 -1.967093
6.0099316 -3.3425701 -1.9677298
6.090693 -3.1976364 -1.9683416
6.167861 -3.0507085 -1.9689282
6.3775291 -2.5988641 -1.9705338
6.4399509 -2.4448869 -1.9710165
6.4985251 -2.2893777 -1.9714718
6.5533104 -2.1324074 -1.9719006
-1.9609179 5.3161187 -1.7602912
-2.5797069 5.0286822 -1.7557956
-2.6989257 4.9625373 -1.7549267
-3.0462596 4.7475309 -1.7523907
-3.1584179 4.670485 -1.7515701
-3.4192772 4.5651984 -1.7719357
-3.7656543 4.5523868 -1.8353955
-3.9483006 4.5453424 -1.8704189
-4.1146288 4.5122309 -1.8970932
-4.2205272 4.4098539 -1.8963113
-4.5230079 4.0883121 -1.8940716
-4.6185641 3.9765313 -1.8933618
-4.8015037 3.7464643 -1.8919989
-4.8887987 3.6283135 -1.8913463
-4.9732127 3.5081635 -1.8907144
-5.0547361 3.3860931 -1.8901025
-5.1333494 3.2621641 -1.8895109
-5.2089648 3.1364532 -1.8889403
-5.4809079 2.6171515 -1.8868732
-5.5980563 2.3486578 -1.8859723
-5.7496285 1.9365313 -1.8847915
-5.793613 1.7969556 -1.8844442
-5.8342576 1.6564032 -1.8841206
-5.8715625 1.514956 -1.8838207
-6.054873 0.21444947 -1.882206
-6.0580859 0.068339229 -1.882149
-6.0542088 -0.22389831 -1.8821086
-6.0225973 -0.66110778 -1.8822333
-6.0051756 -0.80622435 -1.8823242
-5.9324803 -1.23859 -1.8827436
-5.8670897 -1.5235809 -1.8831455
-5.8293552 -1.664865 -1.8833826
-5.7883301 -1.8052368 -1.8836435
-5.7439647 -1.9446197 -1.8839287
-5.591279 -2.3560944 -1.8849258
-5.4734178 -2.6240876 -1.8857069
-5.4097462 -2.7559676 -1.8861319
-5.3429785 -2.8863361 -1.8865794
-5.2731152 -3.0151236 -1.8870496
-5.2002048 -3.1422567 -1.8875418
-5.1242967 -3.2676647 -1.8880558
-5.0454197 -3.3912759 -1.8885915
-4.963613 -3.5130205 -1.8891488
-4.8789353 -3.6328342 -1.889727
-4.7914062 -3.7506473 -1.8903261
-4.6080174 -3.9800069 -1.8915854
-4.5122557 -4.0914245 -1.8922447
-4.4138279 -4.2005725 -1.8929238
-4.3128223 -4.3074045 -1.8936218
-4.2092676 -4.4118462 -1.8943386
-3.9947264 -4.6133361 -1.8958273
-3.7707031 -4.8045659 -1.8973863
-3.6552539 -4.8961973 -1.8981912
-3.4178514 -5.0712075 -1.8998497
-3.046416 -5.3123307 -1.902452
-2.9187694 -5.3868046 -1.9033483
-2.7892969 -5.4582481 -1.9042581
-2.6581347 -5.5266175 -1.9051813
-2.5253124 -5.5918689 -1.9061166
-1.9788281 -5.8209081 -1.9099746
-1.5402637 -5.9008074 -1.8945819
-1.389541 -5.902523 -1.8838198
-0.94614255 -5.9065423 -1.858335
-0.80066407 -5.9075198 -1.8520249
-0.65607423 -5.9083209 -1.8467765
-0.36889648 -5.9094033 -1.8394042
-0.08333008 -5.9098043 -1.8361378
0.20186523 -5.9095283 -1.8369387
0.34470701 -5.9091358 -1.8388673
0.77606446 -5.9069285 -1.8508314
0.92135739 -5.9058433 -1.8569152
1.0676367 -5.9045787 -1.8640747
1.363916 -5.9014964 -1.8816994
1.6663672 -5.8976488 -1.9039086
1.9765527 -5.8929906 -1.9309639
2.1273339 -5.8689904 -1.9393526
2.2694726 -5.819057 -1.9403818
2.4104493 -5.7656555 -1.9414032
2.5501561 -5.7088165 -1.9424162
2.6884863 -5.6485643 -1.9434204
2.8254004 -5.5849304 -1.944415
3.0945799 -5.4476523 -1.9463737
3.2266698 -5.3740807 -1.9473361
3.3569727 -5.2972751 -1.9482867
3.4854589 -5.2172751 -1.9492248
3.6120019 -5.1341186 -1.9501501
3.8589745 -4.9585481 -1.9519584
3.9792578 -4.8662305 -1.9528408
4.3263278 -4.5717387 -1.9553937
4.545537 -4.3613853 -1.9570113
4.651279 -4.2521729 -1.9577938
4.7543259 -4.1403589 -1.9585574
5.227334 -3.5446057 -1.9620814
5.3130565 -3.4186058 -1.9627242
5.3956738 -3.290499 -1.9633456
5.4751463 -3.1603594 -1.9639443
5.5514159 -3.0282671 -1.9645212
5.6244431 -2.8942952 -1.965075
5.6941504 -2.7585349 -1.9656054
5.8235059 -2.4819672 -1.9665958
5.8830566 -2.3413286 -1.9670547
5.9391112 -2.1992331 -1.967489
6.2316504 -1.1712329 -1.969822
6.3019238 -0.71781492 -1.9704306
6.3385448 -0.26032349 -1.9707992
6.3411813 0.19867858 -1.970925
6.3240528 0.50424743 -1.9708734
6.2701464 0.96005124 -1.9705936
6.2155371 1.2611169 -1.9702728
6.1826463 1.4105285 -1.9700723
6.1461425 1.5590655 -1.9698455
5.9093456 2.2854712 -1.9683198
5.7898927 2.5667686 -1.9675301
5.5852833 2.9766197 -1.9661613
5.5104198 3.1096709 -1.9656564
5.4323535 3.2408099 -1.9651284
5.3511229 3.3699541 -1.964577
4.9953613 3.8650153 -1.9621457
4.7998729 4.0986185 -1.960801
4.5932713 4.3221807 -1.9593743
4.4859667 4.4300385 -1.9586314
4.376123 4.5351834 -1.9578699
4.1923828 4.559926 -1.9243231
3.9995019 4.5664825 -1.8858192
3.4906933 4.6211028 -1.7991486
3.1431737 4.8548236 -1.7967156
3.0237694 4.9269266 -1.7958777
2.9026659 4.9960613 -1.795027
2.7799902 5.0621891 -1.7941644
2.6557715 5.125268 -1.79329
2.5301268 5.1852775 -1.7924048
2.4031153 5.2421708 -1.7915088
2.2748046 5.2959309 -1.790603
2.1453321 5.3465238 -1.7896881
1.8830273 5.438118 -1.787832
1.7504003 5.479074 -1.7868924
1.2118067 5.6101899 -1.7830679
0.93878907 5.6559281 -1.7811246
0.66421872 5.6883636 -1.7791668
0.11285156 5.7132111 -1.7752264
-0.16263671 5.7056522 -1.7732528
-0.43713868 5.6848516 -1.7712833
-0.57378906 5.6695085 -1.7703018
-0.7099902 5.6508889 -1.7693225
-1.643291 5.4304619 -1.7625912
-2.0284276 5.2890425 -1.7598017
-2.278789 5.179709 -1.7579844
-2.6433496 4.9938321 -1.7553316
-2.8783007 4.8557987 -1.7536181
-3.3446288 4.5721965 -1.7598852
-3.5091209 4.5619464 -1.7880101
-3.6824315 4.5555339 -1.8197879
-4.0483007 4.5414066 -1.8900247
-4.5741796 4.0291142 -1.8936917
-4.8482909 3.6838555 -1.8916495
-5.0969334 3.3203814 -1.8897852
-5.2479587 3.0688543 -1.8886455
-5.3189549 2.9405444 -1.8881075
-5.4516602 2.6791735 -1.887097
-5.5717869 2.4119585 -1.886175
-5.62708 2.2763441 -1.8857477
-5.7279296 2.0014911 -1.8849621
-5.8156443 1.7222887 -1.8842691
-5.9984469 0.86478513 -1.8827612
-6.0170116 0.71978939 -1.8825946
-6.0438962 0.42870972 -1.8823342
-6.0521679 0.28278625 -1.8822411
-6.0570211 0.13671753 -1.8821725
-6.0584083 -0.0094140619 -1.8821286
-6.0508595 -0.30158263 -1.8821145
-6.0295506 -0.59306884 -1.8821994
-5.9718652 -1.0276605 -1.8825109
-5.9458299 -1.1715027 -1.8826638
-5.6170311 -2.2926266 -1.8847561
-5.4399314 -2.6944377 -1.8859302
-5.2347069 -3.0829828 -1.8873087
-5.1601853 -3.2091973 -1.8878127
-5.0022559 -3.4562857 -1.8888855
-4.7436914 -3.8124886 -1.890653
-4.6519041 -3.9271126 -1.8912835
-4.4601951 -4.149786 -1.8926038
-4.1531348 -4.466423 -1.8947277
-3.9360352 -4.6652327 -1.8962353
-3.8239355 -4.760767 -1.8970153
-3.7095604 -4.8536596 -1.8978125
-3.5929492 -4.9438396 -1.8986261
-3.4741697 -5.0312638 -1.8994558
-3.3533008 -5.1158733 -1.9003012
-2.9787207 -5.3523316 -1.9029272
-2.850127 -5.4251966 -1.9038309
-2.5876465 -5.5617285 -1.9056774
-2.4539745 -5.6253014 -1.9066194
-2.1820116 -5.7428784 -1.9085388
-1.6113867 -5.8999372 -1.9000219
-1.3099999 -5.9033575 -1.8785653
-0.86861324 -5.907084 -1.854844
-0.72363281 -5.907968 -1.8491012
-0.43589842 -5.9092126 -1.840759
-0.29280272 -5.9095769 -1.838138
-0.007490234 -5.9097967 -1.835954
0.13509765 -5.9096532 -1.8363861
0.27783203 -5.9093409 -1.8378381
0.42083985 -5.9088578 -1.8403099
0.56433594 -5.9082031 -1.843811
0.85325193 -5.906373 -1.8539349
0.9990527 -5.9051929 -1.8605897
1.2941113 -5.9022846 -1.8771747
1.4437207 -5.9005499 -1.8871505
1.5949903 -5.8986197 -1.8982891
2.2031054 -5.842854 -1.9399011
2.3446288 -5.7910714 -1.9409262
2.6239257 -5.6771793 -1.9429516
2.7615039 -5.6151295 -1.9439508
2.8976367 -5.5497069 -1.9449401
3.0321581 -5.4809589 -1.9459192
3.2962499 -5.3336186 -1.9478436
3.4255857 -5.2551069 -1.9487875
4.0423341 -4.8158984 -1.9533041
4.2736034 -4.6193628 -1.9550052
4.3856349 -4.5168452 -1.9558308
4.602119 -4.303606 -1.9574299
4.8080759 -4.0798264 -1.9589561
4.9069042 -3.9641571 -1.9596903
5.0960255 -3.7255788 -1.9610995
5.1862206 -3.6028152 -1.9617736
5.2733297 -3.4778292 -1.9624261
5.3574314 -3.3507049 -1.9630576
5.4383688 -3.2215052 -1.9636672
5.590693 -2.9572122 -1.964819
5.7298923 -2.6856012 -1.9658786
5.7944431 -2.5472527 -1.9663726
5.9132714 -2.2658978 -1.9672887
5.9675293 -2.1230686 -1.9677103
6.0181932 -1.9789114 -1.9681064
6.1487794 -1.5393921 -1.9691433
6.185029 -1.3908478 -1.9694372
6.217627 -1.2414258 -1.9697053
6.2465525 -1.0912255 -1.9699472
6.271709 -0.94034117 -1.9701626
6.2931542 -0.78887326 -1.9703512
6.3109078 -0.63690001 -1.9705138
6.3415136 -0.17894958 -1.9708395
6.3441501 -0.025945434 -1.9708939
6.3430176 0.12708923 -1.9709213
6.3293848 0.43283933 -1.9708951
6.3169236 0.58536559 -1.9708413
6.2296581 1.1909301 -1.9703577
6.1637206 1.4896685 -1.9699551
6.1252246 1.6377075 -1.9697142
6.0831151 1.7847345 -1.969447
6.0373926 1.930653 -1.9691535
5.9352636 2.2188141 -1.96849
5.7558103 2.640559 -1.9673038
5.6891894 2.777998 -1.9668586
5.6191502 2.9137201 -1.9663891
5.5458689 3.0476439 -1.9658957
5.4692674 3.1796923 -1.9653782
5.3895216 3.3097746 -1.9648376
5.1315136 3.6874969 -1.9630789
5.0394626 3.8089726 -1.9624484
4.9444628 3.9281061 -1.9617962
4.745986 4.1590972 -1.9604293
4.6425681 4.2708049 -1.9597152
4.5365138 4.3798957 -1.9589816
4.4278517 4.4863214 -1.9582287
4.2853122 4.5566974 -1.9432513
3.8998926 4.5697894 -1.8663577
3.5495899 4.5904117 -1.8026855
3.4302928 4.6644292 -1.7987262
3.3153124 4.7436872 -1.7979217
3.1984766 4.8200774 -1.7971033
2.9595408 4.9640813 -1.7954266
2.7140722 5.0961323 -1.7937006
2.5890918 5.1575809 -1.7928202
2.4626954 5.2159367 -1.7919292
2.3350098 5.2711687 -1.7910281
2.0759571 5.3721452 -1.7891974
1.9447753 5.4178448 -1.7882693
1.2753613 5.5975723 -1.7835199
1.1393554 5.6236506 -1.7825525
0.8658691 5.6658611 -1.7806048
0.72855467 5.6819658 -1.779626
0.31527343 5.7102861 -1.7766745
-0.098251954 5.7086124 -1.7737143
-0.37301758 5.6909027 -1.7717438
-0.91752928 5.6160493 -1.7678289
-1.0521485 5.5892181 -1.7668593
-1.1860058 5.5591755 -1.7658942
-1.4511425 5.4895549 -1.7639803
-2.0955565 5.2611175 -1.7593149
-2.2207031 5.2063532 -1.7584063
-2.5874023 5.0245233 -1.7557395
-2.7065039 4.9581976 -1.7548715
-2.8239355 4.8890886 -1.7540148
-2.9396191 4.8172293 -1.7531701
-3.4300292 4.5648127 -1.7738423
-3.6005859 4.5585847 -1.8046559
-4.1215134 4.5057354 -1.8970424
-4.3304782 4.2982316 -1.8954986
-4.4311523 4.1908793 -1.8947531
-4.7172852 3.85518 -1.8926269
-4.9785252 3.5003901 -1.8906744
-5.1382909 3.2541602 -1.8894738
-5.2861133 3.000788 -1.8883566
-5.4848337 2.6086297 -1.8868432
-5.5448337 2.4749682 -1.8863827
-5.6016111 2.3399591 -1.8859447
-5.6551852 2.2036853 -1.8855298
-5.7054882 2.0662122 -1.8851376
-5.7962985 1.7879688 -1.8844229
-5.8367481 1.6473565 -1.8841006
-5.8738575 1.5058588 -1.8838022
-5.9075975 1.3635412 -1.8835275
-5.9379883 1.220487 -1.8832766
-5.9649706 1.0767736 -1.8830501
-6.0087595 0.78769284 -1.8826693
-6.0388379 0.49691343 -1.8823864
-6.0487399 0.35108826 -1.8822817
-6.0551758 0.20508727 -1.8822017
-6.0581837 0.058968503 -1.882146
-6.057744 -0.087175287 -1.8821151
-6.0538669 -0.23326415 -1.8821089
-6.0357614 -0.52496523 -1.8821707
-5.9829102 -0.96015501 -1.8824476
-5.9584274 -1.1042645 -1.8825891
-5.9306054 -1.247774 -1.882755
-5.8647656 -1.5326678 -1.8831599
-5.8268456 -1.6738952 -1.8833984
-5.7855759 -1.814202 -1.8836612
-5.7410154 -1.9535214 -1.8839477
-5.6931639 -2.091773 -1.884258
-5.3385839 -2.8946462 -1.886609
-5.2685156 -3.0233247 -1.8870806
-5.1193261 -3.2756445 -1.8880895
-4.9582715 -3.5207641 -1.8891852
-4.8734083 -3.6404467 -1.8897647
-4.6951952 -3.8737454 -1.890986
-4.4074411 -4.2074933 -1.8929681
-4.3062401 -4.3141785 -1.8936672
-3.9876952 -4.6196313 -1.8958762
-3.4101171 -5.0766325 -1.8999038
-3.2881541 -5.1597276 -1.9007574
-3.1641796 -5.2399321 -1.901626
-2.9105077 -5.3914752 -1.9034064
-2.7809472 -5.4627256 -1.904317
-2.5167382 -5.5959449 -1.9061772
-2.3821971 -5.6578374 -1.9071255
-1.9698827 -5.8241553 -1.9100381
-1.8297949 -5.8730173 -1.9110293
-1.6829101 -5.899024 -1.9057238
-1.5305371 -5.9009233 -1.8938564
-1.2308886 -5.9041386 -1.8736323
-0.50300783 -5.9089823 -1.8423392
-0.3597168 -5.9094272 -1.8392364
-0.074199215 -5.9098063 -1.8360999
0.068359375 -5.9097419 -1.8360579
0.35387695 -5.9091053 -1.8390261
0.49710935 -5.9085307 -1.8420438
1.2245996 -5.9030323 -1.8728951
1.3734961 -5.9013853 -1.8823391
1.5239843 -5.8995476 -1.892931
1.6762011 -5.897512 -1.9046999
1.9866406 -5.892827 -1.9319149
2.2785547 -5.815731 -1.9404473
2.4194336 -5.7621174 -1.9414681
2.5590625 -5.7050552 -1.9424807
3.1030858 -5.4430332 -1.9464357
3.4936328 -5.2120352 -1.9492847
3.7444334 -5.0422368 -1.9511193
4.2203417 -4.6663756 -1.954613
4.3334961 -4.5651727 -1.9554465
4.7608595 -4.1331034 -1.9586056
4.8610058 -4.0185938 -1.9593492
4.9583497 -3.9016128 -1.9600732
5.1443849 -3.6605482 -1.9614608
5.3184471 -3.4104574 -1.9627647
5.5562205 -3.0197365 -1.9645576
5.6985059 -2.7497749 -1.9656389
5.8274121 -2.4729991 -1.9666258
5.8867283 -2.3322659 -1.9670831
5.9425683 -2.1900733 -1.9675159
