# .PCD v0.7 - Point Cloud Data file format
VERSION 0.7
FIELDS x y z
SIZE 4 4 4
TYPE F F F
COUNT 1 1 1
WIDTH 1487
HEIGHT 1
VIEWPOINT 0 0 0 1 0 0 0
POINTS 1487
DATA ascii
-1.0340136 6.511857 -0.20423222
-1.1957226 6.5117927 -0.20507476
-1.6904004 6.51159 -0.20838226
-2.5282128 6.4296894 -0.21400772
-2.7081347 6.427382 -0.216039
-3.1259375 6.5206094 -0.22398628
-3.3216991 6.5205278 -0.22667091
-3.5223436 6.5204458 -0.22955653
-3.9399414 6.5202713 -0.23597549
-4.1578808 6.5201797 -0.23953269
-4.382627 6.5200849 -0.24334446
-4.6147752 6.5199895 -0.24742518
-5.3625584 6.5196743 -0.26148391
-5.9121189 6.5194426 -0.27261013
-6.8338866 6.519053 -0.2925472
-7.1725488 6.5189104 -0.30022189
-7.5296288 6.5187588 -0.30849451
-9.186553 6.517498 -0.34889445
-10.194756 6.5170684 -0.37479272
-10.757764 6.5168281 -0.38959834
-12.755849 6.5159745 -0.44367847
-13.378633 6.4319196 -0.45980537
-14.434043 6.515347 -0.49053642
-16.513563 6.5144572 -0.5498752
-17.755703 6.5139251 -0.58583176
-19.18417 6.5172524 -0.62759006
-20.818232 6.5165505 -0.67570359
-12.413779 -7.8750291 -0.45536622
-0.37111327 -22.958719 -0.71124685
0.17889649 -22.451042 -0.69544846
2.254746 -21.500841 -0.66965008
3.8614647 -21.603214 -0.67977357
4.4017382 -21.602669 -0.68290144
4.947207 -21.602116 -0.6864565
7.1959372 -21.594814 -0.7050668
7.7792187 -21.593519 -0.71094847
8.3725777 -21.592205 -0.71734905
4.4696093 -7.9032493 -0.28124258
13.617246 -21.578196 -0.79035455
14.355702 -21.576687 -0.80275607
15.118144 -21.575129 -0.81603462
15.90371 -21.569548 -0.83010209
18.451542 -21.566053 -0.87915105
19.371132 -21.56502 -0.89790678
28.492519 6.4545527 -0.90491229
25.885721 6.5244575 -0.82689482
16.964882 6.5323491 -0.5631035
15.814824 6.5319133 -0.53000832
12.880234 6.4470119 -0.44615969
12.279316 6.5213041 -0.43066642
11.594511 6.5210443 -0.41204867
10.966113 6.5208049 -0.3951965
9.351758 6.5201907 -0.35312942
8.4510345 6.5198464 -0.33062226
7.9384766 6.4358621 -0.31655449
7.5579686 6.4357157 -0.3074868
6.6237693 6.5234027 -0.28796852
6.3115821 6.5232816 -0.28115809
5.7286325 6.523057 -0.2689091
4.6973243 6.5226579 -0.24898025
4.2349024 6.5224786 -0.2408853
2.9997363 6.5219965 -0.22236389
2.4105175 6.429451 -0.21268634
2.2455664 6.4594989 -0.21182606
2.0894823 6.5131121 -0.21187191
1.9174511 6.5130439 -0.21030277
1.7478223 6.5129776 -0.20887771
1.2511231 6.5127788 -0.20542289
1.088877 6.5127153 -0.20453204
0.92796874 6.5126505 -0.20376778
0.76814449 6.5125871 -0.20312625
0.60921872 6.5125237 -0.20260616
0.45101562 6.5124602 -0.20220664
0.29333985 6.5123954 -0.20192604
0.13602538 6.5123334 -0.20176394
-0.021142578 6.51227 -0.20171894
-0.17829101 6.5122061 -0.20179096
-0.33568358 6.5121427 -0.20198199
-0.49347654 6.5120783 -0.20228985
-0.97101563 6.5118842 -0.20393589
-1.4589355 6.5116849 -0.2067004
-1.7928027 6.5115485 -0.20920089
-2.6368749 6.4274116 -0.21519256
-3.4431543 6.5204763 -0.22840126
-3.6469531 6.5203934 -0.23141544
-3.8562987 6.5203056 -0.23464595
-4.2937403 6.520124 -0.2418206
-4.7598925 6.519927 -0.2500478
-5.0053611 6.5198259 -0.25460339
-5.2601171 6.5197163 -0.25948089
-5.8008008 6.5194902 -0.27030656
-6.7058983 6.5191083 -0.28969291
-7.0378027 6.5189676 -0.29714781
-7.6563964 6.4343586 -0.30978569
-8.0424414 6.4341946 -0.31902674
-8.5625191 6.5177631 -0.33332381
-9.0050879 6.5175738 -0.34432787
-9.4781733 6.5173736 -0.35629874
-9.9856443 6.5171576 -0.36935467
-10.532061 6.5169253 -0.38363594
-11.764091 6.516398 -0.41656578
-12.463886 6.5161004 -0.4356488
-14.078027 6.515501 -0.4805097
-16.067627 6.5146475 -0.53705156
-17.250214 6.5141425 -0.57116044
-18.355381 6.4298782 -0.60243833
-29.06415 -5.9628816 -1.5884179
-28.558651 -6.5810022 -1.569014
-28.407997 -7.2723475 -1.5699215
-27.867128 -9.3278522 -1.5732783
-12.409902 -7.8549395 -0.78629136
-19.52454 -22.399149 -1.5908047
-14.834102 -25.675564 -1.5875168
-14.04291 -25.719429 -1.5688183
-9.8773336 -26.645393 -1.5213721
-7.8145118 -26.911909 -1.5002948
-7.1716895 -27.125729 -1.5021243
-6.5254197 -27.333996 -1.5045003
-5.8754296 -27.53684 -1.5074207
-2.4373631 -27.140965 -1.4588944
-1.7824023 -27.200798 -1.4593716
-0.39481443 -22.984646 -1.230707
0.6870898 -22.097597 -1.1836076
1.2055175 -21.811743 -1.1695178
1.717832 -21.605141 -1.1603225
3.2956054 -21.552914 -1.1672864
5.4755273 -21.601353 -1.193045
6.5978122 -21.595592 -1.2089161
8.3473043 -21.5917 -1.239331
11.497676 -21.579357 -1.3090447
13.586659 -21.578049 -1.3651509
17.53125 -21.565117 -1.4879106
18.413496 -21.56566 -1.5181608
19.331425 -21.564619 -1.5504816
23.264551 6.4392071 -1.2923379
13.911055 6.5308905 -0.82274503
10.409824 6.5203543 -0.65760773
9.8717775 6.5201578 -0.63337535
9.3717184 6.5199747 -0.6112076
8.9051752 6.519804 -0.59087217
8.4684572 6.5196438 -0.57216847
7.9546871 6.435668 -0.54779005
7.5732617 6.4355278 -0.53206235
6.9656835 6.5233479 -0.51091534
6.6370311 6.5232258 -0.49821681
6.3241992 6.5231094 -0.486408
6.0256834 6.5229974 -0.47541744
5.7401953 6.5228925 -0.46517694
5.4665623 6.52279 -0.45562792
5.2038083 6.5226922 -0.44671842
4.9509764 6.5225968 -0.43840033
4.4718943 6.5224161 -0.42337885
4.2441993 6.5223308 -0.41660324
4.0235548 6.5222464 -0.41027603
3.6011326 6.5220852 -0.3988592
3.3983984 6.5220084 -0.39372465
3.0076561 6.5218596 -0.38449824
2.7789452 6.4294586 -0.37498707
2.2453418 6.4377775 -0.3650175
2.096709 6.5129828 -0.36630496
1.9245508 6.5129142 -0.36358362
1.4217578 6.5127177 -0.35687953
1.2579395 6.5126529 -0.35510844
1.0956445 6.5125895 -0.35356078
0.93466794 6.512526 -0.35223022
0.45762694 6.5123343 -0.34950712
0.29994139 6.5122724 -0.34901249
0.14261718 6.5122075 -0.34872401
-0.014541015 6.512145 -0.34863785
-0.17171875 6.5120807 -0.34875503
-0.64516598 6.5118899 -0.35033074
-0.80422848 6.5118241 -0.35126826
-1.1254199 6.5116911 -0.35378128
-1.2879297 6.5116253 -0.35536268
-1.7856933 6.5114188 -0.36146861
-1.9557617 6.5113482 -0.36398003
-2.4536328 6.4369659 -0.36879924
-2.6292479 6.4272795 -0.37177092
-2.8120897 6.4272013 -0.37558287
-2.9988475 6.4271245 -0.37969851
-3.4346385 6.5203376 -0.39454383
-4.0624804 6.5200686 -0.41127509
-4.7496777 6.5197744 -0.43184733
-4.9947753 6.5196695 -0.43969649
-5.2490916 6.5195584 -0.44810215
-5.788867 6.5193243 -0.46675873
-6.0762987 6.5191984 -0.47711006
-6.3769627 6.5190678 -0.48822212
-7.0233297 6.518786 -0.51300675
-7.6404881 6.4341717 -0.53477031
-8.0255861 6.4340005 -0.55068487
-9.4573536 6.5171585 -0.61489141
-9.9632416 6.5169339 -0.63737112
-12.432774 6.5158391 -0.75148046
-13.027529 6.4317851 -0.77782255
-14.975273 6.5147967 -0.87430888
-23.62711 6.4262433 -1.3108746
-26.433105 6.5087738 -1.4574114
-28.659668 6.3276772 -1.5713023
-28.309082 -7.6915526 -1.5705252
-28.134579 -8.3780727 -1.5716029
-20.890049 -7.9063549 -1.1958101
-12.550908 -7.779068 -0.79053539
-19.802412 -22.289177 -1.5962127
-19.068789 -22.535837 -1.580458
-18.708193 -23.223598 -1.5965614
-3.9257421 -7.9045291 -0.47250038
-12.212939 -26.156775 -1.5454804
-9.4625978 -26.723942 -1.5177618
-8.7283983 -26.67948 -1.5028373
-8.0654097 -26.826653 -1.4997256
-7.4238086 -27.042641 -1.5013447
-6.7789159 -27.25308 -1.5035059
-4.1650095 -28.076159 -1.5195587
-3.4850194 -28.157185 -1.5189514
-2.0383985 -27.170351 -1.4587048
-1.3840039 -27.245905 -1.4605409
-0.61983395 -23.27457 -1.2464902
-0.056503907 -22.648804 -1.2125496
0.48097655 -22.228739 -1.1903372
1.0031445 -21.904415 -1.1739259
2.0316405 -21.543854 -1.1585091
3.6260936 -21.588198 -1.1719608
4.7099805 -21.602131 -1.1836821
5.814199 -21.601009 -1.1976074
6.9457812 -21.594818 -1.2144521
7.524961 -21.593531 -1.2242366
8.7134571 -21.590881 -1.246492
9.3238087 -21.587358 -1.2589138
9.9474411 -21.58506 -1.2724082
10.585 -21.582714 -1.2869531
11.237656 -21.580315 -1.302603
11.906796 -21.577854 -1.3194176
13.303965 -21.578625 -1.3571745
15.559336 -21.57135 -1.4239383
17.196249 -21.566175 -1.4766972
18.06209 -21.563442 -1.5059255
19.909452 -21.563961 -1.5712804
24.465702 6.523428 -1.3555799
20.476074 6.5327082 -1.1506654
18.887871 6.5321369 -1.06996
17.508495 6.5321894 -1.0004627
16.295546 6.5317521 -0.93988889
15.220488 6.5313654 -0.88671196
14.260038 6.5310187 -0.83969837
12.595293 6.5211477 -0.75933051
11.883496 6.5208893 -0.72569501
11.231679 6.5206523 -0.6952973
10.077676 6.5202336 -0.64260334
9.0841208 6.5198698 -0.5986321
7.4522848 6.5235271 -0.53023779
7.0989647 6.5233965 -0.5161503
6.7637691 6.523272 -0.50307924
6.4449606 6.5231547 -0.49093157
5.5723634 6.52283 -0.45928833
5.3054686 6.5227299 -0.4501344
5.0488477 6.5226336 -0.4415901
4.8016601 6.5225406 -0.4336125
4.5631056 6.5224514 -0.4261606
4.3325 6.5223651 -0.41920096
4.1091404 6.5222783 -0.41270241
3.0827343 6.5218878 -0.38620043
2.8513477 6.4294868 -0.37654296
2.1648633 6.5130081 -0.36744118
1.9916699 6.5129414 -0.3646194
1.6526757 6.5128078 -0.35972393
1.4863671 6.5127435 -0.35763401
0.83727539 6.512486 -0.35152429
0.67798829 6.5124226 -0.35053611
0.3616406 6.5122952 -0.34918246
0.046992186 6.5121698 -0.34864753
-0.26742187 6.5120416 -0.34892571
-0.42499998 6.5119781 -0.34936973
-0.58308595 6.5119147 -0.3500196
-0.90146482 6.5117841 -0.3519417
-1.2241211 6.511652 -0.35471717
-1.719707 6.511447 -0.36055189
-2.2346191 6.5112324 -0.36854526
-2.5586329 6.427309 -0.37035784
-2.7400391 6.4272318 -0.37405506
-3.1597655 6.5204535 -0.38790995
-3.9774804 6.5201054 -0.40888736
-4.4225388 6.5199151 -0.42177856
-4.6560645 6.519815 -0.42891729
-4.8977342 6.5197101 -0.43655851
-5.1483493 6.5196013 -0.44474193
-5.4086814 6.5194902 -0.45350677
-5.6796679 6.519372 -0.46290058
-6.8916407 6.5188446 -0.5078637
-7.5938768 6.518537 -0.53578931
-7.8720703 6.4340692 -0.54430324
-10.289678 6.5167899 -0.65206361
-14.59706 6.5149665 -0.85578251
-15.59668 6.5145197 -0.90490752
-25.398808 6.5092373 -1.4037211
-28.737558 5.903831 -1.5706512
-28.853485 5.2054825 -1.5696667
-28.666328 -6.0377216 -1.5683769
-28.527206 -6.7311368 -1.5692019
-28.021152 -8.7941713 -1.5723104
-20.08128 -22.177437 -1.6017271
-13.889502 -25.757929 -1.566712
-13.185059 -25.930397 -1.5573922
-11.790664 -26.250933 -1.5406468
-10.412969 -26.540285 -1.5263336
-9.7294235 -26.673708 -1.5200599
-8.3158007 -26.740587 -1.4992352
-7.0077538 -27.078112 -1.4974389
-6.3848338 -27.378441 -1.5050861
-5.0806932 -27.786299 -1.5122501
-4.4253612 -28.005314 -1.5179217
-3.7590818 -28.184528 -1.5222723
-0.85986328 -23.825552 -1.2763772
-0.27274415 -22.833168 -1.2225033
0.8002246 -22.025616 -1.1799612
1.3169335 -21.760727 -1.1671374
1.8297753 -21.583279 -1.1596465
3.4133203 -21.567007 -1.1690009
3.9554882 -21.602896 -1.1757797
5.0432029 -21.601791 -1.1875929
7.2970309 -21.594038 -1.2202972
7.8819919 -21.592733 -1.2306169
8.4772854 -21.591408 -1.2418395
9.0839062 -21.590055 -1.2540057
10.333593 -21.583643 -1.2811292
10.980195 -21.581263 -1.2963418
11.642715 -21.578825 -1.3126893
13.744629 -21.577724 -1.3696582
14.48707 -21.576202 -1.3913528
16.866211 -21.567219 -1.4657888
17.718906 -21.564524 -1.4942052
19.535625 -21.564384 -1.5577906
28.248945 6.5247846 -1.5521803
19.482519 6.5323505 -1.1001017
16.752676 6.531918 -0.96264899
14.62375 6.5311489 -0.85744369
12.745019 6.4466801 -0.76464921
12.15459 6.520988 -0.73845398
11.480351 6.5207424 -0.70684689
9.2678518 6.519937 -0.60665148
8.8080854 6.5197687 -0.58668584
8.3773432 6.5196109 -0.56831175
7.4934568 6.4354987 -0.52881384
7.2350779 6.5234466 -0.52154166
6.5679493 6.5232 -0.49558389
5.9626951 6.522974 -0.47313666
5.6799021 6.5228705 -0.46305105
4.6555662 6.5224848 -0.42901888
4.4218946 6.522398 -0.4218705
4.1958008 6.5223126 -0.41519386
3.9765821 6.5222297 -0.40896103
3.7637498 6.5221477 -0.40314278
3.5567381 6.5220695 -0.3977161
3.3551171 6.5219927 -0.39265892
2.5576172 6.4293742 -0.37043992
1.7183496 6.5128336 -0.36060581
1.3861231 6.5127029 -0.35647631
0.74026364 6.5124478 -0.35089919
0.58148438 6.5123835 -0.35003763
0.26582029 6.5122576 -0.34893301
0.10853516 6.5121942 -0.34868819
-0.36324218 6.5120034 -0.34917101
-0.67957032 6.5118756 -0.35051605
-0.83882809 6.5118093 -0.35149971
-0.9990918 6.5117435 -0.35269484
-1.1605371 6.5116777 -0.35410562
-1.3233594 6.5116119 -0.35573509
-1.6540625 6.5114737 -0.35967302
-1.8223535 6.511404 -0.36199257
-2.4922557 6.4369488 -0.36953902
-2.6685741 6.4272623 -0.37257323
-2.8522363 6.4271855 -0.37645045
-3.4783201 6.520318 -0.39563879
-4.3331833 6.5199542 -0.41911459
-5.8501172 6.5192986 -0.46894249
-6.1403222 6.5191717 -0.47945377
-6.7625194 6.5188994 -0.50286752
-7.0974021 6.518754 -0.51591969
-7.4503317 6.518599 -0.52998513
-8.1128321 6.4345207 -0.55436611
-9.5639448 6.5171108 -0.61959863
-11.881553 6.5160847 -0.72547895
-12.592412 6.5157681 -0.75905973
-14.234443 6.5151272 -0.83809537
-15.191826 6.5147014 -0.88494742
-17.471893 6.5136833 -0.99827957
-20.441767 6.516293 -1.1486444
-22.283554 6.5154691 -1.2429435
-28.688026 6.1767216 -1.5710659
-28.80994 5.4791679 -1.570039
-28.916767 4.7796965 -1.5691187
-28.583496 -6.4599237 -1.5688659
-28.43541 -7.1516895 -1.5697552
-27.902266 -9.2088938 -1.5730569
-18.949385 -22.633816 -1.5803562
-14.974688 -25.668358 -1.5909619
-3.8767383 -7.9094629 -0.4715538
-11.36997 -26.342186 -1.5360397
-10.681533 -26.485996 -1.5289514
-9.9966888 -26.622362 -1.5224459
-9.3151264 -26.751301 -1.5165253
-7.2842674 -27.088772 -1.5017645
-5.9893064 -27.50177 -1.5068713
-4.684238 -27.928934 -1.5161148
-4.020586 -28.114986 -1.5205032
-3.3499804 -28.279154 -1.5245628
-2.5497851 -27.109009 -1.457738
-1.2418652 -27.261299 -1.4609988
0.061679687 -22.548035 -1.2071584
1.6274999 -21.62278 -1.1608917
2.143203 -21.522062 -1.1579235
2.6666014 -21.502224 -1.1599803
4.8284764 -21.602009 -1.1850412
5.3787107 -21.601452 -1.1917863
5.9355273 -21.600885 -1.1993086
8.2428513 -21.59193 -1.2373374
9.4579096 -21.586864 -1.2617522
11.381309 -21.579784 -1.3061486
4.6637888 -7.8946829 -0.49089882
14.193516 -21.576803 -1.3826754
16.540976 -21.568247 -1.4551724
17.381094 -21.565594 -1.4828657
18.256933 -21.565838 -1.5127385
19.168203 -21.564802 -1.5446668
20.119179 -21.563723 -1.5789093
21.898516 6.5332184 -1.2234426
20.111719 6.5325761 -1.1320932
17.23246 6.5320902 -0.98662931
16.051661 6.5316653 -0.9277792
13.031172 6.4375162 -0.77813911
11.737363 6.5208368 -0.71884322
10.508124 6.52039 -0.66207504
9.9629297 6.5201907 -0.63745373
8.9844723 6.5198331 -0.59430385
8.5427732 6.519671 -0.57532865
8.0289841 6.4399505 -0.55103612
6.6933007 6.5232477 -0.50036997
6.3778319 6.523129 -0.48841125
6.0768943 6.5230169 -0.47728285
5.7891793 6.522912 -0.4669154
5.5135937 6.5228081 -0.45725048
5.2489648 6.5227079 -0.44823211
4.9944921 6.5226126 -0.43981436
4.749238 6.5225201 -0.43195242
4.5124803 6.5224323 -0.42461169
4.2834764 6.5223455 -0.41775352
4.0616212 6.5222611 -0.411351
3.8463671 6.5221796 -0.40537298
3.4334764 6.5220232 -0.39459532
3.2349412 6.5219474 -0.3897545
3.0410936 6.5218716 -0.38525188
2.8111815 6.4294705 -0.3756755
2.6282518 6.4294009 -0.3718566
2.27583 6.4377899 -0.36556
1.6164453 6.5127945 -0.35925019
1.4505762 6.5127301 -0.35721228
1.2864648 6.5126638 -0.35540214
0.96271485 6.512536 -0.3524473
0.64357418 6.5124087 -0.35034975
0.4852246 6.5123467 -0.34961376
0.32748047 6.5122833 -0.349085
0.012929687 6.512156 -0.34863818
-0.14424804 6.5120926 -0.34871981
-0.45922852 6.5119658 -0.34949282
-0.61743164 6.5119009 -0.35018757
-1.4232031 6.5115705 -0.35683569
-1.9258496 6.5113602 -0.36352271
-2.2727442 6.5112152 -0.36921284
-2.4225976 6.4369779 -0.36821118
-2.5976562 6.4272928 -0.37113464
-2.7798631 6.4272161 -0.37489593
-2.9659081 6.4271369 -0.37895668
-3.39958 6.5203533 -0.39367366
-3.8103416 6.5201764 -0.40430248
-4.2449512 6.5199909 -0.41651806
-4.4725194 6.5198932 -0.42328548
-4.9512892 6.5196881 -0.43828589
-5.7398925 6.5193462 -0.46502271
-6.0251465 6.5192218 -0.4752484
-6.3234081 6.5190911 -0.48622254
-6.9642186 6.5188127 -0.5106926
-7.3098631 6.5186615 -0.52435082
-7.6091599 6.4628558 -0.53448009
-7.9566112 6.434031 -0.54781151
-8.4700584 6.5175934 -0.57216984
-8.9064455 6.5174017 -0.59084988
-9.3725491 6.5171952 -0.6111601
-9.8721485 6.5169744 -0.6332978
-10.990186 6.51648 -0.68403172
-11.61998 6.5162005 -0.71323502
-13.886553 6.5152826 -0.82120168
-14.804453 6.5148735 -0.86593366
-15.828789 6.5144157 -0.91638225
-28.636221 6.4492803 -1.5714968
-28.763973 5.7526274 -1.5704287
-28.637411 -6.1882281 -1.5685469
-28.495136 -6.8811021 -1.5693945
-28.166132 -8.258357 -1.5714071
-27.979336 -8.9420748 -1.5725726
-20.916874 -7.8158231 -1.1954637
-19.938271 -22.252357 -1.5995857
-19.196308 -22.493483 -1.5831486
-18.756727 -23.083841 -1.5923795
-14.444921 -25.61698 -1.5744653
-12.334629 -26.129255 -1.5469047
-11.640595 -26.283796 -1.5389777
-10.950654 -26.430576 -1.5316571
-10.264443 -26.569834 -1.5249252
-8.8617477 -26.705473 -1.5063876
-8.1772165 -26.78833 -1.499498
-7.5362206 -27.005304 -1.5010204
-4.2812986 -28.044638 -1.518818
-2.1525977 -27.156374 -1.4584304
-0.72210938 -23.406347 -1.2536983
-0.15259765 -22.730738 -1.2169597
0.9126367 -21.954088 -1.1763715
1.4278613 -21.709927 -1.1647958
2.9896972 -21.516298 -1.1629838
3.5313475 -21.580841 -1.1707351
5.1624413 -21.601671 -1.1890522
6.8454881 -21.595043 -1.2128294
7.4230075 -21.593758 -1.2224638
8.0101557 -21.592449 -1.2329733
8.6078119 -21.591118 -1.244403
9.2161131 -21.587753 -1.2566589
10.4725 -21.58313 -1.2843329
13.178867 -21.578882 -1.3536825
13.903613 -21.5774 -1.3742367
15.421758 -21.571785 -1.4196626
16.220331 -21.56926 -1.4448375
20.718945 -21.56304 -1.6009887
27.588749 6.5245476 -1.517761
20.778652 6.5328164 -1.1661086
15.399531 6.5314298 -0.89553124
13.347558 6.4376321 -0.79336011
12.726562 6.5211954 -0.76558006
10.171504 6.520268 -0.64682865
9.650547 6.5200772 -0.62352532
7.7865624 6.435606 -0.54082131
7.4868941 6.4982624 -0.53074652
6.1930661 6.5230608 -0.48154587
5.9003711 6.5229511 -0.47088856
4.6042185 6.5224662 -0.42742741
4.3722653 6.5223794 -0.42038414
4.1476951 6.522294 -0.41380638
3.5126171 6.5220523 -0.39658871
3.3121092 6.5219755 -0.39160925
2.6994433 6.4294281 -0.37331599
2.5187304 6.4293585 -0.36967346
2.3445117 6.4378166 -0.36680201
2.1954198 6.5130191 -0.36796024
1.8506738 6.512886 -0.36248091
1.6819335 6.5128202 -0.36011252
1.0257031 6.5125613 -0.35295734
0.70577145 6.5124335 -0.35069439
0.3891992 6.5123076 -0.34926787
0.23168945 6.5122442 -0.3488628
-0.082666017 6.5121174 -0.34866327
-0.23992187 6.5120535 -0.3488684
-0.55541015 6.5119257 -0.34989047
-0.71403319 6.5118608 -0.35071087
-0.87348628 6.511796 -0.35174051
-1.1957128 6.511662 -0.35443908
-1.5236914 6.5115275 -0.35802025
-1.690371 6.5114594 -0.36015499
-2.0302539 6.5113163 -0.36514506
-2.2039745 6.5112457 -0.36801681
-2.3643067 6.4668365 -0.36862743
-2.5293164 6.4325042 -0.37004068
-3.9398534 6.5201211 -0.40784228
-4.157783 6.5200286 -0.41399306
-5.1038671 6.5196209 -0.44327113
-5.362422 6.5195098 -0.45193031
-5.6314645 6.5193925 -0.46121052
-5.911963 6.5192719 -0.47115776
-6.2049704 6.5191445 -0.48183146
-6.5117674 6.5190091 -0.49329352
-6.8337011 6.5188699 -0.50561589
-7.1723533 6.5187211 -0.51887971
-7.5294137 6.5185647 -0.53317612
-8.2005463 6.4344831 -0.55804455
-8.7321777 6.5174785 -0.58334875
-10.194394 6.5168328 -0.64775968
-11.367061 6.5163126 -0.7014581
-12.030322 6.5160184 -0.73246849
-14.433359 6.5150394 -0.84778976
-16.512686 6.5141106 -0.95033771
-20.816885 6.5161262 -1.1677927
-22.723457 6.5152726 -1.2655604
-28.582344 6.7215314 -1.5719558
-28.715752 6.0257049 -1.5708343
-28.921024 -5.9640555 -1.5809222
-28.401299 -7.3013315 -1.5699621
-28.235243 -7.9896116 -1.5709796
-27.858574 -9.3564081 -1.5733324
-12.394697 -7.8629293 -0.78583401
-19.489628 -22.404924 -1.5898101
-15.567089 -25.561384 -1.6022831
-13.307812 -25.90078 -1.5589807
-3.8468261 -7.9534259 -0.47299162
-11.911826 -26.224167 -1.5420135
-11.220361 -26.374018 -1.5344518
-10.532812 -26.516209 -1.5274895
-9.8487005 -26.650932 -1.5211133
-9.157383 -26.748169 -1.5136136
-7.7876563 -26.920994 -1.5003592
-7.1446676 -27.134552 -1.5022143
-6.4982419 -27.342638 -1.5046095
-5.1941795 -27.744963 -1.5111868
-4.5413084 -27.973419 -1.5172192
-3.8758886 -28.153603 -1.5214719
-3.2033203 -28.307343 -1.525158
-2.4082325 -27.124294 -1.4578624
-1.7549707 -27.203993 -1.4594467
-1.0996192 -27.27634 -1.4614782
0.70908201 -22.083609 -1.1828972
2.7813377 -21.505791 -1.1609439
4.4016991 -21.602442 -1.1802932
4.9471483 -21.601889 -1.1864387
5.4987693 -21.601328 -1.193349
6.0571876 -21.600761 -1.2010475
6.6217184 -21.595539 -1.2092881
7.1957226 -21.594263 -1.2185876
8.3723631 -21.591642 -1.239809
8.9769335 -21.590296 -1.2518014
9.5925579 -21.586369 -1.2646362
10.222109 -21.584053 -1.278582
11.525702 -21.579254 -1.3097351
4.4518552 -7.87187 -0.48416165
12.900723 -21.579453 -1.3460046
13.617109 -21.577986 -1.366017
17.567518 -21.565004 -1.4891201
25.883652 6.5239358 -1.4290713
23.212559 6.4501677 -1.2898158
19.75914 6.5324492 -1.1141523
18.031816 6.4480386 -1.0252364
16.963964 6.5319939 -0.97319615
15.814004 6.531579 -0.91600448
14.791152 6.5312099 -0.86563671
13.874434 6.5308781 -0.82097191
12.879667 6.4467301 -0.77109343
12.278809 6.5210333 -0.74431938
10.386387 6.5203457 -0.6565451
9.3514452 6.5199685 -0.61031801
8.8862305 6.5197964 -0.59005487
8.4507418 6.5196381 -0.57141721
7.9382224 6.4356623 -0.54710513
7.557734 6.4355216 -0.53143066
6.9515429 6.5233417 -0.51036477
6.0134568 6.5229936 -0.47497398
5.4553123 6.5227861 -0.45524177
5.1930075 6.5226874 -0.44635785
4.9405661 6.522593 -0.43806431
4.697207 6.5225005 -0.43031871
4.4622068 6.5224128 -0.42308637
4.2348046 6.5223269 -0.41632918
4.0144334 6.522244 -0.41001907
3.3899999 6.522006 -0.39351615
2.9996679 6.5218573 -0.38431925
2.5890918 6.4293852 -0.371066
2.410459 6.429317 -0.36759812
1.917412 6.5129118 -0.36347479
1.7477832 6.5128446 -0.3610121
1.4148535 6.5127139 -0.35680038
1.0888574 6.5125871 -0.35350063
0.92794919 6.5125237 -0.35217941
0.60921872 6.5123944 -0.35017273
0.45100585 6.512332 -0.34948203
0.13602538 6.5122051 -0.348717
-0.021142578 6.5121427 -0.34863845
-0.17829101 6.5120792 -0.34876433
-0.33568358 6.5120144 -0.34909293
-0.81091797 6.5118203 -0.35131213
-0.97099608 6.5117569 -0.35247087
-1.2947656 6.5116229 -0.35543418
-1.4589062 6.5115542 -0.35724774
-1.6248437 6.5114846 -0.35929045
-1.7927636 6.5114164 -0.3615694
-2.1356053 6.5112739 -0.36686161
-2.4610741 6.4369621 -0.36894268
-3.0504296 6.5205011 -0.38539654
-3.4430761 6.5203338 -0.39475417
-3.6468749 6.520246 -0.39996168
-4.0716209 6.5200653 -0.41153297
-4.5228124 6.5198722 -0.42481273
-5.5247755 6.5194387 -0.45749775
-5.8006539 6.5193181 -0.46717834
-7.0376072 6.5187798 -0.51356667
-7.6561522 6.4341631 -0.53540856
-8.5622463 6.5175529 -0.57608694
-9.9852924 6.5169244 -0.63835907
-10.53167 6.5166836 -0.66304207
-13.060771 6.4317718 -0.77941757
-14.077373 6.5151982 -0.83045858
-15.016807 6.5147781 -0.87634605
-17.249258 6.513782 -0.98712128
-20.1479 6.5164251 -1.1336688
-22.871288 3.6813896 -1.7641373
-22.945019 3.1273401 -1.7634854
-23.006386 2.5719981 -1.762921
-23.055536 2.0156157 -1.7624429
-23.116816 0.90070862 -1.7617488
-23.128975 0.3426477 -1.7615329
-23.054501 -1.8878878 -1.7615417
-22.685049 -4.6541309 -1.7635177
-22.451952 -5.747623 -1.7649161
-21.092646 -5.9454312 -1.668861
-20.415585 -6.290102 -1.6268264
-20.269325 -6.7846818 -1.6277485
-19.574804 -8.7303505 -1.6322207
-19.374023 -9.2074928 -1.6335332
-20.809639 -10.512595 -1.7754531
-20.568369 -11.021488 -1.7770456
-20.314325 -11.524687 -1.7786088
-18.843418 -13.933043 -1.7846527
-18.111319 -14.794783 -1.7809143
-17.762226 -15.238745 -1.7822374
-17.034296 -16.104198 -1.7851526
-16.655605 -16.525249 -1.786745
-16.267353 -16.938213 -1.788426
-15.462548 -17.739109 -1.7920535
-15.046406 -18.126738 -1.7939979
-14.621133 -18.505304 -1.7960206
-12.832958 -19.926359 -1.8049127
-12.365117 -20.257448 -1.8073459
-11.889248 -20.578491 -1.809862
-9.895752 -21.727215 -1.8181231
-7.6989255 -22.413958 -1.8047775
-7.1455564 -22.56056 -1.8021667
-6.5910645 -22.698601 -1.7999623
-4.9203906 -23.059998 -1.7956115
-3.2381444 -23.345856 -1.7948745
-1.4734863 -22.48654 -1.7160895
-0.39247069 -22.848824 -1.7402605
0.1562207 -22.464474 -1.7107736
0.68703121 -22.095495 -1.6834488
1.2054492 -21.810289 -1.6634518
2.7591209 -21.505322 -1.651116
3.2957029 -21.553457 -1.6604352
5.4754686 -21.601122 -1.697016
7.171289 -21.593763 -1.7327408
9.5665817 -21.58676 -1.7980908
11.417441 -21.428753 -1.8490396
4.4342966 -7.859426 -0.68720818
12.489863 -20.940063 -1.8567584
13.018027 -20.674896 -1.8605654
13.540488 -20.396044 -1.8643353
14.056699 -20.103527 -1.8680639
14.601152 -19.845795 -1.8763101
15.341581 -19.830519 -1.9093195
16.115547 -19.82353 -1.9455268
18.965508 -19.205629 -2.0554864
19.457245 -18.775175 -2.0590737
20.86832 -17.405565 -2.0693986
21.316015 -16.923822 -2.0726857
21.75164 -16.429958 -2.0758898
22.175058 -15.924294 -2.0790102
22.98328 -14.878642 -2.084985
23.367558 -14.339373 -2.0878353
25.373104 -10.895866 -2.1028588
25.654667 -10.290952 -2.1049962
21.444921 -8.0072517 -1.7432232
24.09869 -8.3413143 -1.9420124
24.313749 -7.7641077 -1.9436716
27.319881 -5.2101679 -2.1179876
27.451836 -4.5518341 -2.1190765
27.566172 -3.8899257 -2.1200411
27.742128 -2.5574586 -2.121599
27.847069 -1.2167779 -2.1226554
27.872753 -0.54465634 -2.1229939
27.880487 0.12802491 -2.1232052
27.870487 0.800708 -2.1232913
27.552265 4.1463776 -2.1218133
21.564199 6.5326581 -1.7158769
18.088476 6.4476848 -1.4623741
17.014395 6.5316534 -1.3878901
15.858749 6.53126 -1.3061005
12.893281 6.4371843 -1.0974224
10.409433 6.520113 -0.9353714
9.3713865 6.5197515 -0.86937696
7.5730467 6.4353323 -0.75680584
7.3114452 6.523283 -0.74618214
6.9654684 6.5231595 -0.72672582
6.6368551 6.5230427 -0.70866215
6.3240232 6.5229316 -0.69186765
6.0255075 6.5228252 -0.6762349
5.7400389 6.5227213 -0.66166961
5.4664063 6.5226226 -0.64808714
4.9508591 6.5224357 -0.62358266
4.471797 6.5222611 -0.60221565
4.0234571 6.5220976 -0.58357835
3.3983397 6.5218644 -0.56003582
2.778867 6.4293232 -0.5333851
2.5966015 6.4292536 -0.52802438
2.4178417 6.4291849 -0.52307481
1.9245214 6.5127811 -0.51716429
1.7548046 6.5127163 -0.51364714
1.0956153 6.5124588 -0.50290841
0.77477539 6.5123334 -0.49942595
0.61584961 6.51227 -0.49813652
0.45761716 6.5122061 -0.4971424
0.29994139 6.512145 -0.49644035
-0.014541015 6.5120173 -0.49590567
-0.17170899 6.5119548 -0.49607199
-0.32909179 6.5118899 -0.49652824
-0.48683593 6.5118256 -0.49727339
-1.2879003 6.5114946 -0.50547105
-1.4519824 6.5114264 -0.50803775
-1.7856543 6.5112872 -0.51415658
-2.1282518 6.5111418 -0.52165329
-2.9987695 6.4269829 -0.54008824
-3.6381249 6.5201044 -0.56858718
-4.2841015 6.5198221 -0.5940938
-4.9946485 6.5195084 -0.62542504
-5.2489548 6.5193949 -0.63738251
-5.7887206 6.5191545 -0.66391969
-6.0761423 6.5190253 -0.67864239
-6.6919627 6.5187478 -0.71143121
-7.0231152 6.518599 -0.72969925
-8.5440521 6.5173502 -0.81833661
-9.4570217 6.5169339 -0.87461472
-11.096123 6.516181 -0.97993153
-11.735186 6.5158854 -1.022182
-13.026943 6.4315019 -1.1063536
-14.97455 6.5144768 -1.2435899
-16.019375 6.5139923 -1.3169204
-17.19582 6.5134463 -1.4003009
-20.501171 6.1109185 -1.629106
-20.629608 5.6109343 -1.6280789
-20.746895 5.108593 -1.6271303
-20.852978 4.6040678 -1.6262605
-22.917597 3.3444695 -1.7637304
-23.079336 1.6767107 -1.7621952
-23.1087 1.1191516 -1.7618573
-23.125702 0.56120789 -1.7616067
-23.102686 -1.1127124 -1.7613803
-23.070488 -1.6699078 -1.761479
-23.025869 -2.2262805 -1.7616659
-22.818573 -3.8882043 -1.7627492
-22.72501 -4.4389896 -1.7632844
-22.501396 -5.5342822 -1.7646152
-20.327938 -6.5913587 -1.6273777
-20.17503 -7.0841064 -1.6283474
-20.900995 -10.311995 -1.7748519
-20.664248 -10.822803 -1.776412
-19.594667 -12.809345 -1.7827437
-18.983379 -13.760996 -1.7855167
-17.179932 -15.937186 -1.7845535
-16.805058 -16.361315 -1.786111
-16.420498 -16.777451 -1.7877575
-14.788789 -18.358181 -1.7952235
-14.357998 -18.731106 -1.7972854
-13.470342 -19.449219 -1.8016659
-13.013965 -19.794003 -1.8039825
-12.549277 -20.128967 -1.8063831
-12.076543 -20.454006 -1.8088669
-11.107676 -21.073305 -1.8140805
-3.9250488 -7.9031305 -0.67198396
-10.106201 -21.644691 -1.8191308
-9.5650778 -21.845839 -1.8161014
-8.467392 -22.196085 -1.8091116
-5.6963477 -22.90089 -1.7971082
-4.5800781 -23.124304 -1.7951903
-4.0199509 -23.223024 -1.7948012
-2.2525001 -22.674931 -1.7352619
-0.60632813 -22.768511 -1.7345041
-0.056494139 -22.645813 -1.7245498
1.003086 -21.90295 -1.6697159
3.6261718 -21.588591 -1.6670634
5.2588086 -21.601343 -1.6930515
5.8141403 -21.600779 -1.7035166
6.9456053 -21.594267 -1.7274352
8.1136131 -21.59166 -1.7565289
8.7132225 -21.590317 -1.7730107
9.323926 -21.58765 -1.7907486
10.585136 -21.583017 -1.8306379
11.745801 -21.285971 -1.8514014
12.811894 -20.780376 -1.8590792
13.855292 -20.219709 -1.8666085
14.367538 -19.918932 -1.8703113
15.046249 -19.833132 -1.8957969
15.809023 -19.826321 -1.931054
16.600996 -19.819042 -1.968793
17.424864 -19.811255 -2.0092144
18.770155 -19.370562 -2.0540631
19.751347 -18.506802 -2.0612218
20.226131 -18.05521 -2.0646937
20.689823 -17.590841 -2.0680902
21.142147 -17.113964 -2.0714083
21.582539 -16.624781 -2.0746458
22.010799 -16.123688 -2.0777991
23.218691 -14.551814 -2.0867302
13.077285 -7.7628832 -1.15812
24.304159 -12.884113 -2.094816
24.955469 -11.723938 -2.0997045
24.231289 -7.9908628 -1.9430343
24.627617 -6.8234406 -1.9461164
24.802578 -6.2316666 -1.9474947
25.966387 -5.8618226 -2.0271747
27.263554 -5.4668908 -2.117528
27.713223 -2.8191216 -2.1213334
27.832148 -1.4797289 -2.1224883
27.864746 -0.80793881 -2.1228759
27.876543 0.53732419 -2.1232727
27.816719 1.8813934 -2.1231613
27.75996 2.5516796 -2.1229148
27.685488 3.2201672 -2.1225421
27.48332 4.5495563 -2.121418
25.190643 4.7971659 -1.952814
24.90785 6.0014911 -1.9510888
22.323046 6.5329156 -1.771268
20.474766 6.5322866 -1.6366448
18.886738 6.531745 -1.5218637
17.507519 6.5318232 -1.4230156
15.219746 6.5310392 -1.261232
14.259375 6.5307107 -1.1943624
13.204199 6.4372916 -1.1186643
12.594766 6.5208697 -1.0800555
11.883008 6.5206242 -1.0322143
11.23123 6.5203986 -0.98897964
10.631562 6.5201898 -0.94975287
10.077305 6.5199981 -0.91403073
9.5629883 6.5198188 -0.88139486
8.1154099 6.4397807 -0.78894466
7.7197266 6.4353838 -0.76535994
7.0987692 6.5232072 -0.73417157
6.7635937 6.5230875 -0.71557844
6.4447656 6.522974 -0.6983
5.572207 6.5226617 -0.65329248
5.3053317 6.5225654 -0.64027256
5.0487304 6.522471 -0.62811911
4.8015428 6.5223823 -0.61677194
4.3323827 6.5222111 -0.59627438
3.8924022 6.522049 -0.57839817
3.6819334 6.5219693 -0.57034487
3.4771092 6.5218949 -0.56283516
3.2774999 6.5218191 -0.55584121
3.0826659 6.5217471 -0.54933339
2.851289 6.4293485 -0.53559852
2.6675391 6.4292789 -0.53007483
2.4874413 6.4292121 -0.52496487
1.4863379 6.5126128 -0.50870317
1.3218652 6.512548 -0.50605857
1.1590039 6.5124836 -0.50373346
0.67798829 6.5122943 -0.49860677
0.51950192 6.5122318 -0.49749675
0.36163086 6.5121684 -0.49668014
0.046992186 6.5120425 -0.49591994
-0.58307618 6.5117874 -0.49787146
-1.0621387 6.5115886 -0.5024249
-1.2241015 6.5115228 -0.50455278
-1.5526464 6.511385 -0.50975871
-1.8888378 6.5112443 -0.51628798
-2.3841796 6.436861 -0.52272505
-2.7399902 6.4270954 -0.53205884
-3.1596875 6.5203118 -0.55176526
-3.5577734 6.5201397 -0.56563246
-3.9773924 6.5199566 -0.58160383
-4.1964645 6.5198603 -0.59045804
-4.8976169 6.5195498 -0.62096244
-5.6795115 6.5192032 -0.65842909
-5.9620895 6.5190778 -0.67275351
-6.5667286 6.5188041 -0.70463306
-6.8914356 6.5186591 -0.7223841
-7.5936522 6.5183401 -0.76210463
-7.8718357 6.4338703 -0.77421898
-8.3787689 6.517426 -0.8083685
-8.8091211 6.5172305 -0.83447111
-9.2684669 6.5170193 -0.86283451
-9.7604494 6.5167937 -0.89373052
-10.289297 6.516552 -0.92748398
-10.85999 6.5162897 -0.96447074
-13.699286 6.515069 -1.155206
-15.595888 6.5141888 -1.2871091
-17.987665 6.5130777 -1.4568421
-20.447811 6.3059845 -1.6295297
-20.580624 5.8070073 -1.628472
-20.702305 5.3055863 -1.6274923
-20.812754 4.8018718 -1.6265918
-22.01832 4.523427 -1.711778
-22.805029 4.1142755 -1.7647076
-23.018095 2.4514441 -1.7628099
-23.098671 1.3375671 -1.7619792
-23.127138 -0.33648804 -1.7613876
-23.08452 -1.4517956 -1.7614303
-23.044813 -2.0085156 -1.7615823
-22.992764 -2.5642867 -1.7618222
-22.851913 -3.6720436 -1.762563
-22.763065 -4.2235289 -1.7630645
-22.662138 -4.7731137 -1.7636523
-22.548954 -5.3205457 -1.7643276
-20.693916 -5.9500732 -1.6397521
-20.236219 -6.8915176 -1.6279583
-20.076582 -7.3823833 -1.6289761
-19.724482 -8.3539248 -1.6312469
-19.329111 -9.3104115 -1.6338279
-20.758358 -10.623359 -1.7757909
-20.51458 -11.131206 -1.7774014
-20.257431 -11.632919 -1.7789319
-12.670957 -7.6887088 -1.1286823
-18.036484 -14.891685 -1.7811935
-17.685284 -15.334048 -1.7825357
-17.324072 -15.768921 -1.7839682
-16.953016 -16.196211 -1.7854904
-15.782158 -17.429548 -1.7905911
-14.95498 -18.20957 -1.7944311
-14.091611 -18.953539 -1.7985818
-13.646885 -19.311588 -1.8007812
-13.193769 -19.66017 -1.8030646
-12.732206 -19.998997 -1.805433
-11.785029 -20.646753 -1.8104186
-11.299785 -20.955332 -1.8130341
-10.806904 -21.253473 -1.815731
-9.230752 -21.953903 -1.8136249
-8.6818848 -22.128242 -1.8101885
-8.1316013 -22.29323 -1.8071072
-7.579082 -22.446543 -1.8041792
-5.9143748 -22.853384 -1.7976875
-5.3573337 -22.972486 -1.796365
-4.7990527 -23.083269 -1.7954468
-4.2394629 -23.185394 -1.7949084
-1.8896289 -22.353708 -1.7083727
-0.81877929 -22.687635 -1.7288543
-0.27268553 -22.830124 -1.7387043
0.27254882 -22.365309 -1.7033105
0.80015624 -22.023527 -1.6782629
1.3168457 -21.759279 -1.6600653
2.874043 -21.508894 -1.6525244
3.9554491 -21.602669 -1.6724557
5.0431442 -21.601562 -1.6892582
5.5958591 -21.601 -1.699266
6.1555271 -21.600431 -1.7104156
6.7212887 -21.59477 -1.7223196
7.8817968 -21.592175 -1.7504333
8.4770699 -21.590845 -1.766398
10.333769 -21.583941 -1.8223568
4.4337888 -7.7633414 -0.6808241
13.65291 -20.333771 -1.865147
14.757812 -19.839922 -1.8830321
17.098261 -19.814367 -1.9930528
18.57328 -19.533434 -2.0526288
19.072968 -19.113451 -2.0562701
19.5625 -18.680105 -2.0598423
20.966406 -17.302187 -2.0701184
21.411543 -16.817806 -2.0733881
21.84457 -16.321365 -2.0765741
22.673027 -15.293429 -2.0826883
23.067753 -14.762692 -2.0856109
24.169746 -13.106909 -2.093811
24.508554 -12.535105 -2.0963464
25.713573 -10.158784 -2.1054447
21.441484 -7.8783922 -1.7395669
24.146582 -8.2166958 -1.9423809
24.554823 -7.0537982 -1.9455465
24.735975 -6.4640098 -1.9469687
27.204531 -5.7229939 -2.1170502
27.588652 -3.7460327 -2.120234
27.681581 -3.0804605 -2.121048
27.756914 -2.4124489 -2.1217377
27.814413 -1.7425445 -2.1223013
27.865917 0.94647151 -2.1232924
27.834023 1.6184924 -2.1232228
27.784355 2.289392 -2.1230266
27.631483 3.6257172 -2.1222537
24.809238 6.3644791 -1.950474
21.16412 6.5325212 -1.6867383
17.967852 6.5108256 -1.4553647
16.751778 6.5315642 -1.3692337
15.625878 6.5311809 -1.2897177
14.623047 6.5308366 -1.2196029
13.723203 6.5305252 -1.1573603
12.154101 6.5207181 -1.050362
11.479882 6.5204849 -1.0054044
8.3770895 6.5194035 -0.8083632
6.8927927 6.5231352 -0.72269565
6.5677538 6.5230193 -0.70491707
6.2581639 6.5229068 -0.68838215
5.6797657 6.5227008 -0.65864408
5.148047 6.5225067 -0.6327787
4.8972654 6.5224161 -0.62112355
4.6554489 6.5223284 -0.61023754
4.4217968 6.522243 -0.60007
3.9764843 6.5220804 -0.58170807
3.7636523 6.5220013 -0.57343191
3.5566602 6.5219245 -0.56571364
3.3550584 6.5218487 -0.55852026
2.739043 6.429307 -0.53218675
1.8875293 6.5127678 -0.51637167
1.386084 6.5125723 -0.50705564
1.2225976 6.5125089 -0.50460672
0.42339844 6.5121927 -0.49696502
0.26582029 6.5121307 -0.49632645
-0.52109373 6.5118122 -0.4974744
-0.67957032 6.5117459 -0.49857718
-0.83881831 6.5116801 -0.49997765
-1.1605078 6.5115485 -0.50368249
-1.32333 6.5114813 -0.50600094
-1.6540234 6.511342 -0.51160091
-1.8223242 6.5112724 -0.51490098
-2.4922071 6.4368134 -0.5256362
-2.6685157 6.4271259 -0.52995086
-2.8521678 6.4270487 -0.53546751
-3.0839746 6.5203447 -0.54927778
-3.2787304 6.5202603 -0.55577576
-4.333086 6.5197992 -0.59614998
-4.5635743 6.5196977 -0.6060347
-5.0489645 6.5194831 -0.62794948
-6.7623339 6.5187163 -0.71527797
-7.0971875 6.5185647 -0.73384184
-7.7218456 6.4339371 -0.76541108
-8.1125784 6.4343181 -0.78851604
-8.6373243 6.5173078 -0.82399321
-9.0849218 6.5171027 -0.8514418
-9.5636225 6.5168839 -0.88130897
-10.631182 6.5163956 -0.94957364
-11.230195 6.5161185 -0.98874462
-11.881074 6.5158195 -1.0319041
-13.200341 6.4314213 -1.1182097
-16.262411 6.5138798 -1.3340787
-17.470917 6.5133171 -1.4199109
-18.604189 6.4290018 -1.4989823
-20.392782 6.5006351 -1.6299653
-20.529951 6.0027056 -1.6288768
-21.082138 4.5391312 -1.642259
-22.769072 4.3302913 -1.7650131
-22.932997 3.2242804 -1.7635931
-23.119404 -0.6759485 -1.7613635
-23.096806 -1.2336004 -1.761394
-23.01458 -2.3467729 -1.7617178
-22.955097 -2.9018779 -1.7620105
-22.883358 -3.4555926 -1.7623904
-22.799316 -4.0077739 -1.7628578
-22.474257 -5.6524191 -1.7647803
-21.424551 -5.9415622 -1.6931216
-20.14039 -7.1905255 -1.6285684
-19.796885 -8.1648121 -1.6307776
-19.409893 -9.1243811 -1.6332983
-20.850643 -10.423162 -1.7751831
-20.094952 -11.935269 -1.7798579
-19.531425 -12.914311 -1.7831117
-19.232998 -13.394924 -1.7848572
-18.171309 -14.71645 -1.7806922
-17.46666 -15.599576 -1.7833967
-16.722509 -16.452248 -1.7864603
-16.335888 -16.866615 -1.788126
-13.82207 -19.17248 -1.7999096
-12.913925 -19.867462 -1.8044958
-11.973007 -20.523132 -1.8094162
-3.8767285 -7.9094381 -0.67076278
-9.9897261 -21.690577 -1.8185666
-8.8960934 -22.058725 -1.8112984
-7.2423925 -22.535587 -1.8025975
-6.6880665 -22.675051 -1.8003173
-6.1325192 -22.805561 -1.7984042
-5.0179491 -23.040924 -1.7957597
-4.4587402 -23.146437 -1.7950741
-3.89833 -23.243286 -1.7947671
-2.7748241 -23.424065 -1.7962856
-1.5667578 -22.457253 -1.7143416
-0.4880957 -22.813044 -1.7376782
1.627461 -21.622223 -1.6512539
3.7439647 -21.597736 -1.6692595
4.2840624 -21.602333 -1.6771189
4.8284373 -21.60178 -1.68563
5.3786521 -21.601223 -1.6952233
6.4982615 -21.595266 -1.7173829
7.6515427 -21.59269 -1.7445321
8.2426558 -21.59137 -1.7599882
11.322773 -21.468777 -1.8483593
4.4355078 -7.9396439 -0.69257909
4.65207 -7.8747864 -0.69651341
12.926152 -20.72226 -1.8599031
15.209257 -19.831692 -1.9032394
16.776815 -19.817396 -1.9773211
17.608027 -19.809494 -2.018353
18.374922 -19.694181 -2.0511849
19.855175 -18.409998 -2.061981
20.327675 -17.955654 -2.0654371
21.676445 -16.517187 -2.0753362
22.102011 -16.013533 -2.0784714
22.914804 -14.971786 -2.0844774
23.301367 -14.43444 -2.0873437
24.707479 -12.182613 -2.0978391
25.322266 -11.000746 -2.1024737
23.827051 -9.0113554 -1.9399297
24.838535 -6.1026969 -1.9477798
26.578007 -5.8539667 -2.0725038
27.295116 -5.3248425 -2.117785
27.430019 -4.6671596 -2.1188948
27.729549 -2.6742897 -2.1214828
27.873514 0.68312806 -2.1232851
27.848652 1.3554498 -2.123265
27.805956 2.0268517 -2.1231189
27.745371 2.6967583 -2.1228452
26.925976 4.6021748 -2.0802288
25.026152 5.5317874 -1.9518183
24.873339 6.1310382 -1.9508743
20.11043 6.5321636 -1.6102316
15.002481 6.5309658 -1.2460444
14.064433 6.5306439 -1.1808823
13.030605 6.437233 -1.1067886
8.0287304 6.4397488 -0.78378594
7.6381249 6.4353557 -0.76058769
7.3738475 6.5233049 -0.74973494
7.0246286 6.5231805 -0.73002309
5.7890234 6.5227399 -0.66414058
5.5134373 6.5226398 -0.65039366
5.2488475 6.522543 -0.63756686
4.9943748 6.5224514 -0.62559223
4.7491407 6.5223627 -0.61441219
4.2833786 6.522193 -0.59421569
3.8462889 6.5220318 -0.57660365
3.4333982 6.5218778 -0.5612756
3.0410156 6.5217314 -0.54798448
2.2757909 6.4376554 -0.5199737
2.1270311 6.5128593 -0.52174968
1.9544336 6.5127935 -0.51781625
1.2864355 6.5125346 -0.50552756
1.1238965 6.5124712 -0.50327009
0.96267575 6.5124063 -0.50132453
0.64355469 6.5122819 -0.49834049
0.17010742 6.5120916 -0.49607959
-0.45921874 6.5118375 -0.49712279
-0.61743164 6.5117731 -0.49811053
-0.93619138 6.5116401 -0.5009746
-1.0971386 6.5115752 -0.50286007
-1.4231836 6.5114398 -0.50756663
-2.2726953 6.5110807 -0.52517128
-2.4225488 6.4368439 -0.52374673
-3.3995116 6.5202079 -0.55996358
-3.8102539 6.5200286 -0.57508248
-4.0243163 6.5199356 -0.58347124
-4.9511619 6.5195279 -0.62341917
-5.4663377 6.5192986 -0.64788723
-6.3232322 6.5189142 -0.69160378
-6.9640231 6.5186257 -0.7264089
-7.9563766 6.4338312 -0.77920568
-8.4697847 6.5173845 -0.81384742
-8.9061518 6.5171843 -0.84042013
-9.3722162 6.5169721 -0.8693074
-9.8718061 6.5167437 -0.90079445
-11.619512 6.5159402 -1.0144926
-12.890068 6.4316545 -1.0970234
-13.885888 6.5149822 -1.1680522
-18.103056 6.4479423 -1.4634341
-20.477587 6.1980033 -1.6292934
-20.727186 5.196557 -1.6272905
-20.835262 4.6923919 -1.6264066
-22.824121 3.9945514 -1.7645445
-22.973145 2.8866601 -1.76323
-23.029228 2.3308704 -1.7627029
-23.104462 1.2166308 -1.76191
-23.124922 -0.45746642 -1.7613752
-23.107109 -1.0152367 -1.7613717
-23.076992 -1.5725446 -1.7614557
-22.979853 -2.6846576 -1.7618855
-22.204325 -5.9324541 -1.7502379
-20.493477 -6.0087266 -1.6263397
-20.353544 -6.5049014 -1.6272165
-20.202509 -6.9982114 -1.6281728
-19.867567 -7.9751139 -1.6303204
-19.68375 -8.4583378 -1.6315114
-20.941181 -10.222255 -1.774588
-20.706434 -10.733832 -1.7761335
-20.20002 -11.740911 -1.7792584
-19.043369 -13.682399 -1.7857108
-18.304522 -14.540131 -1.7802054
-17.961201 -14.988227 -1.7814767
-17.607801 -15.428948 -1.7828387
-17.244432 -15.862224 -1.7842908
-16.488379 -16.705322 -1.7874633
-16.096083 -17.114758 -1.7891821
-15.283222 -17.908264 -1.792886
-14.863144 -18.291994 -1.7948685
-14.433916 -18.666567 -1.7969189
-13.549326 -19.388 -1.8012692
-13.094375 -19.734428 -1.8035712
-12.631104 -20.071175 -1.8059573
-12.159746 -20.397926 -1.8084267
-11.193574 -21.020866 -1.8136119
-10.197236 -21.601759 -1.8191204
-9.1113958 -21.99136 -1.8127569
-7.4591599 -22.478676 -1.803601
-6.3503222 -22.7558 -1.7991347
-5.7936716 -22.879677 -1.7973497
-4.6778417 -23.106174 -1.7952968
-4.117959 -23.206381 -1.7948425
-2.993994 -23.380844 -1.7950587
-2.3808496 -22.980951 -1.7594317
-0.70131832 -22.732479 -1.7319704
0.38818359 -22.285624 -1.6973736
1.4277734 -21.708483 -1.6567359
2.9897852 -21.51684 -1.6543143
5.1624022 -21.60144 -1.6913351
6.8453512 -21.594492 -1.7251309
8.0099411 -21.591888 -1.7537814
9.2162695 -21.588047 -1.7875385
9.8376169 -21.585764 -1.8064828
11.110195 -21.556993 -1.846831
11.651601 -21.327484 -1.8507239
4.5083008 -7.7987828 -0.68599164
12.719589 -20.826773 -1.8584139
13.765078 -20.270884 -1.865957
14.915703 -19.834274 -1.8898718
17.278477 -19.812656 -2.0019476
18.13084 -19.804419 -2.0447321
18.682499 -19.443508 -2.0534244
20.143887 -18.135078 -2.0640919
20.609629 -17.67292 -2.067502
21.063965 -17.198215 -2.0708346
21.936815 -16.212151 -2.0772536
22.354706 -15.701392 -2.0803359
23.151543 -14.646121 -2.0862322
24.901014 -11.826777 -2.0992944
25.206699 -11.2349 -2.1015997
25.49707 -10.634552 -2.1037984
23.731913 -9.2326288 -1.9392041
21.438046 -7.7500596 -1.7359778
24.193808 -8.0918169 -1.9427452
24.402246 -7.511941 -1.9443582
24.595409 -6.9263439 -1.9458642
25.492245 -5.8679056 -1.9920721
27.237539 -5.5812593 -2.1173172
27.379257 -4.9251428 -2.118475
27.503574 -4.265254 -2.1195099
27.699472 -2.9358068 -2.1212087
27.770918 -2.26738 -2.1218708
27.824551 -1.5970666 -2.1224072
27.860371 -0.9254303 -2.1228173
27.878359 -0.25303221 -2.1231015
27.878359 0.41971985 -2.1232584
27.824785 1.7640882 -2.1231911
27.699764 3.1034563 -2.1226165
27.610664 3.7700567 -2.1221395
25.211952 4.6911664 -1.95294
25.081757 5.2960062 -1.9521577
24.772696 6.4933929 -1.9502449
19.148125 6.5318341 -1.5406895
16.495956 6.5314775 -1.3511028
14.419863 6.530766 -1.2054875
13.346952 6.4373417 -1.1284475
12.726015 6.5209146 -1.0889421
12.002851 6.5206656 -1.0402267
11.34121 6.5204372 -0.9962337
10.73291 6.520225 -0.95634407
10.171152 6.5200295 -0.92004102
9.6502142 6.5198493 -0.88689446
9.1652145 6.5196795 -0.85653228
7.1591406 6.5232282 -0.73756605
6.1929102 6.5228839 -0.68495166
5.6199999 6.5226789 -0.65566432
5.3512106 6.5225821 -0.64248359
5.0928907 6.5224872 -0.63018471
4.844121 6.522398 -0.61870003
4.6041017 6.5223103 -0.6079734
4.3721485 6.5222259 -0.597956
3.7182813 6.5219841 -0.5717119
3.5125389 6.5219073 -0.56411004
2.9252245 6.5216875 -0.54431391
2.6993847 6.4292927 -0.53101134
2.5186815 6.429224 -0.52582794
2.3444629 6.4376822 -0.52174324
2.1953712 6.5128851 -0.52339089
2.021709 6.5128193 -0.51931328
1.681914 6.5126872 -0.51222837
1.5152832 6.5126238 -0.50919837
0.54713863 6.5122428 -0.49766976
0.38918945 6.5121784 -0.49680248
0.23168945 6.5121174 -0.49622625
-0.082666017 6.5119891 -0.49594268
-0.39742187 6.5118618 -0.49681547
-0.55540037 6.5117974 -0.49768844
-1.0339649 6.511601 -0.50208586
-1.1956934 6.5115337 -0.50415796
-2.0302148 6.5111833 -0.51938587
-2.3654101 6.4698615 -0.52458882
-2.7080176 6.4271088 -0.53110963
-3.1257908 6.5203266 -0.55064642
-3.3215625 6.5202422 -0.55724716
-3.7280858 6.5200653 -0.57195389
-3.9397557 6.5199723 -0.58011746
-4.1576853 6.519877 -0.58886606
-4.6145506 6.5196757 -0.60826737
-5.1037402 6.5194597 -0.63050997
-5.3622851 6.5193439 -0.64282775
-6.5115914 6.5188298 -0.70166016
-6.8334961 6.5186834 -0.71918637
-7.1721387 6.5185318 -0.73805296
-7.5291796 6.5183697 -0.75838798
-8.2002926 6.434278 -0.79376137
-8.731885 6.5172634 -0.8297506
-9.1859274 6.5170574 -0.85770237
-10.756953 6.5163383 -0.95775372
-12.754756 6.5154157 -1.0906976
-13.377431 6.4313407 -1.1303533
-17.7537 6.5131865 -1.4401044
-21.59078 4.530601 -1.6800097
-22.789219 4.2107391 -1.7648425
-22.874668 3.6581316 -1.7641079
-23.129198 0.31919372 -1.7615256
-23.128515 -0.23894592 -1.7614006
-23.115536 -0.79686153 -1.7613627
-23.090214 -1.3543975 -1.7614125
-23.052647 -1.9112731 -1.7615494
-22.779482 -4.1272721 -1.7629707
-22.680702 -4.677186 -1.763543
-22.569637 -5.2250104 -1.7642032
-22.446484 -5.7704902 -1.7649496
-20.105282 -7.2968197 -1.6287926
-19.936611 -7.784924 -1.6298752
-19.756992 -8.2695723 -1.631036
-20.799746 -10.534064 -1.7755182
-19.467655 -13.019052 -1.7834835
-18.827734 -13.950989 -1.7845041
-18.096827 -14.813586 -1.7809683
-17.018564 -16.122097 -1.7852179
-15.852695 -17.359709 -1.7902722
-14.168447 -18.889992 -1.7982061
-13.273525 -19.599909 -1.8026597
-12.813447 -19.940447 -1.8050134
-11.869014 -20.591764 -1.80997
-9.8731642 -21.735981 -1.8180178
-8.7776461 -22.097372 -1.8106772
-8.2281151 -22.265638 -1.8076689
-7.1222558 -22.566505 -1.8020658
-6.5678124 -22.704199 -1.7998793
-5.4548144 -22.952246 -1.796564
-3.775449 -23.263081 -1.7947555
-3.2144921 -23.349333 -1.7948886
-2.6537011 -23.450357 -1.7972094
-1.9820995 -22.324656 -1.7067752
-0.9132812 -22.654257 -1.7265909
-0.36943358 -22.857401 -1.7408847
0.17884766 -22.445187 -1.7093215
0.70903319 -22.081507 -1.682438
1.2270215 -21.800409 -1.6627911
2.2546289 -21.499739 -1.6462475
3.3184764 -21.556183 -1.6609057
3.8613865 -21.602764 -1.6711894
6.0571094 -21.600533 -1.7084005
6.6215625 -21.594992 -1.7200966
7.7788477 -21.592403 -1.7477777
8.3721676 -21.591078 -1.7635086
10.222246 -21.584351 -1.81873
10.866191 -21.581984 -1.840093
11.440175 -21.419052 -1.8492031
13.562265 -20.384043 -1.8644924
14.078183 -20.090946 -1.8682193
14.632421 -19.844666 -1.8776104
15.373554 -19.830235 -1.9107916
16.954042 -19.815729 -1.9859729
18.484882 -19.605461 -2.0519855
19.958515 -18.312551 -2.0627363
20.428593 -17.8554 -2.0661757
20.887342 -17.385633 -2.0695386
21.769726 -16.409012 -2.0760231
22.192558 -15.9028 -2.079139
22.999706 -14.856215 -2.0851068
23.753164 -13.766298 -2.0907035
24.777069 -12.056218 -2.098362
25.088789 -11.467713 -2.1007094
25.666132 -10.265359 -2.1050835
24.108086 -8.3172779 -1.9420844
24.705429 -6.5674763 -1.9467278
24.873671 -5.9735513 -1.9480591
27.177324 -5.8370371 -2.1168306
27.570547 -3.862098 -2.1200788
27.666698 -3.1970174 -2.1209154
27.848476 -1.1885571 -2.1226718
27.873398 -0.51648194 -2.1230049
27.880487 0.15622497 -2.1232119
27.869667 0.82891113 -2.123292
27.794315 2.1722052 -2.12307
27.647675 3.5093341 -2.1223412
25.134726 5.0595427 -1.9524784
24.994432 5.6620512 -1.9516238
24.838203 6.2603617 -1.9506552
21.485546 6.5326309 -1.7101425
19.75791 6.5320425 -1.5847163
14.790449 6.5308928 -1.2312546
13.873789 6.5305767 -1.1677265
12.278281 6.520761 -1.0587071
10.386015 6.5201054 -0.93386388
9.3511324 6.5197439 -0.86810958
8.4504881 6.5194292 -0.81277984
7.9379883 6.435462 -0.7782011
7.5575194 6.4353266 -0.75590885
