# .PCD v0.7 - Point Cloud Data file format
VERSION 0.7
FIELDS x y z
SIZE 4 4 4
TYPE F F F
COUNT 1 1 1
WIDTH 1488
HEIGHT 1
VIEWPOINT 0 0 0 1 0 0 0
POINTS 1488
DATA ascii
2.039453 -21.555817 -1.6488708
2.5709569 -21.602753 -1.6567221
3.1009765 -21.602211 -1.6619351
3.6346092 -21.601665 -1.6681542
4.1725974 -21.601112 -1.6753988
4.7155662 -21.600555 -1.6836867
5.8179879 -21.593897 -1.7030779
6.3800387 -21.592636 -1.7146212
7.5290232 -21.590057 -1.7412515
8.1171093 -21.587294 -1.7563113
3.1607029 -7.8273187 -0.64283639
10.587402 -21.57819 -1.8303746
11.210683 -21.519775 -1.847832
11.751152 -21.287905 -1.8517283
12.817089 -20.782473 -1.859424
13.341738 -20.509054 -1.8632175
13.86041 -20.221972 -1.8669715
15.810214 -19.82408 -1.9309781
16.601973 -19.816795 -1.9687082
18.269785 -19.785334 -2.0508254
18.775351 -19.373747 -2.0545154
19.271053 -18.948648 -2.0581384
19.756561 -18.510227 -2.0616918
20.231348 -18.058802 -2.0651722
20.695137 -17.594555 -2.0685773
21.147364 -17.117783 -2.071903
22.016132 -16.127821 -2.0783098
22.431776 -15.615188 -2.0813837
23.224121 -14.556293 -2.0872626
24.309765 -12.88895 -2.0953684
24.642988 -12.313596 -2.0978711
25.552225 -10.534106 -2.1047485
24.237167 -7.9960904 -1.9435848
24.443106 -7.4153018 -1.9451836
25.938437 -5.8598466 -2.0250638
27.409315 -4.8163109 -2.1192794
27.530741 -4.1558347 -2.1202958
27.720839 -2.8255932 -2.1219563
27.789297 -2.1568429 -2.1225984
27.768906 2.5448041 -2.1235454
27.694609 3.2132494 -2.1231725
27.602518 3.879348 -2.1226726
27.49287 4.5426183 -2.1220469
25.199667 4.7907653 -1.9533969
20.502266 6.5330186 -1.6386549
17.304335 6.4486561 -1.4063119
15.237793 6.5317149 -1.262516
13.410527 6.5310669 -1.1359212
12.626875 6.5307884 -1.082574
11.243652 6.5210276 -0.98981875
9.5733786 6.5204296 -0.88207656
9.0937109 6.5202575 -0.85212582
8.6453123 6.5200939 -0.8246069
8.2247066 6.5199423 -0.79926062
7.8289647 6.5197997 -0.77586365
6.3650975 6.4354773 -0.68929946
5.8573828 6.5233312 -0.66764021
5.5790429 6.5232286 -0.6536628
5.0552149 6.5230346 -0.62845635
4.8078904 6.5229406 -0.61709183
4.3384571 6.5227647 -0.59656453
4.1150193 6.5226793 -0.58730656
3.6876953 6.5225167 -0.57059604
3.4827733 6.522439 -0.56307417
3.2831054 6.5223608 -0.55606872
2.8977149 6.522213 -0.54349554
1.9995117 6.5218625 -0.51947212
1.8286231 6.5217953 -0.51580286
1.1492285 6.4292126 -0.49736029
0.84247071 6.5128746 -0.5001024
0.68321288 6.5128098 -0.49868655
0.36692381 6.5126791 -0.4967421
-0.10474609 6.512485 -0.496005
-0.26196289 6.5124192 -0.49633598
-0.41947263 6.5123534 -0.49695808
-0.57748044 6.5122876 -0.49787077
-0.89571285 6.5121546 -0.50058335
-1.0563086 6.5120859 -0.50239116
-1.2181641 6.5120163 -0.50450611
-1.3814942 6.5119467 -0.50693589
-1.5464844 6.5118761 -0.50968605
-1.8824023 6.5117307 -0.51618665
-2.0538085 6.5116577 -0.51995802
-2.2278223 6.5115819 -0.52409005
-2.4047461 6.5115051 -0.52859986
-2.5848339 6.5114245 -0.53350151
-2.7684081 6.5113449 -0.5388096
-3.147285 6.5111766 -0.55072814
-4.1272459 6.4269543 -0.58165735
-4.4128122 6.5202231 -0.59955752
-5.1372266 6.519896 -0.63211161
-5.3970213 6.5197778 -0.64453542
-5.6673923 6.5196533 -0.65784949
-5.949326 6.5195251 -0.67212385
-6.5524998 6.5192466 -0.70388907
-6.8763671 6.5190978 -0.72157449
-7.2171288 6.5189404 -0.74061298
-8.3599606 6.5184078 -0.80728453
-8.7888966 6.518209 -0.83327657
-9.1270704 6.4337058 -0.85037613
-10.262695 6.5169616 -0.92579055
-10.830986 6.5166931 -0.96259534
-14.361094 6.4312377 -1.1982912
-20.570078 5.8330469 -1.6282378
-20.692255 5.3319983 -1.6272528
-21.889795 4.5274401 -1.7022517
-22.795811 4.1441917 -1.7644256
-23.05794 1.9263128 -1.7620471
-23.092733 1.3693322 -1.7616705
-23.125488 0.25406554 -1.7611784
-23.108955 -0.86132443 -1.761037
-23.082266 -1.4184802 -1.7610974
-23.043251 -1.9749392 -1.7612454
-22.991991 -2.5304739 -1.7614809
-22.928505 -3.0848439 -1.7618035
-22.852734 -3.6377907 -1.7622141
-22.664629 -4.7385025 -1.7632955
-20.801073 -5.946847 -1.6475253
-20.242519 -6.8591208 -1.6276193
-19.913975 -7.8374319 -1.6297278
-19.73332 -8.3214169 -1.6308999
-19.339746 -9.2779722 -1.6334759
-20.770332 -10.588008 -1.7753819
-20.524794 -11.094457 -1.776757
-13.683066 -7.8284197 -1.2004908
-19.661787 -12.544784 -1.7761065
-18.728075 -13.951838 -1.7784534
-18.398125 -14.408867 -1.7796133
-18.057909 -14.858891 -1.7808642
-17.707617 -15.301612 -1.7822056
-16.597393 -16.584177 -1.78677
-14.557207 -18.557028 -1.7961053
-14.121992 -18.924965 -1.7982196
-12.296543 -20.301914 -1.8075243
-11.819834 -20.621454 -1.8100592
-11.33542 -20.930725 -1.8126761
-10.843428 -21.229565 -1.8153741
-10.344043 -21.517817 -1.818152
-9.2718353 -21.93829 -1.8137444
-8.7225876 -22.111464 -1.8101379
-8.1727438 -22.27713 -1.8070316
-7.0674024 -22.576363 -1.8015262
-5.4007421 -22.960609 -1.7962347
-3.6899023 -23.061859 -1.778567
-1.4141015 -22.715212 -1.7331785
-0.30537108 -21.917725 -1.6692613
0.2208789 -21.67676 -1.6508361
1.2575977 -21.498304 -1.6399566
1.780957 -21.524878 -1.6447806
2.8416796 -21.602474 -1.6592642
3.3734765 -21.601931 -1.6649902
3.9092577 -21.601381 -1.6717287
4.4497266 -21.60083 -1.6795076
4.9944921 -21.595737 -1.6879879
5.5461326 -21.594503 -1.6978539
6.1045704 -21.593254 -1.7088407
6.6706247 -21.591988 -1.7209741
7.2451172 -21.590698 -1.7343163
7.8288865 -21.589384 -1.7488617
8.4221869 -21.586172 -1.7645419
9.6440229 -21.581667 -1.8001361
11.487773 -21.402876 -1.8498292
12.55873 -20.910997 -1.8575573
13.086249 -20.644316 -1.8613697
14.123301 -20.069845 -1.8688761
14.69 -19.840633 -1.8799841
15.434297 -19.827463 -1.9134642
17.01914 -19.812874 -1.9890385
17.860136 -19.804808 -2.0308928
19.030273 -19.157961 -2.0563779
20.469999 -17.822901 -2.0669236
21.808456 -16.373915 -2.076776
22.639511 -15.348528 -2.0829225
23.035507 -14.818889 -2.0858607
23.418104 -14.278442 -2.0887065
23.786991 -13.727556 -2.0914569
24.141758 -13.16654 -2.0941095
24.48209 -12.595757 -2.0966616
25.118378 -11.426583 -2.1014569
25.413631 -10.828959 -2.1036947
23.902889 -8.8491488 -1.9410099
24.131172 -8.2775545 -1.9427657
24.542538 -7.1159406 -1.9459604
24.892382 -5.9325523 -1.9487222
27.196503 -5.7922425 -2.1175399
27.586035 -3.8166127 -2.1207678
27.680918 -3.1514034 -2.1215971
27.758104 -2.4836922 -2.1223006
27.817402 -1.8139739 -2.1228778
27.882734 -0.47059935 -2.1236544
27.876484 0.87465149 -2.1239223
27.798769 2.2176714 -2.1236818
27.733105 2.8870671 -2.1233704
27.649706 3.5543699 -2.1229324
25.133476 5.100337 -1.9529983
23.336367 6.5233021 -1.845257
19.659277 6.5327234 -1.5776029
14.732577 6.5315356 -1.2272426
13.822128 6.5312133 -1.1641876
12.078906 6.4375377 -1.042335
10.930351 6.5209165 -0.96925259
10.353984 6.5207105 -0.93182212
9.8201752 6.5205173 -0.89767689
8.8606253 6.5201731 -0.83775908
8.426836 6.5200157 -0.81138206
8.0192966 6.5198679 -0.7870577
7.2723241 6.5195971 -0.74377501
6.8439059 6.4399085 -0.71563709
5.9977145 6.5233836 -0.67483062
5.4410739 6.5231762 -0.64688015
5.1793942 6.5230799 -0.63429493
4.9275389 6.5229869 -0.62254465
4.6847458 6.5228953 -0.61157167
4.4502149 6.5228062 -0.601322
4.2232618 6.5227208 -0.5917486
3.3799803 6.5223985 -0.55942726
2.9902148 6.5222483 -0.54639602
2.8018358 6.5221763 -0.54056937
2.6173241 6.5221043 -0.53517497
2.436367 6.5220337 -0.53019142
1.7420995 6.52176 -0.51406181
1.2275586 6.4292455 -0.49844623
1.0689551 6.437706 -0.49695796
0.60206056 6.5127769 -0.49807724
0.44394529 6.5127125 -0.49710935
0.28634766 6.5126462 -0.49643168
-0.3425 6.5123863 -0.49661818
-0.81766599 6.5121861 -0.49981108
-0.97772461 6.5121202 -0.50147069
-1.1389453 6.5120492 -0.5034343
-1.4656836 6.5119114 -0.50830245
-1.631621 6.5118384 -0.51122051
-1.7995801 6.5117674 -0.5144732
-1.9697949 6.511693 -0.51807141
-2.1424999 6.5116186 -0.52202576
-2.3179588 6.5115414 -0.52635038
-2.8637695 6.5113025 -0.54169053
-3.0532129 6.5112195 -0.54765153
-3.2469823 6.5111327 -0.55407137
-3.4454784 6.511045 -0.56097454
-3.6422167 6.4986887 -0.56731695
-4.0211425 6.427002 -0.57733297
-4.531074 6.5201697 -0.60464895
-5.013916 6.5199509 -0.62634677
-5.8101268 6.519587 -0.66502655
-6.0983982 6.5194554 -0.6798237
-7.0484862 6.5190172 -0.73113906
-7.3985839 6.518856 -0.75092101
-7.7683496 6.5186853 -0.77226472
-8.1599998 6.5185022 -0.79533482
-8.9026175 6.4338098 -0.83646226
-10.5479 6.5168262 -0.94419438
-11.139658 6.5165491 -0.98280513
-12.483438 6.515913 -1.0723584
-15.042617 6.514791 -1.2483547
-17.281084 6.5137291 -1.4063846
-20.367617 6.5741272 -1.6298496
-20.506386 6.0768738 -1.6287475
-20.634024 5.5770226 -1.6277238
-20.855713 4.5704088 -1.625914
-22.840342 3.8617554 -1.7640436
-22.917959 3.3084776 -1.7633634
-23.105782 1.084173 -1.7615113
-23.122011 0.52651429 -1.7612665
-23.125917 -0.031313475 -1.7611091
-23.117519 -0.58903134 -1.7610394
-22.961006 -2.8142462 -1.7616354
-22.809267 -3.9200549 -1.7624573
-22.715067 -4.4704165 -1.7629992
-22.60869 -5.0187507 -1.7636282
-22.490175 -5.5648279 -1.7643439
-21.728622 -5.9360404 -1.7153349
-20.316074 -6.6182775 -1.6271522
-20.162636 -7.1106095 -1.6281289
-19.998222 -7.5997472 -1.6291841
-19.636709 -8.5675898 -1.6315295
-19.439697 -9.0458326 -1.6328192
-13.874639 -7.7225151 -1.2092334
-19.837246 -12.330342 -1.7787106
-19.503897 -12.785411 -1.7759641
-17.879951 -15.086322 -1.781539
-17.159208 -15.956611 -1.7844044
-16.005096 -17.203226 -1.7893739
-15.188613 -17.992615 -1.7931184
-14.766542 -18.374012 -1.7951044
-14.335644 -18.746443 -1.7971761
-13.896045 -19.109678 -1.7993339
-5.1799707 -7.8978934 -0.71926743
-12.526435 -20.142151 -1.8063169
-12.053633 -20.466648 -1.8088109
-11.572842 -20.781 -1.8113885
-10.588828 -21.378384 -1.8167856
-10.082451 -21.654047 -1.8190074
-9.5400486 -21.851467 -1.81573
-8.4421186 -22.199066 -1.8086407
-7.8903317 -22.356768 -1.8054539
-6.7839451 -22.64748 -1.8003826
-6.2290626 -22.780043 -1.7984539
-5.6727052 -22.903008 -1.7968332
-3.9999511 -23.241245 -1.7959073
-3.2725976 -22.206966 -1.7093909
-2.216377 -22.526621 -1.7237524
-0.56788087 -22.081961 -1.6821623
-0.034648437 -21.79377 -1.65966
0.48665038 -21.595785 -1.6449988
1.0034863 -21.494843 -1.6386803
3.6470506 -21.60165 -1.6683087
4.1851563 -21.601101 -1.6755782
5.275918 -21.59511 -1.6929002
6.3932028 -21.592607 -1.7149024
7.5425777 -21.590029 -1.7415867
8.1309175 -21.587246 -1.7566775
3.1606445 -7.8145337 -0.64193153
9.3411131 -21.582783 -1.7909262
9.9648046 -21.580482 -1.8101605
10.602363 -21.578135 -1.8308824
11.763633 -21.282318 -1.8518184
12.29914 -21.03624 -1.8556826
13.353906 -20.502523 -1.8633054
15.828222 -19.823914 -1.9318243
16.620741 -19.81662 -1.96962
19.28248 -18.938599 -2.0582221
19.767656 -18.499926 -2.0617731
20.242285 -18.048161 -2.0652523
21.597891 -16.617279 -2.0752223
22.44125 -15.603138 -2.0814536
11.816133 -7.7996945 -1.0781916
23.608612 -13.997895 -2.090126
23.970293 -13.441782 -2.0928266
24.968575 -11.715366 -2.1003246
25.271309 -11.121881 -2.1026149
25.558729 -10.520039 -2.1047981
24.021484 -8.5575237 -1.9419209
24.242167 -7.982698 -1.9436233
24.447754 -7.4017577 -1.9452196
24.637968 -6.8152127 -1.9467083
24.812735 -6.223361 -1.9480883
26.002441 -5.859024 -2.0298059
27.636816 -3.4766674 -2.121208
27.722557 -2.8100803 -2.1219723
27.790684 -2.1413114 -2.122612
27.873379 -0.79900998 -2.1235118
27.887987 -0.1265039 -2.1237717
27.884628 0.54615784 -2.123904
27.863398 1.2185669 -2.123909
27.824375 1.8900982 -2.1237879
27.692636 3.2287188 -2.123162
25.196718 4.8048363 -1.9533795
24.913593 6.0089731 -1.9516461
20.462637 6.5330067 -1.6357805
17.274784 6.4486461 -1.4041936
16.287989 6.5320849 -1.3364069
13.391484 6.5310607 -1.1346174
12.60955 6.5307822 -1.0814027
11.22914 6.5210228 -0.98886317
10.629863 6.5208092 -0.94966614
10.075898 6.5206103 -0.91396832
9.5618944 6.5204248 -0.88135445
8.2152338 6.5199389 -0.79869598
7.4470897 6.519659 -0.75373864
7.0941992 6.5195312 -0.73372364
6.1411524 6.5234361 -0.68227315
5.8508005 6.5233288 -0.66730499
5.5727148 6.5232248 -0.65335137
5.0493751 6.5230308 -0.62818295
4.8022461 6.5229383 -0.61683643
3.8933008 6.5225949 -0.57846874
3.6828711 6.5225158 -0.57041568
3.2785156 6.5223594 -0.55591172
2.8933399 6.522213 -0.54336011
2.1688867 6.5219288 -0.52340311
1.4685742 6.4293418 -0.50221914
1.30625 6.429276 -0.49960685
1.1455176 6.4292111 -0.49730948
0.98746091 6.4376731 -0.49597809
0.8387695 6.5128722 -0.50006551
0.67952144 6.5128074 -0.49865741
0.52108395 6.512743 -0.49754569
0.36325195 6.5126781 -0.49672565
0.048691407 6.5125484 -0.49595991
-0.10839844 6.5124841 -0.49600822
-0.265625 6.5124183 -0.49634764
-0.42313474 6.512352 -0.49697661
-0.58115232 6.5122862 -0.49789611
-0.89942384 6.5121517 -0.5006218
-1.3853027 6.5119457 -0.50699556
-1.5503417 6.5118747 -0.50975496
-1.7172852 6.5118027 -0.5128426
-1.8863574 6.5117297 -0.51627064
-2.0578125 6.5116553 -0.52004981
-2.4088867 6.5115037 -0.52870941
-2.5890625 6.5114231 -0.53362083
-3.3479199 6.5110888 -0.55754089
-3.5489745 6.5109997 -0.56470108
-3.9165916 6.4270496 -0.57315314
-4.8928123 6.5200062 -0.62077183
-5.1431541 6.5198922 -0.63239044
-5.4031739 6.519774 -0.64483488
-5.6737986 6.5196509 -0.65817058
-6.250957 6.5193844 -0.68780774
-6.559834 6.5192432 -0.70428509
-7.9658298 6.5185924 -0.78384125
-8.7991695 6.5182042 -0.8339076
-9.1379194 6.4336996 -0.85104913
-10.844727 6.5166869 -0.96349037
-12.133124 6.5160789 -1.0487884
-12.867754 6.5157323 -1.0983789
-13.675742 6.5153503 -1.1535969
-15.565996 6.5145421 -1.2850189
-16.683681 6.5140133 -1.3639169
-17.948242 6.5134106 -1.454026
-20.573067 5.8214307 -1.6282141
-21.947021 4.5264783 -1.7065077
-22.797949 4.1313815 -1.7644076
-22.881592 3.5788829 -1.7636846
-23.058886 1.9133788 -1.7620373
-23.115654 0.7988916 -1.761375
-23.125526 0.24112853 -1.7611752
-23.123232 -0.31677246 -1.761062
-22.926815 -3.0976813 -1.7618126
-22.850809 -3.6506143 -1.7622247
-22.662128 -4.7512283 -1.7633103
-22.424911 -5.8432951 -1.7647433
-20.758837 -5.9473381 -1.6444464
-20.079922 -7.3612957 -1.6286588
-19.537275 -8.8127708 -1.6321795
-19.334795 -9.2889929 -1.6335086
-20.764805 -10.599819 -1.7754126
-20.518955 -11.106167 -1.77679
-19.992235 -12.102675 -1.7796999
-19.652685 -12.554496 -1.7759209
-18.049902 -14.869291 -1.7808942
-17.699345 -15.311831 -1.7822378
-17.338877 -15.746904 -1.7836715
-16.968456 -16.174273 -1.7851957
-16.198799 -17.005291 -1.7885106
-13.667812 -19.29187 -1.8004709
-11.808672 -20.628735 -1.8101193
-10.831875 -21.236416 -1.8154379
-9.8074608 -21.761293 -1.8177139
-8.7098827 -22.11557 -1.8100729
-8.1599512 -22.280787 -1.8069577
-7.0545216 -22.579618 -1.8014719
-5.3877831 -22.963274 -1.7962097
-4.8298731 -23.074564 -1.7952771
-4.2706056 -23.177172 -1.7947259
-2.9973242 -22.238522 -1.7088408
-1.9453223 -22.635107 -1.730083
-1.4006152 -22.703711 -1.7322415
-0.8346191 -22.251657 -1.6957196
-0.29300782 -21.912067 -1.6688154
0.23299804 -21.671211 -1.6504246
0.75154293 -21.544048 -1.6416403
1.2697363 -21.498684 -1.6400384
1.7932227 -21.526344 -1.6449732
2.3237109 -21.586523 -1.6533828
3.3858984 -21.601919 -1.6651363
3.9217577 -21.60137 -1.6718975
4.4623632 -21.600815 -1.6797006
5.0072265 -21.595711 -1.688207
6.1176367 -21.593225 -1.7091081
6.6838865 -21.591955 -1.7212707
7.258574 -21.590666 -1.7346117
7.8425975 -21.589355 -1.7492036
8.4360933 -21.586117 -1.7649221
10.28918 -21.579287 -1.8205746
11.500351 -21.397474 -1.8499198
12.038222 -21.158169 -1.8537993
13.61998 -20.357201 -1.8652309
15.452031 -19.827305 -1.9142817
16.229902 -19.820246 -1.9508401
19.041817 -19.148041 -2.0564623
19.532011 -18.715797 -2.0600476
20.011854 -18.270374 -2.0635624
20.938437 -17.341068 -2.0703657
22.648867 -15.336323 -2.0829918
23.426874 -14.265764 -2.0887716
23.79541 -13.714644 -2.0915198
24.149862 -13.153369 -2.0941701
24.489824 -12.582406 -2.0967195
24.815077 -12.002046 -2.0991669
25.125351 -11.412799 -2.1015096
23.90836 -8.8359509 -1.9410521
24.136309 -8.2642279 -1.9428054
24.349199 -7.6861739 -1.9444532
24.546972 -7.1023345 -1.9459949
27.476406 -4.4634671 -2.1198382
27.588495 -3.8012264 -2.1207891
27.859785 -1.1271985 -2.1233387
27.888475 0.21765381 -2.1238549
27.876034 0.89027405 -2.1239226
27.845644 1.5622686 -2.1238627
25.859842 4.6162939 -2.0004373
19.62248 6.532711 -1.5749447
18.148281 6.5321922 -1.4688388
15.723085 6.5318856 -1.2965703
14.710293 6.531528 -1.2256919
13.802109 6.5312061 -1.1628083
12.982012 6.5309143 -1.1066717
12.062636 6.4375315 -1.041245
9.8082619 6.5205135 -0.89692014
8.4170704 6.5200133 -0.81079429
6.8362498 6.4399056 -0.7152127
5.9909763 6.5233798 -0.6744827
5.4348826 6.5231738 -0.64657849
4.9218163 6.5229845 -0.62228107
4.4448829 6.5228052 -0.60109282
4.2180662 6.5227184 -0.59153432
3.9983008 6.5226355 -0.58260995
3.7849219 6.5225549 -0.57427794
3.3753514 6.5223975 -0.55926478
3.1782811 6.5223217 -0.5525229
2.9857812 6.5222483 -0.54625577
2.4322264 6.5220323 -0.53008091
2.0798633 6.5218945 -0.52130151
1.9078125 6.5218258 -0.51746583
1.7381933 6.5217576 -0.51398343
1.5484766 6.4293723 -0.50361156
1.3853222 6.4293079 -0.50084323
1.2238281 6.4292431 -0.49839243
1.0652441 6.437705 -0.49691111
0.91688472 6.5129037 -0.50086349
0.75718749 6.5128379 -0.49930868
0.5983789 6.5127735 -0.49805123
0.28268555 6.5126462 -0.4964197
0.12542969 6.5125804 -0.49603948
-0.50391603 6.5123191 -0.49740997
-0.66225582 6.5122519 -0.49848032
-0.82136714 6.5121837 -0.49984604
-0.98145503 6.5121179 -0.50151277
-1.1427149 6.5120482 -0.50348407
-1.6355078 6.5118384 -0.51129138
-2.3220704 6.5115404 -0.52645409
-2.6825585 6.5113831 -0.53628826
-3.0576661 6.5112181 -0.54779458
-3.2515428 6.5111313 -0.55422598
-3.8135252 6.4270945 -0.56910962
-4.0261521 6.4269996 -0.57753545
-4.2453027 6.4269018 -0.58656126
-4.7738476 6.5200596 -0.61537921
-5.0197363 6.5199485 -0.62661701
-5.8166795 6.5195847 -0.66535902
-6.7237206 6.5191674 -0.71318841
-7.4069333 6.5188522 -0.75139952
-8.169404 6.518497 -0.79589385
-9.382431 6.4341455 -0.86635834
-10.012852 6.5170789 -0.90979266
-10.561123 6.51682 -0.94505018
-11.154014 6.5165415 -0.9837482
-11.797861 6.5162387 -1.026369
-14.121572 6.5151391 -1.1843318
-15.065752 6.5147815 -1.2499714
-17.310419 6.5137143 -1.4084735
-20.370975 6.5626135 -1.629823
-20.509481 6.0652685 -1.6287228
-20.858027 4.5586619 -1.6258948
-22.752655 4.4005933 -1.7647921
-22.984688 2.7409351 -1.7627571
-23.037548 2.1851342 -1.7622522
-23.078056 1.6285089 -1.7618349
-23.106337 1.0712018 -1.7615045
-23.122255 0.51355833 -1.7612616
-23.125868 -0.044286497 -1.7611064
-23.096201 -1.1594086 -1.7610584
-23.06291 -1.7161889 -1.7611657
-23.017382 -2.272217 -1.7613604
-22.959541 -2.8271306 -1.7616427
-22.889442 -3.3807805 -1.7620126
-22.712725 -4.483201 -1.7630128
-22.487274 -5.5775132 -1.7643615
-21.682783 -5.9365759 -1.711979
-20.455273 -6.1345391 -1.6262749
-19.994267 -7.6110673 -1.6292095
-19.818701 -8.0967531 -1.6303451
-20.879629 -10.350228 -1.7746829
-20.64045 -10.859523 -1.7761072
-13.865479 -7.7275991 -1.2088113
-20.125742 -11.861673 -1.7790251
-19.829453 -12.340883 -1.7786314
-19.192762 -13.269976 -1.7769189
-18.878017 -13.736945 -1.7779449
-18.552881 -14.197155 -1.7790625
-18.217432 -14.650517 -1.7802707
-17.871826 -15.096594 -1.7815702
-17.150604 -15.966516 -1.7844399
-16.775263 -16.389954 -1.7860093
-15.99585 -17.212593 -1.7894152
-15.592031 -17.611418 -1.7912508
-15.178877 -18.001554 -1.7931638
-14.325527 -18.75499 -1.7972254
-5.1750488 -7.9000115 -0.71919674
-12.515556 -20.149809 -1.8063736
-12.042587 -20.474079 -1.8088697
-11.561757 -20.788155 -1.811448
-11.073222 -21.091866 -1.814109
-10.577197 -21.385088 -1.8168502
-7.324873 -22.509872 -1.8026687
-6.2161622 -22.783041 -1.7984128
-5.1025195 -23.021301 -1.7956845
-3.2568066 -22.185925 -1.7076304
-2.729795 -22.332069 -1.7133102
-1.6710058 -22.727268 -1.7354224
-1.1072558 -22.453627 -1.7119888
-0.022460938 -21.788189 -1.6592345
0.49870116 -21.593431 -1.6448414
2.0641015 -21.558769 -1.6492715
2.5955079 -21.60273 -1.6569437
3.125664 -21.602186 -1.6621995
3.6595116 -21.601641 -1.6684663
4.1976757 -21.601088 -1.6757559
5.8439255 -21.593838 -1.7035894
6.9767966 -21.591299 -1.7279501
9.3554296 -21.582729 -1.7913592
11.776152 -21.276772 -1.8519087
12.311523 -21.030386 -1.8557719
12.841581 -20.770073 -1.8596011
13.365956 -20.496025 -1.8633929
15.08252 -19.830585 -1.8973166
16.639511 -19.816444 -1.9705294
20.716309 -17.572685 -2.068733
21.168085 -17.095303 -2.0720558
21.607988 -16.605715 -2.0752966
22.035664 -16.104218 -2.078454
11.810996 -7.7868118 -1.0773257
23.241913 -14.531142 -2.087395
24.325546 -12.862424 -2.0954866
24.975683 -11.70165 -2.1003783
25.565233 -10.505968 -2.1048477
24.026815 -8.5442562 -1.9419618
24.247108 -7.9692192 -1.9436615
24.452284 -7.3881865 -1.945255
24.642187 -6.8014493 -1.9467416
26.067129 -5.8581924 -2.0346005
27.277304 -5.4426036 -2.1181955
27.724335 -2.7945669 -2.1219885
27.792011 -2.1256847 -2.1226249
27.841913 -1.4551568 -2.1231356
27.884356 0.56184262 -2.1239054
27.823202 1.9057422 -2.1237831
25.059805 5.4229102 -1.9525493
21.939238 6.4390235 -1.7412127
18.842598 6.5324364 -1.5187007
15.190663 6.5316978 -1.2592182
11.71207 6.437407 -1.0177501
11.214648 6.521018 -0.98790967
10.063535 6.5206051 -0.91317701
9.0722265 6.5202489 -0.85079587
8.6251564 6.5200863 -0.82338119
8.205781 6.5199351 -0.79813087
7.0861912 6.5195289 -0.73327535
6.3508592 6.4354725 -0.68853718
6.1342382 6.5234337 -0.68191469
5.5663867 6.5232239 -0.65303773
5.2998242 6.5231247 -0.64004081
5.0435352 6.5230298 -0.62791091
3.2739453 6.522357 -0.55575484
2.7026954 6.5221386 -0.53763139
2.5201366 6.5220666 -0.53245884
2.3409178 6.5219955 -0.52768856
1.4647851 6.4293394 -0.50215471
0.98377925 6.4376721 -0.49593496
0.35959959 6.5126767 -0.49671024
0.045058593 6.5125461 -0.4959574
-0.11204101 6.5124826 -0.49601325
-0.26927733 6.5124168 -0.49635941
-0.42679685 6.5123496 -0.49699363
-0.58483398 6.5122852 -0.4979209
-0.90314454 6.5121517 -0.50066078
-1.063789 6.5120826 -0.50248295
-1.3891113 6.5119443 -0.50705606
-1.7211816 6.5118003 -0.51291823
-1.8903222 6.5117283 -0.51635504
-2.2359862 6.5115781 -0.52429199
-2.4130371 6.5115013 -0.52881932
-2.9645801 6.5112596 -0.54482269
-4.1374216 6.4269495 -0.58207417
-4.8985252 6.5200033 -0.6210326
-5.6802244 6.5196471 -0.65849137
-5.9627247 6.5195189 -0.67281097
-6.5671973 6.5192394 -0.70468229
-7.2333789 6.5189328 -0.74153423
-7.5937791 6.5187645 -0.76213372
-7.9749508 6.5185876 -0.78437817
-8.8094826 6.5181994 -0.83453751
-9.1487989 6.4336963 -0.85172814
-10.288144 6.5169492 -0.92742848
-10.858486 6.5166807 -0.96438855
-12.149443 6.5160704 -1.0498809
-13.695469 6.5153403 -1.1549522
-14.404336 6.4312167 -1.201299
-15.590498 6.5145321 -1.2867383
-16.711279 6.513999 -1.3658752
-17.979609 6.5133958 -1.4562727
-20.576015 5.8098168 -1.6281904
-20.808153 4.8052611 -1.6263068
-22.800058 4.1185594 -1.7643896
-22.883358 3.5660326 -1.7636691
-23.059814 1.9004558 -1.7620277
-23.094063 1.3434777 -1.761655
-23.125635 0.22816955 -1.7611713
-23.122988 -0.32967773 -1.7610607
-23.107967 -0.88720393 -1.7610381
-23.080683 -1.4443597 -1.7611026
-23.041172 -2.0007453 -1.7612542
-22.989336 -2.5562658 -1.7614938
-22.925243 -3.1105363 -1.7618208
-22.848896 -3.6634407 -1.762235
-22.659658 -4.7639637 -1.7633249
-22.546835 -5.3111115 -1.7640001
-22.421806 -5.8559055 -1.7647625
-20.716709 -5.9478283 -1.6413705
-20.383692 -6.388258 -1.6267248
-20.235361 -6.8820157 -1.6276648
-19.905781 -7.8600011 -1.629781
-19.724667 -8.3438101 -1.6309561
-19.532684 -8.8239174 -1.6322094
-19.330019 -9.2999983 -1.63354
-20.513115 -11.117868 -1.7768228
-13.664521 -7.838182 -1.1996359
-19.985176 -12.11361 -1.7796777
-19.342646 -13.039526 -1.7764512
-19.033047 -13.509702 -1.7774323
-18.712978 -13.973209 -1.7785052
-18.382549 -14.430002 -1.7796692
-18.041874 -14.879648 -1.7809243
-17.691103 -15.322026 -1.7822702
-16.959736 -16.18408 -1.7852322
-16.189667 -17.014755 -1.788551
-15.79039 -17.417685 -1.7903436
-14.101591 -18.941854 -1.7983197
-13.657383 -19.300093 -1.8005232
-13.204648 -19.648796 -1.802812
-12.743632 -19.987833 -1.8051846
-11.79747 -20.636047 -1.8101792
-9.7949705 -21.766127 -1.8176562
-9.2462893 -21.946386 -1.8135554
-7.0416989 -22.582859 -1.8014181
-5.9315038 -22.846235 -1.7974859
-4.2576466 -23.179482 -1.7947161
-3.6425683 -22.93063 -1.7681291
-2.4606347 -22.423813 -1.7178915
-1.9329785 -22.639343 -1.7303255
-1.3871288 -22.692221 -1.7313058
-0.82183594 -22.243525 -1.6950653
1.8054395 -21.527807 -1.6451596
2.3360155 -21.587477 -1.6535482
2.866328 -21.602451 -1.6595073
3.3983006 -21.60191 -1.6652796
4.4749413 -21.6008 -1.6798925
7.2720313 -21.590633 -1.7349439
3.2850389 -7.8299832 -0.64662719
9.673008 -21.58156 -1.8010298
10.949472 -21.576855 -1.8426129
11.512813 -21.392059 -1.8500097
12.583398 -20.898886 -1.8577355
14.14707 -20.055866 -1.8690481
15.469707 -19.827145 -1.9151022
16.248281 -19.820076 -1.9517148
17.057461 -19.812513 -1.9909167
19.053261 -19.138174 -2.0565457
20.948887 -17.330021 -2.0704427
21.394688 -16.846365 -2.0737245
21.828398 -16.350616 -2.0769231
22.658222 -15.324197 -2.083061
23.803768 -13.701753 -2.0915823
24.157871 -13.140261 -2.0942302
24.822479 -11.988444 -2.0992229
25.132324 -11.39904 -2.1015625
23.913809 -8.8227386 -1.9410937
24.354004 -7.6727366 -1.9444902
24.551405 -7.0887146 -1.9460293
24.733377 -6.4992599 -1.9474602
-2.3137987 6.5114098 -0.68305343
-2.4922266 6.5113292 -0.6891529
-2.8593554 6.5111642 -0.70292664
-3.6434276 6.5094137 -0.73736125
-4.0160351 6.4268565 -0.74909675
-4.2348728 6.4267554 -0.7607733
-4.5255466 6.5200157 -0.78451031
-4.7625194 6.519906 -0.79809147
-5.0079784 6.5197926 -0.8126297
-6.0913963 6.5192833 -0.88192785
-6.3926463 6.5191417 -0.90250903
-7.7592773 6.5184884 -1.001704
-8.1503811 6.5183005 -1.0315921
-11.766231 6.5159888 -1.3294839
-12.465878 6.5156455 -1.3903748
-13.233154 6.5152698 -1.4579953
-15.451533 6.7021265 -1.6648217
-15.598154 6.3232455 -1.6636996
-15.865127 5.5567651 -1.6616238
-15.985419 5.1695642 -1.6606786
-16.096905 4.7799802 -1.6597956
-16.760996 4.5402856 -1.7164798
-17.785635 3.9080615 -1.7999908
-17.867901 3.4766345 -1.7993058
-17.94042 3.0436375 -1.7986897
-18.003124 2.609256 -1.7981429
-18.099091 1.7372034 -1.7972583
-18.132284 1.2999219 -1.7969208
-18.155693 0.86210263 -1.7966527
-18.16662 -0.45270142 -1.7962695
-18.150557 -0.89072812 -1.7962821
-18.124599 -1.3282977 -1.796365
-18.088848 -1.7652026 -1.7965176
-18.043261 -2.2012382 -1.7967404
-17.987822 -2.6362057 -1.7970337
-17.922676 -3.0698988 -1.7973962
-17.762999 -3.9326489 -1.7983309
-17.564512 -4.7878861 -1.7995434
-17.450819 -5.2121768 -1.8002533
-17.327539 -5.6339817 -1.8010317
-15.5629 -6.3377247 -1.6610104
-15.414512 -6.7151513 -1.6619776
-15.091991 -7.4601755 -1.6640974
-13.860742 -7.7046218 -1.567528
-14.544814 -8.5504436 -1.6677346
-15.101523 -10.416282 -1.8133862
-14.056611 -11.846846 -1.8171027
-13.775195 -12.189886 -1.818213
-12.884414 -13.181106 -1.8219732
-12.572402 -13.498352 -1.8233678
-12.252997 -13.808738 -1.824833
-11.926406 -14.112104 -1.8263673
-11.592725 -14.408288 -1.8279705
-11.252149 -14.697131 -1.8296405
-10.550517 -15.251814 -1.8331501
-5.1849022 -7.8957453 -0.93370056
-9.8229389 -15.77527 -1.8369255
-9.4498138 -16.024906 -1.8389111
-8.6856642 -16.499226 -1.843074
-8.29498 -16.723631 -1.8452502
-7.8987789 -16.939341 -1.8474882
-7.4972653 -17.146227 -1.849787
-7.0905662 -17.344156 -1.8521459
-5.4159274 -18.043638 -1.8621627
-3.6766503 -18.603479 -1.8744605
-2.8129883 -19.014313 -1.8999591
-2.3589842 -19.120401 -1.9043192
-0.50956053 -19.391075 -1.9174048
-0.041816406 -19.431288 -1.9207209
0.42757812 -19.460327 -1.9240515
2.316328 -19.46348 -1.9374788
2.7899609 -19.435749 -1.9408523
3.2635741 -19.396507 -1.9442288
3.7369335 -19.345675 -1.9476058
4.6816602 -19.209314 -1.9543539
5.6217771 -19.02647 -1.9610804
6.0894141 -18.917583 -1.9644305
6.5550585 -18.797115 -1.9677688
3.1441991 -7.7864323 -0.83004415
8.3912106 -18.199423 -1.9809619
9.7323437 -17.630733 -1.9906286
10.170898 -17.418531 -1.9937958
10.604688 -17.19516 -1.9969319
11.033457 -16.960718 -2.0000346
11.456855 -16.715254 -2.0031016
11.87457 -16.458925 -2.0061309
12.691895 -15.914121 -2.0120685
13.483086 -15.327312 -2.0178297
14.245723 -14.699751 -2.0233974
16.012793 -12.961576 -2.0363638
16.658066 -12.202803 -2.0411277
16.966503 -11.810693 -2.0434117
17.553711 -11.002211 -2.0477743
17.831972 -10.586357 -2.0498493
18.099823 -10.163116 -2.0518515
16.903944 -8.9624033 -1.8912245
17.130625 -8.5598097 -1.8929297
17.553066 -7.7368026 -1.8961239
18.269472 -6.0272818 -1.9016143
19.341932 -5.8677721 -1.9979324
20.156425 -5.5876751 -2.0675354
20.423418 -4.6139269 -2.0696599
20.53793 -4.1218472 -2.0705884
20.639746 -3.626776 -2.0714273
20.728651 -3.1290467 -2.072175
20.804745 -2.6290283 -2.0728319
20.867773 -2.1270614 -2.0733967
20.954668 -1.1187414 -2.0742488
20.989061 -0.1069696 -2.0747283
20.986563 0.39930969 -2.0748279
20.970917 0.90535951 -2.0748343
20.601973 3.9166844 -2.0729105
18.641094 4.9635692 -1.9068087
18.507734 5.4093199 -1.9059643
18.362968 5.8512793 -1.9050378
18.039276 6.7224584 -1.9029107
15.237031 6.5313878 -1.6386683
14.275253 6.5310669 -1.5517279
13.409922 6.5307736 -1.4743625
12.626328 6.5305099 -1.4051238
11.742793 6.4371557 -1.3236957
10.642813 6.5205674 -1.233748
9.0934181 6.5200367 -1.1060247
7.8287301 6.5195994 -1.0070404
5.0550976 6.522872 -0.81571662
4.5690818 6.5226965 -0.78719139
3.898164 6.5224485 -0.75108784
3.6875975 6.5223703 -0.74061894
3.2830272 6.5222192 -0.72176278
3.0881445 6.5221448 -0.71330208
2.8976562 6.5220728 -0.7054435
2.528496 6.5219321 -0.69141948
2.1728907 6.5217967 -0.67949164
1.828584 6.5216622 -0.66950089
1.6600097 6.5215955 -0.66518873
1.4723339 6.4292135 -0.65195251
1.3099706 6.4291492 -0.64855194
0.99115235 6.4375477 -0.64382279
0.84246093 6.5127454 -0.6491217
0.68319333 6.5126805 -0.64728451
0.52474606 6.5126157 -0.64583147
0.20951171 6.5124874 -0.64406461
0.052353516 6.5124216 -0.64374679
-0.57746094 6.5121603 -0.64622509
-0.89568359 6.5120239 -0.64974672
-1.3814648 6.5118175 -0.65799099
-2.0537696 6.5115232 -0.67489278
-2.4046874 6.5113683 -0.68610954
-3.7077343 6.4366088 -0.73424226
-4.1271482 6.4268055 -0.75497472
-4.4126954 6.5200696 -0.77820855
-5.3968749 6.5196104 -0.83658916
-5.9491696 6.5193515 -0.87239635
-6.2437792 6.5192113 -0.89227468
-6.5523143 6.5190649 -0.91362464
-6.8761716 6.5189109 -0.93657988
-7.2169237 6.5187497 -0.96129161
-7.5763474 6.5185766 -0.9879328
-7.9565134 6.5183935 -1.0167036
-8.3597069 6.5182004 -1.0478243
-8.7886133 6.5179944 -1.0815598
-10.262334 6.5167212 -1.2016354
-10.830576 6.5164452 -1.2494025
-11.446259 6.5161448 -1.3019134
-13.65543 6.5150623 -1.495548
-14.360391 6.4309278 -1.5553131
-15.527656 6.5086913 -1.6642441
-15.669765 6.1282458 -1.6631454
-15.803184 5.744945 -1.6621078
-16.043564 4.9705224 -1.6602191
-16.150488 4.5797849 -1.659368
-17.556112 4.5238733 -1.7920517
-17.828926 3.6875377 -1.799632
-17.90621 3.2552795 -1.7989821
-18.172276 0.19964416 -1.7963809
-18.170927 -0.2386792 -1.7962887
-18.159618 -0.6768567 -1.7962674
-18.107548 -1.5519257 -1.7964343
-18.016132 -2.4239249 -1.7968817
-17.885517 -3.2912276 -1.7976089
-17.616552 -4.5798349 -1.7992218
-17.388935 -5.4283042 -1.800643
-16.216309 -5.9345951 -1.7068994
-15.335155 -6.9070225 -1.6624972
-15.173867 -7.2795129 -1.6635574
-15.003994 -7.6485186 -1.6646792
-13.660889 -7.8157439 -1.5557156
-14.444023 -8.7327995 -1.6684088
-15.220038 -10.235565 -1.8130124
-14.722079 -10.967521 -1.8146534
-14.191152 -11.677125 -1.8165866
-13.628183 -12.362996 -1.818809
-13.034111 -13.023745 -1.8213174
-12.725713 -13.344277 -1.8226779
-12.086816 -13.964831 -1.8256092
-11.075175 -14.841911 -1.830513
-10.724287 -15.119202 -1.8322686
-10.002939 -15.650397 -1.8359792
-9.6327925 -15.904014 -1.8379333
-9.2565718 -16.149431 -1.8399519
-8.0929585 -16.835087 -1.8463876
-7.6940231 -17.046299 -1.8486565
-6.4664254 -17.626043 -1.8558236
-6.0475879 -17.800879 -1.8583292
-5.624248 -17.96627 -1.8608913
-4.7648239 -18.268393 -1.8661813
-3.8897557 -18.531376 -1.8716848
-3.4636717 -18.738831 -1.8836485
-3.0306542 -18.94161 -1.8961328
-1.6646777 -19.243166 -1.9092268
-0.73733395 -19.367401 -1.9157909
1.139707 -19.482874 -1.929109
2.5586329 -19.450739 -1.9392043
3.5058007 -19.371935 -1.9459567
3.9789257 -19.315218 -1.9493333
4.4512696 -19.246895 -1.9527075
4.9226756 -19.16695 -1.9560776
5.3927732 -19.075392 -1.9594408
5.861289 -18.972195 -1.9627956
6.3279099 -18.857405 -1.9661399
6.7923632 -18.730978 -1.9694713
3.264375 -7.8052578 -0.83628094
8.1696682 -18.282305 -1.9793676
9.0714645 -17.925665 -1.9858618
9.9572659 -17.523558 -1.9922527
11.250781 -16.836529 -2.0016084
12.494648 -16.051079 -2.0106342
12.896894 -15.767978 -2.0135598
13.680996 -15.170612 -2.019273
14.435937 -14.532815 -2.0247884
16.181347 -12.770783 -2.0376067
16.81707 -12.003231 -2.0423048
17.414003 -11.202558 -2.0467343
17.970331 -10.370741 -2.0508828
16.78957 -9.1567593 -1.8903662
17.021172 -8.7572079 -1.8921055
17.844276 -7.1001067 -1.8983423
18.191444 -6.2400885 -1.90101
18.59078 -5.8799071 -1.9273574
20.083652 -5.8231077 -2.0669637
20.229492 -5.3400025 -2.0681126
20.362871 -4.853035 -2.0691741
20.686874 -3.3724291 -2.0718212
20.769238 -2.8734863 -2.0725226
20.894979 -1.8696066 -2.0736501
20.938261 -1.3653833 -2.0740747
20.989471 0.15206909 -2.0747912
20.980234 0.65827453 -2.0748432
20.957811 1.164071 -2.0748012
20.873613 2.1729791 -2.0744367
18.284472 6.07582 -1.9045317
18.122637 6.511467 -1.9034823
16.689121 6.4550476 -1.7687603
15.747128 6.5315599 -1.6851351
14.731855 6.5312195 -1.5928881
12.99959 6.5306358 -1.4380014
12.078398 6.4372692 -1.3528944
10.929922 6.5206661 -1.2580425
10.353613 6.5204697 -1.2094617
9.8198433 6.520288 -1.1651447
9.323535 6.5201159 -1.1245916
8.4265623 6.5198069 -1.0531422
8.019043 6.5196643 -1.0215726
7.6350193 6.5195322 -0.99239957
7.272109 6.519403 -0.96539348
6.2096872 6.4352441 -0.88395745
5.7133398 6.5231075 -0.85713774
5.1792579 6.5229163 -0.82329434
4.9274411 6.5228257 -0.8080442
4.6846094 6.5227365 -0.79380131
4.2231641 6.5225682 -0.76807356
3.3799024 6.5222559 -0.72612339
3.1827343 6.5221801 -0.7173568
2.9901562 6.5221081 -0.70920795
2.617285 6.521965 -0.69464302
2.083828 6.5217614 -0.67675734
1.7420605 6.5216269 -0.66723859
1.5522656 6.4292431 -0.65376395
1.3890527 6.4291806 -0.65016013
1.0689355 6.4375768 -0.64504063
0.92058593 6.5127769 -0.65015984
0.76086915 6.5127125 -0.64813286
0.60205078 6.5126476 -0.64649349
-0.50022459 6.5121908 -0.64559978
-0.65855467 6.5121264 -0.64697975
-0.81765622 6.5120578 -0.64874434
-1.1389258 6.51192 -0.6534465
-1.3015039 6.5118504 -0.65639967
-1.4656543 6.5117798 -0.65976471
-1.799541 6.5116343 -0.66777503
-2.142451 6.5114841 -0.67757666
-2.3179102 6.5114074 -0.68319029
-2.4964159 6.5113268 -0.68929982
-2.8637109 6.5111632 -0.70309949
-3.0531445 6.5110779 -0.71083724
-3.4454002 6.5109005 -0.72813094
-4.7681251 6.5199032 -0.79841733
-5.5338087 6.519547 -0.84527922
-6.0982423 6.5192809 -0.88238895
-6.3998046 6.5191379 -0.9030059
-6.7159863 6.5189867 -0.92515898
-7.0482812 6.5188303 -0.94899231
-7.3983593 6.518662 -0.97466916
-7.768115 6.5184851 -1.0023719
-11.139228 6.516295 -1.2756325
-13.251884 6.5152597 -1.459656
-15.454989 6.6933484 -1.6647906
-15.601455 6.3144102 -1.6636742
-15.739111 5.9324841 -1.662607
-15.868008 5.5477967 -1.6616012
-16.795673 4.5395703 -1.7197647
-17.695829 4.327744 -1.8007268
-17.787645 3.8980589 -1.7999743
-17.869667 3.4665904 -1.7992909
-18.004454 2.5991588 -1.7981311
-18.057148 2.1635828 -1.7976555
-18.099979 1.7270532 -1.7972494
-18.132988 1.2897674 -1.7969134
-18.150078 -0.90090513 -1.7962831
-18.087919 -1.77534 -1.7965219
-17.986435 -2.6462905 -1.7970413
-17.760927 -3.9426296 -1.7983434
-17.666279 -4.3712335 -1.7989169
-17.561981 -4.7977524 -1.7995592
-17.448057 -5.2219968 -1.8002707
-16.803223 -5.9258599 -1.7612023
-15.253759 -7.0980039 -1.6630316
-15.088008 -7.4687333 -1.6641238
-14.913828 -7.835897 -1.6652768
-14.341093 -8.9140615 -1.6690985
-14.133711 -9.2650852 -1.6704913
-14.846719 -10.790781 -1.8142259
-12.877246 -13.18856 -1.8220049
-12.565029 -13.505657 -1.8234013
-11.244121 -14.703742 -1.8296798
-10.896475 -14.984736 -1.8314029
-10.542207 -15.258085 -1.8331926
-9.8143454 -15.781164 -1.8369708
-9.4410543 -16.030609 -1.8389579
-7.8895211 -16.944252 -1.8475409
-7.0810838 -17.348656 -1.8522012
-6.6692677 -17.537243 -1.8546209
-5.8315525 -17.886696 -1.8596331
-4.9761815 -18.198195 -1.8648696
-4.5424023 -18.339441 -1.8675692
-3.6670995 -18.610041 -1.874913
-2.802578 -19.017607 -1.900131
-1.8896776 -19.206184 -1.9076358
-1.4283398 -19.279121 -1.9108987
-0.96458983 -19.341127 -1.9141815
-0.49869141 -19.392128 -1.9174819
-0.030888671 -19.432072 -1.9207983
1.381289 -19.484653 -1.9308261
1.8540233 -19.479523 -1.9341882
2.8009179 -19.434963 -1.9409306
3.2745702 -19.395452 -1.9443072
4.220664 -19.281694 -1.9510598
6.1002731 -18.914934 -1.9645083
7.0291014 -18.661802 -1.9711704
3.14416 -7.7737651 -0.82888198
8.4017382 -18.195408 -1.9810375
8.8526564 -18.016954 -1.9842848
9.2996874 -17.827122 -1.9875071
9.7425976 -17.625937 -1.9907027
10.181035 -17.413471 -1.9938692
11.043359 -16.955126 -2.0001063
11.46662 -16.709415 -2.0031726
11.884218 -16.452873 -2.006201
12.295918 -16.185516 -2.0091901
12.701289 -15.907558 -2.0121367
13.100137 -15.619062 -2.0150392
13.876972 -15.011249 -2.0207033
14.624141 -14.363316 -2.0261657
14.985859 -14.024776 -2.0288162
15.684316 -13.319386 -2.0339456
16.020489 -12.952953 -2.0364206
16.665371 -12.193796 -2.0411816
11.81207 -7.7970138 -1.3990133
17.838339 -10.576606 -2.0498965
18.105879 -10.153214 -2.0518968
17.351954 -8.1416187 -1.8946002
17.557714 -7.7271323 -1.8961593
17.937206 -6.8819437 -1.8990536
18.110703 -6.4518371 -1.900387
18.273144 -6.0171609 -1.9016427
19.379082 -5.8671727 -2.0014217
20.299316 -5.0913415 -2.0686667
20.426172 -4.6025496 -2.0696824
20.540449 -4.110383 -2.0706089
20.641972 -3.6152594 -2.0714455
20.91877 -1.6118207 -2.073879
20.989218 -0.095209956 -2.0747321
20.986385 0.41104674 -2.0748293
20.970371 0.91711056 -2.0748332
20.899023 1.9270415 -2.0745604
20.775293 2.9316967 -2.0739141
20.599667 3.9282091 -2.0728967
20.492519 4.4224916 -2.0722497
15.213496 6.5313807 -1.6365308
14.254121 6.5310583 -1.5498272
13.390859 6.5307689 -1.4726702
12.609004 6.5305042 -1.4036031
11.727226 6.4371495 -1.3223455
10.629453 6.520565 -1.2326232
10.075546 6.5203733 -1.1862898
9.5615425 6.5201974 -1.1439589
8.6349802 6.5198803 -1.0695155
8.2150002 6.5197325 -1.036676
7.8198047 6.5195971 -1.0063651
6.6722069 6.4354086 -0.91630608
6.357832 6.4352951 -0.89419478
6.1409764 6.5232601 -0.88556874
5.8506446 6.5231576 -0.86614043
5.572578 6.5230579 -0.84802938
5.0492382 6.5228696 -0.81536263
4.8021288 6.5227804 -0.80063605
4.563652 6.5226927 -0.78688222
4.1098242 6.5225267 -0.76203942
3.893203 6.5224462 -0.75083596
3.6827929 6.522368 -0.74038422
3.2784569 6.5222178 -0.72155887
3.0836718 6.5221434 -0.71311349
2.3450196 6.5218625 -0.68506575
2.1688476 6.5217943 -0.67936444
1.8246484 6.5216613 -0.66939515
1.6561035 6.521594 -0.6650933
1.4685448 6.4292126 -0.65186858
1.3062109 6.4291477 -0.64847863
0.98745114 6.4375463 -0.64376718
0.83875 6.5127439 -0.64907461
0.67950195 6.5126791 -0.64724576
0.52107424 6.5126147 -0.64580208
0.048691407 6.5124216 -0.64374328
-0.26560545 6.51229 -0.64424801
-0.423125 6.5122242 -0.64506352
-0.58114254 6.5121593 -0.64625746
-0.73982418 6.5120907 -0.64783394
-0.89940429 6.5120225 -0.64979631
-1.0600293 6.5119543 -0.65215117
-1.2219238 6.5118847 -0.65490663
-1.5503125 6.5117431 -0.66164947
-1.7172461 6.5116711 -0.66565734
-2.2318652 6.511445 -0.68038726
-2.4088378 6.5113668 -0.68625236
-2.9601171 6.5111203 -0.70698637
-3.3478515 6.5109448 -0.72367448
-3.5489061 6.5108542 -0.73296767
-3.712539 6.4366064 -0.73447812
-3.9164941 6.4269018 -0.74393588
-4.4180174 6.5200658 -0.778503
-4.651289 6.5199585 -0.79165959
-4.892705 6.519846 -0.80574292
-5.1430273 6.5197301 -0.82082433
-5.4030271 6.519608 -0.83697534
-6.5596485 6.5190625 -0.91413856
-6.8838863 6.5189075 -0.93713313
-7.9655857 6.5183911 -1.0173957
-9.7474213 6.5169725 -1.1590044
-12.867216 6.515449 -1.4256402
-13.675117 6.5150523 -1.4973025
-15.672978 6.1193566 -1.6631204
-15.806142 5.7360096 -1.6620849
-15.930575 5.3499765 -1.6611105
-17.593788 4.5230942 -1.7956415
-17.830839 3.6775341 -1.7996161
-17.975176 2.8114765 -1.7983886
-18.080292 1.940371 -1.797439
-18.146055 1.0658294 -1.7967683
-18.172392 0.18948364 -1.7963777
-18.159248 -0.68701351 -1.7962675
-17.95417 -2.8683336 -1.7972189
-17.883789 -3.3012462 -1.7976189
-17.614111 -4.5897312 -1.7992368
-17.386074 -5.438097 -1.800661
-17.257656 -5.8584757 -1.8014764
-16.189316 -5.9349961 -1.7044063
-15.629013 -6.1611199 -1.6605814
-15.331572 -6.9156885 -1.6625208
-14.999961 -7.6570325 -1.6647061
-14.821455 -8.0223055 -1.6658905
-14.439404 -8.741065 -1.6684397
-15.214443 -10.244175 -1.8130298
-14.969423 -10.612764 -1.8138152
-14.716084 -10.975886 -1.8146744
-14.454482 -11.333449 -1.8156064
-13.328066 -12.70426 -1.8200567
-13.027021 -13.031248 -1.8213484
-12.718437 -13.35165 -1.8227105
-12.402451 -13.66522 -1.8241431
-11.748818 -14.271419 -1.8272161
-9.9943943 -15.656377 -1.8360242
-8.865469 -16.391922 -1.8420833
-8.4773731 -16.620316 -1.8442307
-8.0837793 -16.840099 -1.8464395
-6.870996 -17.446297 -1.8534319
-6.0378122 -17.804825 -1.8583881
-4.754746 -18.271671 -1.8662442
-3.4538672 -18.744534 -1.8840289
-3.0204003 -18.945574 -1.8963574
-2.571162 -19.076464 -1.9026947
-2.1140234 -19.166666 -1.90605
-1.6539648 -19.244854 -1.9093026
-1.1913769 -19.31222 -1.9125756
-0.72647458 -19.368605 -1.9158679
0.20910156 -19.448175 -1.9225008
1.6230567 -19.483471 -1.9325451
2.569629 -19.450081 -1.9392827
3.0433006 -19.416218 -1.9426581
3.5167968 -19.370737 -1.9460351
3.9898827 -19.31374 -1.9494116
4.9336329 -19.164932 -1.956156
5.4036717 -19.073114 -1.959519
3.2710545 -7.8089032 -0.83686894
8.180234 -18.278399 -1.9794437
9.0818548 -17.92127 -1.9859365
9.9674606 -17.518633 -1.9923263
11.260664 -16.830797 -2.0016799
12.095625 -16.317408 -2.0077355
14.44457 -14.525173 -2.0248516
14.810214 -14.191319 -2.0275285
15.167812 -13.847868 -2.0301507
15.516953 -13.495058 -2.0327148
16.511328 -12.382307 -2.0400429
16.824278 -11.994127 -2.0423577
17.127441 -11.597573 -2.0446053
17.420723 -11.193056 -2.0467844
17.703886 -10.78074 -2.0488932
17.976543 -10.360884 -2.0509293
16.795078 -9.1475477 -1.8904076
17.247656 -8.3419847 -1.8938124
17.458534 -7.9302731 -1.8954071
17.658867 -7.512888 -1.8969281
18.027363 -6.6624742 -1.8997456
18.195175 -6.2300024 -1.9010391
20.087246 -5.8119621 -2.0669916
20.365801 -4.8417006 -2.0691974
20.486269 -4.3511181 -2.0701675
20.688925 -3.3608541 -2.0718384
20.840117 -2.3607571 -2.0731456
20.939121 -1.353659 -2.0740836
20.9858 -0.34243286 -2.07465
20.989393 0.16380797 -2.0747933
20.979862 0.67003047 -2.0748432
20.810312 2.6870208 -2.074106
20.735292 3.1874933 -2.073689
20.546444 4.1814561 -2.0725772
20.07461 4.5923166 -2.035568
18.571192 5.2024426 -1.9063674
18.431757 5.6461854 -1.9054788
16.689121 6.4657955 -1.769143
15.722265 6.5315514 -1.6828635
13.801464 6.5309057 -1.5092608
12.981445 6.5306287 -1.4363989
12.062129 6.4372644 -1.3514655
10.340742 6.5204639 -1.2083861
9.807929 6.5202832 -1.1641624
9.3124018 6.520112 -1.1236912
7.2639451 6.5194006 -0.96479076
6.8360543 6.4397202 -0.92832386
5.7068944 6.5231066 -0.85671586
5.1733007 6.5229149 -0.8229298
4.921699 6.5228233 -0.80770367
4.6790819 6.5227356 -0.79348272
4.217988 6.5225668 -0.7677958
3.7848241 6.5224056 -0.74539798
3.5773437 6.5223289 -0.73531246
3.3752735 6.522253 -0.72591072
3.1782227 6.5221801 -0.71716142
2.9857225 6.5221066 -0.7090258
2.7974608 6.5220361 -0.70147783
2.6130273 6.521965 -0.69448799
2.432168 6.5218954 -0.6880312
1.9077734 6.5216928 -0.67165893
0.91686523 6.5127759 -0.65010911
0.75717771 6.512711 -0.64809102
0.59835935 6.5126462 -0.64645916
0.28268555 6.512517 -0.64434159
-0.031660154 6.5123878 -0.6437307
-0.50390625 6.5121899 -0.64562619
-0.66223633 6.5121241 -0.64701623
-0.82135743 6.5120568 -0.64878887
-1.305293 6.5118494 -0.65647298
-1.6354687 6.5117054 -0.66364557
-1.8034766 6.5116329 -0.66787797
-1.9737304 6.5115576 -0.67255843
-2.1464942 6.5114818 -0.67770237
-2.3220313 6.5114059 -0.68332565
-2.5006053 6.5113244 -0.68944764
-2.6824999 6.5112448 -0.69608909
-2.8680663 6.5111609 -0.703273
-3.4500682 6.5108995 -0.72834563
-3.6434081 6.4922738 -0.73588216
-4.2451954 6.4267502 -0.76134032
-4.7737303 6.5199008 -0.79874486
-5.8165331 6.5194139 -0.86361462
-6.1051073 6.5192771 -0.88285232
-7.4067283 6.5186596 -0.97528893
-8.1691408 6.518292 -1.0330399
-8.9128609 6.4335899 -1.0865475
-9.3820992 6.4339194 -1.1245043
-10.560722 6.5165768 -1.2266306
-11.153574 6.5162878 -1.2768584
-12.49998 6.5156298 -1.3933614
-13.270635 6.5152526 -1.4613205
-15.458447 6.6845579 -1.6647595
-15.742207 5.9235802 -1.6625829
-15.870889 5.538805 -1.6615787
-15.990801 5.1515183 -1.6606363
-17.871504 3.4565306 -1.7992755
-18.133614 1.2796001 -1.7969064
-18.16959 0.40355527 -1.7964473
-18.166094 -0.47305542 -1.7962686
-18.123194 -1.3486078 -1.7963701
-17.843964 -3.5221732 -1.7978506
-17.758827 -3.9526112 -1.7983559
-17.559443 -4.807642 -1.799575
-16.774374 -5.926291 -1.7585298
-15.696396 -5.9750247 -1.6601455
-15.25 -7.1066747 -1.6630563
-15.084072 -7.4773145 -1.6641498
-14.909678 -7.844398 -1.6653045
-14.128808 -9.2732058 -1.6705242
-15.090137 -10.433397 -1.8134227
-14.840849 -10.799235 -1.8142456
-14.583271 -11.159522 -1.8151419
-14.3175 -11.514153 -1.8161111
-13.472353 -12.542203 -1.8194518
-13.17498 -12.872373 -1.8207089
-12.557695 -13.512918 -1.8234347
-11.911055 -14.12603 -1.8264402
-10.533887 -15.264343 -1.833235
-5.1750293 -7.8999877 -0.93351585
-9.4323244 -16.036293 -1.8390048
-9.0528803 -16.277266 -1.8410579
-8.6676464 -16.509829 -1.8431737
-7.4784861 -17.15564 -1.849895
-7.0715723 -17.353123 -1.8522568
-6.659658 -17.541538 -1.8546777
-5.3960447 -18.05084 -1.8622847
-4.9661427 -18.201586 -1.8649319
-4.5322852 -18.342573 -1.8676325
-4.0945897 -18.473753 -1.8703864
-3.2345409 -18.85725 -1.8911985
-2.7921972 -19.02087 -1.9003026
-2.3377244 -19.12454 -1.9044693
-0.020029297 -19.432865 -1.9208755
0.44946289 -19.461388 -1.9242066
0.9202832 -19.478664 -1.92755
1.3922364 -19.484653 -1.9309039
2.8119726 -19.434196 -1.9410093
4.2316599 -19.280128 -1.9511383
6.5766211 -18.791237 -1.9679235
3.1441209 -7.761179 -0.82772678
9.7528124 -17.621111 -1.9907763
10.191153 -17.408428 -1.9939423
11.053242 -16.949566 -2.0001779
11.476406 -16.703594 -2.0032434
13.109297 -15.612235 -2.015106
13.501113 -15.313204 -2.017961
14.632617 -14.355556 -2.0262277
14.99418 -14.016796 -2.028877
15.692226 -13.310986 -2.034004
16.028202 -12.944325 -2.0364776
16.35504 -12.568828 -2.0388885
16.672636 -12.184763 -2.0412352
18.111992 -10.143243 -2.0519426
16.914707 -8.9438362 -1.8913052
17.140938 -8.5409431 -1.8930072
17.757284 -7.2973056 -1.897678
17.941406 -6.8719821 -1.899086
18.114609 -6.4417968 -1.9004171
20.870352 -2.103704 -2.0734205
20.919785 -1.6000586 -2.0738888
20.956036 -1.0952655 -2.0742638
20.979239 -0.58958066 -2.0745461
20.986153 0.42284971 -2.0748305
20.969862 0.92885923 -2.0748322
20.940411 1.4343066 -2.0747402
20.842226 2.4419017 -2.074276
20.489843 4.4339805 -2.0722334
19.055527 4.6073585 -1.9378527
18.635098 4.9843712 -1.9067709
18.501268 5.4299412 -1.9059231
18.355938 5.871727 -1.9049923
18.199316 6.3093662 -1.9039806
16.260723 6.5317321 -1.7321448
14.233047 6.5310507 -1.5479341
13.371777 6.5307617 -1.4709731
12.591719 6.5304966 -1.4020846
11.214218 6.5207615 -1.2822577
10.616035 6.5205588 -1.2314939
8.6248827 6.5198741 -1.0687169
8.2055273 6.5197301 -1.0359447
7.8108788 6.5195923 -1.0056857
7.438457 6.5194616 -0.97769958
7.0859766 6.5193381 -0.95176589
6.6647458 6.4354053 -0.91577327
6.3506837 6.4352942 -0.89369464
6.1340818 6.5232577 -0.88510108
5.5662498 6.5230551 -0.84762383
4.796504 6.522778 -0.80030549
4.5582032 6.5226917 -0.78657484
4.3277926 6.5226073 -0.77374816
4.1047068 6.5225253 -0.76176983
3.8882616 6.5224462 -0.7505849
3.0791991 6.522141 -0.71292388
2.5200782 6.5219288 -0.69111919
2.340879 6.5218601 -0.68492752
2.1647851 6.5217929 -0.67923814
1.9914649 6.5217261 -0.6740306
1.4647558 6.4292111 -0.6517843
1.1417773 6.4290819 -0.64543235
0.35958984 6.5125499 -0.64471829
-0.11204101 6.5123534 -0.64381397
-0.26925781 6.5122886 -0.64426309
-0.42679685 6.5122228 -0.64508659
