# .PCD v0.7 - Point Cloud Data file format
VERSION 0.7
FIELDS x y z
SIZE 4 4 4
TYPE F F F
COUNT 1 1 1
WIDTH 1503
HEIGHT 1
VIEWPOINT 0 0 0 1 0 0 0
POINTS 1503
DATA ascii
6.5893946 -6.8764439 -1.8179001
6.7579098 -6.7200584 -1.819128
7.9408007 -5.8860092 -1.8867
8.921855 -5.3648748 -1.9871472
9.0531445 -5.1506553 -1.9881252
9.1790428 -4.9331546 -1.9890661
9.299551 -4.7124777 -1.9899697
9.414629 -4.4887619 -1.9908352
9.5241013 -4.2621665 -1.9916619
9.6279097 -4.0328312 -1.9924494
9.7260542 -3.8008599 -1.9931973
9.8183784 -3.5664592 -1.9939047
9.9048433 -3.3297439 -1.9945711
9.9853907 -3.0908442 -1.9951962
10.05998 -2.8499572 -1.9957796
10.191015 -2.362776 -1.9968196
10.247382 -2.1167681 -1.9972754
10.297578 -1.8693994 -1.9976878
10.341543 -1.6208032 -1.9980567
10.410859 -1.1205578 -1.9986632
10.455019 -0.61734617 -1.9990923
10.473926 0.14016968 -1.9994024
10.467578 0.39273316 -1.9994161
10.454883 0.64505982 -1.9993854
10.435918 0.89698362 -1.9993097
10.379004 1.3989874 -1.9990243
10.341171 1.6487219 -1.9988149
10.246797 2.144892 -1.998263
10.190351 2.3909845 -1.9979213
10.127792 2.635565 -1.9975357
10.059101 2.8784344 -1.9971068
9.9036522 3.3584979 -1.9961195
9.4125776 4.5183353 -1.9929172
8.989316 4.5850992 -1.9261513
8.5072851 4.6011395 -1.8461274
8.3339252 4.7706647 -1.8329458
8.086894 5.1623344 -1.8312901
7.6809764 5.7249079 -1.8285512
7.5366211 5.9053264 -1.8275725
7.387949 6.0820098 -1.8265623
7.2349801 6.254849 -1.8255212
6.9166989 6.5886078 -1.8233485
6.751543 6.7492986 -1.8222113
6.2145114 6.5196829 -1.7192245
5.9209962 6.5196013 -1.681046
5.1116991 6.5193658 -1.5812942
4.3895116 6.5191522 -1.5001302
4.1645312 6.5190825 -1.4765649
3.9464257 6.5190153 -1.4545629
3.5284765 6.5188847 -1.4148759
3.0936522 6.4392228 -1.3635805
2.9026952 6.4349051 -1.347445
2.7178514 6.4348454 -1.333316
2.040293 6.5226483 -1.304499
1.5326757 6.522471 -1.2788882
1.367539 6.5224099 -1.2720367
1.0420898 6.5222917 -1.2607338
0.88130856 6.5222306 -1.256247
0.56277341 6.5221124 -1.2495354
0.40457031 6.5220513 -1.247291
0.089433588 6.5219302 -1.2449918
-0.54101562 6.5216751 -1.2491037
-1.0198632 6.5214777 -1.2599188
-1.3448242 6.5213385 -1.2709552
-2.91167 6.512116 -1.3615927
-3.2971289 6.5119367 -1.3932141
-3.4969041 6.5118413 -1.4108334
-3.9126074 6.5116425 -1.4500265
-4.1294923 6.5115399 -1.4717604
-4.3531151 6.5114298 -1.4950376
-5.0705762 6.5110769 -1.5752145
-6.5349021 6.2662883 -1.7281649
-6.8211617 5.9366508 -1.7260641
-6.9583006 5.7670221 -1.7250552
-7.3448339 5.240181 -1.7221993
-7.4652538 5.0588861 -1.721306
-7.5812597 4.8749237 -1.7204429
-7.9191895 4.568079 -1.7450513
-8.3533783 4.5536261 -1.8159877
-8.7903709 4.2554569 -1.8641537
-8.9784565 3.823693 -1.8627232
-9.0648241 3.6047637 -1.8620617
-9.2220993 3.1613758 -1.8608465
-9.2929001 2.937171 -1.8602935
-9.358428 2.7114184 -1.8597778
-9.4735937 2.2558844 -1.8588575
-9.5232029 2.0262847 -1.8584533
-9.5674114 1.7956671 -1.8580871
-9.667676 1.0987433 -1.857216
-9.6902246 0.86515987 -1.8570023
-9.7073536 0.63114804 -1.8568264
-9.7190523 0.39679503 -1.8566891
-9.7213373 -0.3068811 -1.8565092
-9.7112103 -0.54124755 -1.8565263
-9.6956148 -0.77532589 -1.8565822
-9.6745796 -1.0090057 -1.8566765
-9.6162596 -1.4745935 -1.8569806
-9.5789747 -1.7062994 -1.8571903
-9.5363083 -1.9370831 -1.857438
-9.3762007 -2.6228485 -1.8584106
-9.2430172 -3.0733063 -1.8592474
-9.1685152 -3.2961876 -1.8597223
-9.0040236 -3.7365921 -1.8607827
-8.7190523 -4.3821764 -1.8626474
-8.2695894 -5.210062 -1.8656325
-8.1451559 -5.4104223 -1.8664657
-8.0160351 -5.6078844 -1.8673327
-7.8822751 -5.8023767 -1.8682331
-7.6247263 -5.9015708 -1.8404058
-7.2667089 -5.910131 -1.7878854
-6.7239356 -6.0300994 -1.7239664
-6.432734 -6.3546271 -1.7259496
-6.2813573 -6.5118232 -1.7269833
-6.1262302 -6.6655111 -1.7280444
-5.9674511 -6.8156161 -1.7291321
-5.6391892 -7.1047063 -1.7313857
-5.4698825 -7.2435069 -1.7325506
-4.760078 -7.7586179 -1.7374493
-4.3869333 -7.9910092 -1.7400335
-4.0025783 -8.205821 -1.7427011
-3.4069531 -8.4938793 -1.7468454
-2.998291 -8.662385 -1.7496954
-2.581367 -8.811552 -1.7526087
-2.1570995 -8.9409027 -1.7555783
-1.726416 -9.0500574 -1.758598
-1.2902148 -9.1386795 -1.7616613
-1.0704297 -9.1751728 -1.763207
-0.84953123 -9.2064352 -1.7647614
-0.18212891 -9.268404 -1.7694659
0.04154297 -9.2783728 -1.7710451
0.26550782 -9.282959 -1.7726274
0.714082 -9.2759428 -1.7758007
1.3865429 -9.22474 -1.7805672
1.8330272 -9.163435 -1.7837383
2.2767773 -9.0804291 -1.7868952
2.4973438 -9.0308094 -1.7884661
2.7167773 -8.9757929 -1.7900305
2.9349999 -8.9154177 -1.7915875
3.1519139 -8.8496761 -1.7931362
3.3673241 -8.7786093 -1.7946758
3.5810742 -8.7022619 -1.796205
3.7931445 -8.6206388 -1.7977237
4.0033398 -8.533782 -1.7992297
4.8224802 -8.134985 -1.8051143
5.0212302 -8.0226774 -1.8065457
5.2174215 -7.9054008 -1.8079602
5.6010938 -7.6563582 -1.8107308
5.9726562 -7.388298 -1.8134204
6.3310351 -7.1018372 -1.8160211
6.5049996 -6.9519463 -1.8172859
6.8418941 -6.6391306 -1.8197405
7.0046091 -6.476409 -1.8209289
7.163281 -6.3096261 -1.8220898
7.3179684 -6.1388297 -1.8232232
8.552597 -5.8701701 -1.9800175
8.7162104 -5.6782408 -1.9856204
8.8552341 -5.4691978 -1.9866519
8.9891014 -5.2566528 -1.987648
9.1176167 -5.040781 -1.9886068
9.6783981 -3.9155033 -1.9928339
9.773613 -3.6823089 -1.993561
9.8629103 -3.4467418 -1.9942474
10.023965 -2.9689493 -1.9954972
10.095488 -2.7271242 -1.9960592
10.273594 -1.9915271 -1.9974899
10.320663 -1.7434527 -1.9978802
10.361485 -1.4943206 -1.9982272
10.396074 -1.2442065 -1.9985299
10.462226 -0.48948851 -1.9991733
10.471641 -0.23697387 -1.9992983
10.474727 0.015622558 -1.9993789
10.471484 0.26822144 -1.9994149
10.360586 1.5257519 -1.9989237
10.272344 2.0231018 -1.9984155
10.218925 2.2698729 -1.9980952
10.159394 2.5151842 -1.9977313
10.093711 2.7589698 -1.9973235
10.021973 3.0008996 -1.9968728
9.9442186 3.240907 -1.9963788
9.5742579 4.1788044 -1.9939815
9.4673634 4.4069209 -1.9932785
9.2450581 4.5778899 -1.9691658
8.7373629 4.5921464 -1.8840597
8.3918161 4.6722369 -1.8333322
8.2731638 4.8711443 -1.8325393
8.0211716 5.2595878 -1.8308483
7.8881445 5.4488201 -1.8299518
7.7504687 5.6346598 -1.8290216
7.1558008 6.3410149 -1.8249813
6.9966211 6.5078545 -1.8238946
5.7769918 6.5195599 -1.6626843
5.5020509 6.5194802 -1.6283411
0.48921874 6.5219512 -1.4017156
-0.45628905 6.5215778 -1.4011264
-0.6146484 6.521513 -1.4038903
-0.77373046 6.5214472 -1.407485
-0.93371093 6.5213799 -1.4119205
-1.257207 6.5212421 -1.4233747
-2.0769336 6.4603314 -1.4543774
-2.2391601 6.4285064 -1.45895
-2.4145019 6.4284267 -1.4717242
-2.5964844 6.4368658 -1.4875635
-2.9995701 6.511929 -1.5365887
-3.1920898 6.5118389 -1.5542867
-4.4326954 6.8194537 -1.7431959
-4.5927243 6.7059746 -1.7419993
-4.75 6.5889459 -1.74086
-4.9043751 6.4683084 -1.7397406
-5.0557518 6.3441253 -1.7386413
-5.2040524 6.2164884 -1.737563
-5.3492284 6.085463 -1.736506
-5.4911718 5.9511261 -1.7354711
-5.6297946 5.813571 -1.734459
-5.7651072 5.6728559 -1.7334695
-6.0253124 5.3823247 -1.7315621
-6.1501074 5.2326651 -1.7306451
-6.2712889 5.0801921 -1.7297528
-6.5025196 4.7671576 -1.728045
-6.6124997 4.6067705 -1.7272301
-7.2583008 4.5531268 -1.8363605
-7.5138865 4.4646134 -1.8732275
-7.7142382 4.0937848 -1.8717246
-7.8077927 3.9050763 -1.8710192
-7.8968453 3.7142925 -1.8703451
-7.9813867 3.5215373 -1.8697026
-8.1367579 3.1305749 -1.8685131
-8.2074804 2.9325609 -1.867967
-8.2735443 2.7330089 -1.8674532
-8.4434271 2.1261671 -1.8661109
-8.4904976 1.9215204 -1.8657305
-8.5702639 1.5093139 -1.8650707
-8.6306343 1.0939801 -1.8645471
-8.6535444 0.88540339 -1.8643365
-8.6929388 0.257395 -1.8639119
-8.6962595 0.047653809 -1.8638395
-8.6606836 -0.79031795 -1.8638961
-8.6135836 -1.2071881 -1.864132
-8.5470705 -1.6214776 -1.8645059
-8.5065527 -1.8273801 -1.8647445
-8.4612494 -2.0323093 -1.8650171
-8.4111719 -2.2361538 -1.8653238
-8.3562889 -2.4388082 -1.8656646
-8.2324314 -2.8401227 -1.866447
-7.9288864 -3.623764 -1.8684106
-7.8415723 -3.8151088 -1.8689834
-7.749795 -4.0044227 -1.8695883
-7.4479785 -4.5591245 -1.8715932
-7.2252049 -4.916893 -1.873085
-7.1075387 -5.0918694 -1.8738763
-6.9857125 -5.264111 -1.8746976
-6.8598437 -5.4335327 -1.875548
-6.4281836 -5.8961277 -1.8694797
-5.8504004 -5.910337 -1.782353
-5.4055662 -6.0153146 -1.7332911
-5.2619138 -6.1474223 -1.7342761
-5.115088 -6.2761908 -1.7352842
-4.9651756 -6.4015312 -1.736315
-4.6564059 -6.6416397 -1.7384422
-4.4977145 -6.7562675 -1.7395376
-4.3362207 -6.8671842 -1.7406536
-4.1720505 -6.9743156 -1.7417893
-3.6642969 -7.2723694 -1.7453101
-2.9550488 -7.6130042 -1.7502453
-2.0251563 -7.9426103 -1.7567434
-1.8344042 -7.9952216 -1.7580798
-1.4489648 -8.0867987 -1.7607839
-1.2544335 -8.1256933 -1.7621503
-1.0589453 -8.1599398 -1.7635244
-0.86249995 -8.1895199 -1.7649064
-0.43855467 -7.7276597 -1.6588769
-0.25503907 -7.8275304 -1.6785071
-0.069785155 -8.2606001 -1.7704948
0.32916015 -8.2674952 -1.7733139
0.72859371 -8.2551517 -1.7761407
0.92822266 -8.2417326 -1.7775553
1.3266797 -8.200408 -1.7803824
1.7233007 -8.1397524 -1.7832006
1.9206641 -8.1022024 -1.7846049
2.1171484 -8.0598373 -1.7860039
2.5072265 -7.9607463 -1.7887851
2.8926365 -7.8426352 -1.7915378
3.4599023 -7.6302342 -1.7955979
4.0113087 -7.3763413 -1.7995557
4.3686132 -7.1845727 -1.8021264
4.5437889 -7.0820837 -1.803389
4.7165232 -6.9752507 -1.8046349
4.8867188 -6.8641491 -1.8058643
5.695488 -6.2465839 -1.8117267
5.9973044 -5.9719095 -1.8139246
6.5126171 -5.8875761 -1.8816183
6.8274021 -5.8791952 -1.9310203
7.5387497 -5.3188653 -1.9773788
7.6685348 -5.1379833 -1.9783385
7.7939062 -4.9538727 -1.9792678
7.9146872 -4.7666154 -1.9801654
8.030859 -4.5763392 -1.9810309
8.1423044 -4.383163 -1.981864
8.2490034 -4.1871986 -1.9826641
8.5395699 -3.5838213 -1.984859
8.7846088 -2.9598496 -1.9867367
8.855937 -2.7478914 -1.9872903
9.0379295 -2.1019542 -1.9887276
9.0878706 -1.8837496 -1.9891311
9.1713276 -1.4438207 -1.9898238
9.2048044 -1.2223834 -1.9901119
9.2327728 -1.0001563 -1.9903615
9.2551947 -0.77727234 -1.9905719
9.2833204 -0.33011231 -1.9908748
9.2890234 -0.1061261 -1.9909674
9.2891407 0.11794006 -1.9910202
9.2336912 1.0121331 -1.9908365
9.0397854 2.1144996 -1.9897219
8.9241018 2.5470366 -1.9890046
8.8582029 2.7609491 -1.9885887
8.6290035 3.3916337 -1.9871148
8.542285 3.5977397 -1.9865496
8.353652 4.0029802 -1.9853103
8.2518549 4.2018619 -1.9846368
8.1452341 4.3980927 -1.9839287
7.2188864 4.6012664 -1.8347214
6.944531 4.9128547 -1.8231552
6.8208594 5.07658 -1.822319
5.5406637 6.3956928 -1.8135744
5.2194333 6.6473112 -1.8113617
5.0544333 6.7670035 -1.8102231
4.6285157 6.5190616 -1.7135142
4.170742 6.5189276 -1.6586218
3.9524219 6.5188627 -1.6338677
3.0990233 6.4390788 -1.5315427
2.9079297 6.4347625 -1.5133871
2.7229881 6.4347053 -1.4974889
2.2192969 6.5225701 -1.4766246
1.8735937 6.5224528 -1.4544265
1.704414 6.5223942 -1.4448236
1.5373633 6.5223355 -1.4361774
1.3721679 6.5222769 -1.4284589
1.0466406 6.5221586 -1.4157188
0.72613281 6.5220404 -1.406445
0.56724608 6.5219817 -1.4030725
0.25132811 6.5218596 -1.3988073
0.093906246 6.5217972 -1.3979013
-0.063398436 6.5217361 -1.39781
-0.22078125 6.5216727 -1.398531
-0.37843749 6.5216084 -1.400068
-1.0152539 6.5213447 -1.4144961
-1.1769922 6.521276 -1.4202272
-1.5049218 6.5211344 -1.4343503
-1.8402051 6.5209856 -1.452167
-2.5046289 6.4283843 -1.4786155
-2.688457 6.4368229 -1.4950415
-2.9062598 6.5119729 -1.5283378
-3.0966308 6.5118828 -1.5453992
-3.291455 6.5117898 -1.563768
-3.4910741 6.5116949 -1.5835088
-4.5141697 6.7623281 -1.7425772
-5.1313477 6.2798343 -1.7380918
-5.2780857 6.1504607 -1.7370242
-5.4216309 6.0177507 -1.7359785
-5.8324022 5.6003327 -1.7329769
-5.9624805 5.45503 -1.7320232
-6.3313475 5.0018277 -1.7293098
-6.5587792 4.6861429 -1.7276285
-6.7363086 4.5716581 -1.744828
-7.0800681 4.5595012 -1.8048544
-7.5663376 4.3714519 -1.872835
-7.8535252 3.8085797 -1.8706735
-7.9403024 3.6167912 -1.8700153
-8.0225487 3.4230742 -1.8693887
-8.1001654 3.227572 -1.8687943
-8.173193 3.0303686 -1.8682321
-8.2415619 2.8315587 -1.8677022
-8.3642282 2.4295936 -1.8667415
-8.418437 2.2266364 -1.866311
-8.4678907 2.0225182 -1.865914
-8.5524025 1.6112298 -1.8652205
-8.5874023 1.4042664 -1.8649249
-8.6428709 0.98828244 -1.864436
-8.663291 0.77944946 -1.8642431
-8.6894722 0.36074096 -1.8639605
-8.6952248 0.15104614 -1.863871
-8.6920404 -0.2684198 -1.8637958
-8.6270018 -1.10466 -1.8640611
-8.4841795 -1.9314331 -1.8648783
-8.4364357 -2.1358206 -1.8651685
-8.3266697 -2.5410812 -1.8658502
-8.2646875 -2.7417464 -1.8662417
-8.1980276 -2.9409413 -1.8666668
-8.1267185 -3.1385808 -1.8671249
-8.0507812 -3.3345463 -1.8676162
-7.9702539 -3.528729 -1.8681403
-7.7015524 -4.0996118 -1.8699071
-7.2816992 -4.8296661 -1.8727059
-7.1660547 -5.0059571 -1.8734826
-6.7944627 -5.5183301 -1.8759905
-6.5267673 -5.8452082 -1.8778071
-5.9878221 -5.9070201 -1.8026919
-5.475215 -5.9489794 -1.7328143
-5.3331251 -6.0827155 -1.7337875
-5.1878419 -6.2131462 -1.7347845
-5.039453 -6.3401814 -1.7358041
-4.8880076 -6.4637589 -1.736846
-4.7335839 -6.5837994 -1.7379102
-4.2532911 -6.9219894 -1.7412274
-4.087822 -7.0271764 -1.7423728
-3.9197655 -7.1284847 -1.7435373
-3.5763378 -7.3192029 -1.7459211
-3.4011328 -7.4084921 -1.747139
-3.2237597 -7.4936609 -1.7483734
-2.8627539 -7.6513915 -1.7508891
-2.6793456 -7.7238512 -1.7521691
-2.4941211 -7.7919803 -1.7534628
-2.1186426 -7.9150157 -1.7560889
-1.928584 -7.9698515 -1.7574201
-1.3504688 -8.1070986 -1.7614754
-0.95943356 -8.1755285 -1.7642242
-0.76259762 -8.2027254 -1.7656097
-0.34603515 -7.7780185 -1.6686538
0.43042967 -8.2661963 -1.7740301
0.63013673 -8.2599821 -1.7754437
0.82986325 -8.2489471 -1.7768582
1.0293554 -8.2330856 -1.7782726
2.0203905 -8.0813131 -1.7853149
2.2164452 -8.0365248 -1.7867117
2.4114842 -7.9869385 -1.788102
2.9895117 -7.8096843 -1.7922301
3.179414 -7.7411771 -1.7935889
3.5543163 -7.5902023 -1.7962747
3.7390819 -7.5078101 -1.7976004
4.4577341 -7.1331449 -1.8027688
4.8031249 -6.9194427 -1.8052605
4.971992 -6.8061876 -1.8064809
5.6191015 -6.311914 -1.8111711
5.92416 -6.0410094 -1.8133911
6.0708399 -5.8990192 -1.8142049
6.6702733 -5.8834023 -1.9062185
7.1962891 -5.7549224 -1.9748563
7.3368359 -5.5826058 -1.9758898
7.4731445 -5.4067802 -1.9768945
7.6051364 -5.2275548 -1.9778695
7.8557224 -4.8593006 -1.9797268
8.0879879 -4.478734 -1.9814578
8.1970119 -4.284132 -1.9822738
8.3012304 -4.0867982 -1.9830565
8.400547 -3.8868756 -1.9838055
8.4949217 -3.6844656 -1.9845196
8.5842381 -3.4797003 -1.985199
8.6684761 -3.2727187 -1.9858427
8.7475586 -3.0636392 -1.9864504
8.8214455 -2.8525934 -1.987022
9.0113668 -2.2090242 -1.9885147
9.0639648 -1.9914649 -1.9889371
9.2448244 -0.88720638 -1.990473
9.2644339 -0.6640411 -1.9906635
9.2868948 -0.21654785 -1.9909265
9.2897654 0.0074926754 -1.9909987
9.2787104 0.4554669 -1.9910251
9.220293 1.1249621 -1.9907681
9.1897459 1.3468939 -1.9906036
9.1536131 1.5679815 -1.9903997
9.112051 1.7880688 -1.9901568
8.9546089 2.4409947 -1.9891957
8.8913479 2.655725 -1.9887985
8.822773 2.8687553 -1.9883631
8.7489452 3.0799799 -1.9878902
8.5857029 3.4964228 -1.986833
8.4020119 3.9040129 -1.9856291
8.3026562 4.104156 -1.9849733
8.0893164 4.4965386 -1.9835562
7.3959961 4.5915275 -1.8657671
7.1213865 4.6627054 -1.8243475
6.8823242 4.9962678 -1.8227348
6.75666 5.1583953 -1.8218842
5.923574 6.0599518 -1.8162036
5.7724218 6.1975017 -1.8151668
5.2997265 6.5868034 -1.8119154
5.1361132 6.7085247 -1.810787
4.5095701 6.5190277 -1.6988788
4.0592189 6.5188947 -1.6458558
3.4316797 6.5187054 -1.5788598
3.2333007 6.5186429 -1.5594985
2.6306446 6.4346747 -1.4898803
2.130625 6.5225396 -1.4706079
1.9578124 6.5224819 -1.4595208
1.6194335 6.5223637 -1.4403224
1.2890821 6.5222478 -1.4248931
1.1263477 6.5221882 -1.4185312
0.32904297 6.5218902 -1.3995544
-0.45853513 6.5215778 -1.4011602
-0.61691403 6.5215116 -1.4039347
-0.77599609 6.5214472 -1.4075418
-0.93601561 6.5213785 -1.4119914
-1.2595508 6.5212407 -1.4234682
-1.4234766 6.5211711 -1.4305344
-1.9266015 6.5209489 -1.457297
-2.241621 6.4285049 -1.4591246
-2.4170215 6.4284258 -1.4719135
-3.3920605 6.5117426 -1.5736032
-4.4349804 6.817873 -1.7431787
-4.7522264 6.5872588 -1.7408439
-4.9065528 6.4665627 -1.7397246
-5.0578904 6.3423371 -1.7386258
-5.2061524 6.2146487 -1.7375478
-5.3512597 6.08357 -1.7364912
-5.6317577 5.8115945 -1.7344445
-5.8987889 5.5270219 -1.7324905
-6.0271192 5.3802176 -1.731549
-6.1518555 5.2305255 -1.7306323
-6.2729783 5.0780096 -1.7297403
-6.6140428 4.6044745 -1.7272186
-6.9077635 4.565618 -1.7746414
-7.5153904 4.4620075 -1.8732162
-7.6176658 4.2777081 -1.8724502
-7.7156053 4.091125 -1.8717145
-7.8090916 3.9023747 -1.8710095
-8.1377926 3.1277704 -1.868505
-8.3357515 2.5291595 -1.866966
-8.4441013 2.1232719 -1.8661056
-8.4911327 1.9186028 -1.8657254
-8.5707617 1.5063788 -1.8650665
-8.6310053 1.0910224 -1.8645437
-8.6930075 0.25441161 -1.8639107
-8.6767092 -0.58416075 -1.8638307
-8.6604195 -0.79328918 -1.8638972
-8.6392279 -1.0019811 -1.8639987
-8.4104099 -2.2390378 -1.8653283
-8.3554878 -2.4416809 -1.8656695
-8.2314844 -2.8429513 -1.8664529
-8.1624413 -3.0413654 -1.866895
-7.9276853 -3.626487 -1.8684186
-7.5514841 -4.3791361 -1.8709033
-7.3371482 -4.7418175 -1.8723342
-7.2235546 -4.9193983 -1.873096
-7.1058397 -5.0943356 -1.8738875
-6.9839454 -5.2665396 -1.8747095
-6.728076 -5.6023631 -1.8764404
-6.1283884 -5.9035864 -1.8237566
-5.5769529 -5.9168096 -1.7426347
-5.112988 -6.2779942 -1.7352988
-4.963027 -6.4032874 -1.7363298
-4.8100586 -6.5250802 -1.7373829
-4.4954295 -6.7578678 -1.7395532
-4.0029101 -7.0790386 -1.7429609
-3.311455 -7.4522028 -1.747763
-3.1329882 -7.5352488 -1.7490054
-2.9524608 -7.6140957 -1.7502635
-2.7699804 -7.6886754 -1.7515364
-2.3995311 -7.8248501 -1.7541238
-2.0224512 -7.9433913 -1.7567624
-1.8316797 -7.995935 -1.7580991
-0.66248047 -8.2147217 -1.766315
-0.066953123 -8.2607098 -1.7705148
0.13236327 -8.2664871 -1.7719228
0.33199218 -8.2674732 -1.7733339
0.7314648 -8.2549877 -1.7761612
0.9310742 -8.2415094 -1.7775756
1.7261328 -8.1392584 -1.7832208
1.9234179 -8.1016254 -1.7846246
2.1199219 -8.0591984 -1.7860239
2.5099804 -7.9599776 -1.7888049
2.7033007 -7.9032178 -1.7901849
2.8953514 -7.8417292 -1.791557
3.0859766 -7.7755256 -1.7929204
3.648242 -7.5489893 -1.7969486
4.0138865 -7.3750424 -1.7995743
4.718945 -6.9737048 -1.8046526
4.8891406 -6.8625326 -1.805882
5.056582 -6.7471442 -1.8070925
5.999414 -5.9699125 -1.8139398
6.2173634 -5.895267 -1.8363022
6.5170116 -5.8874612 -1.8822986
7.1255078 -5.8385277 -1.9743359
7.268086 -5.6679888 -1.9753839
7.7956443 -4.9512396 -1.9792807
7.9163671 -4.7639318 -1.9801779
8.0324612 -4.5736156 -1.9810431
8.1438475 -4.3804049 -1.9818755
8.2504683 -4.1843925 -1.9826751
8.3522263 -3.9857352 -1.9834406
8.4490423 -3.7845373 -1.9841722
8.5408392 -3.5809093 -1.9848685
8.7092581 -3.1669488 -1.9861556
8.7856836 -2.9568453 -1.986745
8.8568745 -2.7448621 -1.9872977
8.9228516 -2.5311153 -1.9878138
8.9834766 -2.3157251 -1.9882927
9.0386915 -2.0988801 -1.9887336
9.0885544 -1.8806432 -1.9891368
9.171855 -1.4406976 -1.9898283
9.2052536 -1.2192358 -1.9901159
9.2554684 -0.77411437 -1.9905746
9.2834377 -0.32693785 -1.9908764
9.2890425 -0.1029541 -1.9909681
9.2890816 0.12112488 -1.9910204
9.2724018 0.568905 -1.9910067
9.2556248 0.79235774 -1.9909402
9.1721287 1.4591309 -1.9905052
9.1332226 1.6797241 -1.9902815
8.9232025 2.5500836 -1.988999
8.8572264 2.763983 -1.9885824
8.7860155 2.9761107 -1.9881282
8.6278124 3.3945868 -1.9871072
8.5409956 3.6006377 -1.9865413
7.9953904 4.5732365 -1.9740994
7.5866208 4.5857611 -1.8999406
7.2144723 4.6019464 -1.8340054
7.0625782 4.7484236 -1.8239514
6.9428124 4.9151945 -1.8231436
6.8191013 5.078887 -1.822307
6.6914649 5.2393765 -1.8214418
6.5599217 5.396585 -1.8205487
6.4245896 5.5504365 -1.8196273
6.1430078 5.8475885 -1.8177056
5.9968553 5.9907575 -1.8167056
5.8473434 6.1301823 -1.8156809
5.6944919 6.2657952 -1.8146319
5.5384178 6.3975396 -1.8135589
5.2171288 6.6490436 -1.8113458
4.6251369 6.5190592 -1.7130947
4.1675978 6.5189261 -1.6582577
3.5312891 6.5187359 -1.5889251
2.720371 6.4347038 -1.49727
2.5392187 6.4346452 -1.4825702
2.0426757 6.5225101 -1.4648577
1.7020313 6.5223942 -1.4446961
1.3698633 6.5222759 -1.4283572
1.0443554 6.5221586 -1.4156405
0.72386718 6.5220404 -1.4063913
0.565 6.5219803 -1.403031
0.24910156 6.5218582 -1.3987881
-0.065644532 6.5217352 -1.397814
-0.53874999 6.5215445 -1.4024639
-0.69748044 6.5214787 -1.4056588
-0.85701168 6.5214114 -1.4096917
-1.3424804 6.521204 -1.4269383
-2.3301854 6.4284649 -1.4654748
-2.507158 6.4283843 -1.4788144
-2.6910644 6.4368229 -1.4952573
-3.099375 6.5118814 -1.5456502
-3.4939549 6.5116935 -1.5837998
-3.9094627 6.5114908 -1.6277626
-4.1262794 6.5113835 -1.6521397
-4.6750488 6.6454229 -1.7414031
-4.8308396 6.5264969 -1.740274
-4.9836717 6.4040079 -1.7391649
-5.1334567 6.278017 -1.7380764
-5.4236231 6.0158405 -1.7359641
-5.5638375 5.8798184 -1.7349408
-5.7007618 5.7405939 -1.7339404
-5.8342576 5.5982852 -1.7329633
-6.2137399 5.1535234 -1.7301767
-6.3330078 4.9996271 -1.7292976
-6.5603318 4.6838603 -1.7276168
-7.0850973 4.5593204 -1.8057418
-7.5678024 4.3688335 -1.8728241
-7.7635837 3.9956694 -1.8713528
-7.854785 3.8058648 -1.8706639
-8.0236616 3.4203253 -1.8693801
-8.1012306 3.2247772 -1.8687862
-8.1741991 3.0275512 -1.8682243
-8.2424994 2.8287256 -1.8676951
-8.3650293 2.4267156 -1.8667352
-8.4685545 2.0196075 -1.8659085
-8.5529099 1.6082983 -1.8652164
-8.5878706 1.4013348 -1.864921
-8.6431932 0.98531246 -1.8644331
-8.6635542 0.77649415 -1.8642406
-8.6790037 0.56726015 -1.8640825
-8.689599 0.35775694 -1.8639588
-8.6952829 0.1480719 -1.8638699
-8.6919527 -0.27140319 -1.8637958
-8.6829491 -0.48095763 -1.8638107
-8.6690626 -0.69026488 -1.8638601
-8.6502924 -0.89918089 -1.8639444
-8.6266212 -1.1076105 -1.864063
-8.5647554 -1.5226043 -1.864404
-8.4357224 -2.1387198 -1.8651727
-8.2637892 -2.744592 -1.8662474
-8.1256933 -3.1413705 -1.8671314
-7.9690719 -3.5314784 -1.868148
-7.8839355 -3.7237556 -1.8687053
-7.4987597 -4.4720054 -1.8712543
-6.5248141 -5.8474846 -1.8778204
-6.2722754 -5.9000287 -1.8455645
-5.9838281 -5.9071164 -1.8021005
-5.7083302 -5.9137206 -1.7615881
-5.4732323 -5.9509034 -1.7328277
-5.3310742 -6.0845895 -1.7338015
-5.1857615 -6.2149758 -1.7347989
-5.037324 -6.3419666 -1.7358187
-4.8858204 -6.4654832 -1.7368612
-4.7313571 -6.5854821 -1.7379254
-4.250957 -6.9235106 -1.7412432
-3.9173632 -7.1298923 -1.743554
-3.7468066 -7.2271976 -1.7447371
-3.5738573 -7.3205013 -1.7459384
-3.3986328 -7.4097376 -1.7471565
-2.8601658 -7.6524487 -1.7509071
-2.4914746 -7.7929106 -1.7534813
-2.3045213 -7.8565869 -1.7547882
-2.1159668 -7.9158325 -1.7561078
-1.9258789 -7.9706006 -1.7574389
-1.734414 -8.020854 -1.758781
-1.5416601 -8.0665388 -1.760133
-0.52490234 -7.6806436 -1.6499753
0.034101561 -8.264245 -1.7712284
0.23359375 -8.2675934 -1.7726382
0.43322265 -8.2661333 -1.77405
0.63296872 -8.259861 -1.7754638
0.8326562 -8.2487555 -1.776878
1.0321875 -8.2328234 -1.7782928
1.2314453 -8.21206 -1.7797064
1.6285937 -8.1560278 -1.7825273
1.82625 -8.120779 -1.783933
2.0231836 -8.0807161 -1.7853346
2.6082032 -7.9317837 -1.7895058
2.8008788 -7.8726263 -1.7908819
2.9922266 -7.8087468 -1.7922497
3.1820703 -7.7401714 -1.7936077
3.3703516 -7.666934 -1.7949562
4.1052732 -7.3280749 -1.8002313
4.4602146 -7.1316886 -1.8027865
4.6341405 -7.0269308 -1.8040408
4.9743552 -6.8045459 -1.8064979
5.1404295 -6.6870408 -1.8076996
5.4639845 -6.4397297 -1.8100448
5.6212888 -6.3100443 -1.8111871
5.9263086 -6.0390339 -1.8134066
6.0749412 -5.8989158 -1.8148144
6.3674803 -5.8913794 -1.8592117
7.3388085 -5.5801396 -1.9759042
7.6069531 -5.2249789 -1.977883
8.198554 -4.2813525 -1.9822854
8.3026953 -4.0839763 -1.9830676
8.6696482 -3.2697604 -1.9858516
8.8910351 -2.6366775 -1.9875643
8.9542379 -2.4220932 -1.9880612
9.0121288 -2.20595 -1.9885207
9.0646486 -1.9883597 -1.9889425
9.1894531 -1.3284918 -1.9899789
9.2451172 -0.88404536 -1.9904758
9.2786322 -0.43726501 -1.9908166
9.2870111 -0.21337402 -1.9909281
9.286972 0.23473327 -1.991032
9.2199221 1.1281146 -1.9907659
9.1114063 1.7911919 -1.9901532
9.0117188 2.2278118 -1.9895499
8.9537697 2.4440589 -1.9891903
8.8217573 2.8717644 -1.9883566
8.6687107 3.2922015 -1.9873724
8.5844727 3.4993427 -1.9868249
8.495039 3.7042913 -1.9862405
8.3012304 4.1069732 -1.9849638
7.002285 4.8333745 -1.8235449
6.8806052 4.9985929 -1.822723
6.4917965 5.4750247 -1.8200849
6.3545704 5.6271195 -1.8191501
6.2137303 5.7756815 -1.818189
5.7702537 6.1994314 -1.8151519
5.6157618 6.3330889 -1.8140908
5.4581056 6.4628315 -1.8130063
5.1337891 6.710218 -1.8107709
4.5062695 6.5190263 -1.698475
3.6322069 6.5187664 -1.5993452
3.2305079 6.5186419 -1.5592331
2.4821875 6.5226579 -1.4957434
2.1281641 6.5225396 -1.4704443
1.7850976 6.5224237 -1.4493002
1.4510156 6.522305 -1.4320401
1.2867578 6.5222464 -1.4247967
1.124043 6.5221868 -1.4184475
0.80248046 6.5220695 -1.408356
-0.30292967 6.5216398 -1.3992304
-0.4607617 6.5215764 -1.4011935
-0.77826172 6.5214458 -1.4075989
-0.93828124 6.5213785 -1.4120587
-1.7591894 6.5210223 -1.4475542
-1.9290332 6.5209479 -1.4574441
-2.0769043 6.4451141 -1.4512689
-2.4195311 6.4284244 -1.472102
-2.8165624 6.5120158 -1.5206133
-3.1976268 6.5118365 -1.5548071
-3.3949022 6.5117412 -1.5738833
-3.5971875 6.5116434 -1.5943714
-4.0185938 6.5114384 -1.6399134
-4.4372654 6.8162847 -1.7431613
-4.7544141 6.5855703 -1.740828
-5.060029 6.3405509 -1.7386101
-5.2082224 6.2128191 -1.7375326
-5.3533006 6.0816875 -1.7364764
-5.4951563 5.9472661 -1.7354422
-5.6336913 5.8096209 -1.7344306
-5.7688966 5.6688104 -1.7334418
-6.0289159 5.378118 -1.7315358
-6.1535935 5.2283854 -1.7306194
-6.2746778 5.0758162 -1.7297277
-6.505703 4.7626457 -1.7280214
-6.6155663 4.6021748 -1.7272073
-7.2687497 4.552752 -1.8382162
-7.5168552 4.4594049 -1.8732052
-7.6190915 4.2750702 -1.8724395
-7.8993258 3.7088397 -1.8703264
-7.9837399 3.5160456 -1.8696847
-8.0635643 3.3213909 -1.8690749
-8.1388283 3.12497 -1.868497
-8.209424 2.9269164 -1.8679519
-8.4448147 2.1203759 -1.8660998
-8.533926 1.7100103 -1.8653742
-8.6313572 1.0880585 -1.8645407
-8.6541204 0.87947142 -1.8643314
-8.6849709 0.46104676 -1.8640156
-8.6930952 0.25143433 -1.8639094
-8.6765232 -0.58712465 -1.8638314
-8.6601562 -0.79625976 -1.8638984
-8.6388865 -1.004945 -1.8640002
-8.6127729 -1.2130933 -1.8641365
-8.5818062 -1.4206036 -1.8643072
-8.409668 -2.2419298 -1.865333
-8.3546581 -2.4445429 -1.8656747
-8.2949705 -2.6458609 -1.8660498
-8.2305269 -2.8457832 -1.8664591
-8.0876951 -3.2409413 -1.8673769
-8.0093651 -3.4360073 -1.8678854
-7.926455 -3.6292236 -1.8684264
-7.8390231 -3.820508 -1.8690002
-7.5500293 -4.3817453 -1.8709129
-7.4449315 -4.5642686 -1.8716136
-7.1041403 -5.0967927 -1.8738992
-6.9821873 -5.2689672 -1.8747213
-6.41957 -5.8963437 -1.8681517
-6.1243067 -5.903687 -1.8231387
-5.8425879 -5.9105244 -1.7812036
-5.4015036 -6.0191107 -1.733319
-5.2577829 -6.151124 -1.7343044
-5.1108594 -6.2798023 -1.7353134
-4.6519532 -6.6449504 -1.7384728
-4.3315916 -6.8702745 -1.7406857
-4.1673732 -6.977304 -1.7418219
-3.8311815 -7.1797366 -1.7441517
-2.9498827 -7.6151872 -1.7502817
-2.7673731 -7.6896996 -1.7515545
-2.3968651 -7.8257575 -1.7541424
-2.2090819 -7.8871808 -1.7554559
-2.0197558 -7.9441595 -1.7567812
-1.8289551 -7.9966545 -1.7581182
-1.6368359 -8.0445957 -1.7594655
-1.443457 -8.0879622 -1.7608225
-0.65966797 -8.2150383 -1.7663347
-0.43339843 -7.7304711 -1.6594156
-0.24974608 -7.8304019 -1.6790848
0.13521484 -8.2665443 -1.771943
0.3348242 -8.267457 -1.7733538
0.73429686 -8.2548342 -1.7761813
0.93390626 -8.2412834 -1.7775956
1.1333008 -8.2228966 -1.7790099
1.5309374 -8.171627 -1.7818334
1.92625 -8.1010647 -1.7846447
2.1226952 -8.0585632 -1.7860435
2.3182616 -8.0112705 -1.7874372
2.5127149 -7.9591966 -1.7888244
2.8980858 -7.840816 -1.7915766
3.2777734 -7.7036095 -1.794293
3.4652147 -7.6280189 -1.7956359
3.6508594 -7.5478225 -1.7969671
4.1961327 -7.279954 -1.800885
4.3736134 -7.1817255 -1.8021624
4.7214255 -6.972157 -1.8046703
4.8914843 -6.860929 -1.8058987
5.0589452 -6.7454758 -1.8071096
5.2235742 -6.6258702 -1.8083017
5.3853712 -6.5021782 -1.8094741
5.6998434 -6.2427897 -1.811758
6.0015039 -5.9679027 -1.8139551
6.2215037 -5.8951597 -1.8369328
7.1275387 -5.8361278 -1.9743512
7.2700782 -5.665535 -1.9753985
7.4083982 -5.4913831 -1.9764171
7.5424805 -5.3137631 -1.9774066
7.6721678 -5.1328039 -1.9783654
8.3536329 -3.9828889 -1.9834512
8.4503708 -3.7816577 -1.9841822
8.5421095 -3.5780144 -1.9848782
8.628808 -3.3720608 -1.9855392
8.7103901 -3.1639776 -1.9861642
8.7867184 -2.9538631 -1.9867529
8.8578901 -2.7418354 -1.9873055
9.0394335 -2.0957854 -1.9887396
9.0891991 -1.8775308 -1.9891421
9.2056637 -1.2160803 -1.9901196
9.2724409 -0.54751647 -1.9907473
9.2890816 -0.099769898 -1.9909692
9.2890425 0.12431213 -1.991021
9.2834177 0.34830505 -1.9910334
9.2329884 1.0184588 -1.9908328
9.2050781 1.2407489 -1.9906873
9.0882025 1.9023688 -1.9900149
8.9829884 2.3376551 -1.9893724
8.9223042 2.5531354 -1.9889935
8.8562689 2.7669933 -1.9885763
8.7083979 3.1893272 -1.9876291
8.6266212 3.3975153 -1.9870994
8.3508005 4.0086613 -1.9852914
8.2489061 4.2074637 -1.9846172
8.1420898 4.4036283 -1.9839077
7.5810156 4.5859308 -1.8989404
6.8172851 5.0811906 -1.8222947
6.2835937 5.7029047 -1.818666
6.1409373 5.8496499 -1.8176916
5.536211 6.3993692 -1.8135439
5.2147851 6.6507668 -1.8113296
5.049746 6.7703619 -1.8101962
4.6217966 6.5190592 -1.7126809
4.3893943 6.5189919 -1.6843518
3.734453 6.5187979 -1.6101321
3.093574 6.4390788 -1.5310366
2.3912694 6.5226274 -1.4889174
2.2142968 6.5225677 -1.4762805
1.86875 6.5224514 -1.4541403
1.6996484 6.5223932 -1.4445657
1.5326366 6.5223346 -1.4359466
1.3675195 6.5222759 -1.4282534
1.2040429 6.5222173 -1.4214666
1.0420703 6.5221577 -1.4155636
0.56275392 6.5219793 -1.4029891
0.24685547 6.5218582 -1.398771
-0.067871094 6.5217338 -1.3978192
-0.38291016 6.5216069 -1.4001232
-0.54097652 6.5215435 -1.4025036
-1.0198241 6.5213432 -1.4146466
-1.1816211 6.521275 -1.4204037
-1.5096093 6.521132 -1.4345753
-1.6762891 6.52106 -1.4430364
-1.8450292 6.5209842 -1.4524472
-2.0160742 6.5209074 -1.4628372
-2.158711 6.428544 -1.453378
-2.3326757 6.4284635 -1.4656558
-2.9116015 6.5119705 -1.5288049
-3.102119 6.5118814 -1.5459027
-4.5187106 6.7591033 -1.7425429
-4.6773047 6.6437588 -1.7413869
-4.9858298 6.4022369 -1.7391493
-5.1355762 6.2762017 -1.7380612
-5.2821875 6.14674 -1.7369943
-5.7026758 5.7386065 -1.7339263
-6.561904 4.681591 -1.7276052
-7.6692672 4.1807146 -1.8720629
-7.7649021 3.9929998 -1.871343
-8.102314 3.222003 -1.868778
-8.2434378 2.825891 -1.8676879
-8.3070116 2.6255639 -1.8671917
-8.5534668 1.6053613 -1.8652117
-8.6183491 1.1906621 -1.8646564
-8.6435061 0.98234922 -1.8644302
-8.6897163 0.35477415 -1.8639573
-8.6828022 -0.48393309 -1.863811
-8.668828 -0.6932202 -1.8638611
-8.6262598 -1.1105701 -1.8640649
-8.5642385 -1.5255462 -1.8644069
-8.4350195 -2.1416016 -1.8651769
-8.3823729 -2.3448324 -1.865502
-8.0485449 -3.3400772 -1.8676306
-7.9679098 -3.5342245 -1.8681556
-7.8826952 -3.726476 -1.8687134
-7.6002145 -4.2909141 -1.8705791
-7.3899999 -4.655899 -1.8719805
-7.1627245 -5.0109243 -1.8735049
-6.5228415 -5.8497686 -1.8778338
-6.2680759 -5.9001336 -1.8449236
-5.9798241 -5.9072142 -1.8015045
-5.4711914 -5.9528246 -1.7328417
-5.1836815 -6.2167974 -1.7348132
-5.0351954 -6.3437462 -1.7358334
-4.8836622 -6.4672146 -1.7368761
-4.7291598 -6.5871506 -1.7379407
-4.083076 -7.0301085 -1.7424055
-3.9149609 -7.1313076 -1.7435707
-3.7443652 -7.2285504 -1.7447542
-2.857578 -7.653513 -1.7509253
-2.6741211 -7.7258391 -1.7522055
-2.3018456 -7.8574634 -1.754807
-2.113291 -7.9166317 -1.7561264
-1.9231933 -7.9713402 -1.7574579
-1.5389258 -8.0671577 -1.7601522
-1.3449218 -8.1082001 -1.7615144
-1.1498437 -8.1446133 -1.7628851
-0.95386714 -8.1763649 -1.7642634
-0.52234375 -7.6820335 -1.6502343
-0.34082031 -7.7808523 -1.6692102
0.036933593 -8.2643232 -1.7712485
0.8355273 -8.2485628 -1.7768985
1.0350586 -8.2325659 -1.7783129
2.2219923 -8.0351772 -1.786751
2.4170313 -7.9854541 -1.7881417
3.3730469 -7.6658564 -1.7949754
3.5595899 -7.5879169 -1.7963126
3.7442968 -7.5054007 -1.7976377
4.1078906 -7.3267365 -1.8002501
4.4626756 -7.1302447 -1.8028044
5.3059764 -6.5636539 -1.8088986
5.4662304 -6.4379253 -1.810061
5.6235352 -6.3081579 -1.8112032
5.9283981 -6.037066 -1.8134221
6.0789452 -5.8988128 -1.8154202
7.2003512 -5.7500706 -1.9748859
7.9775 -4.6650844 -1.980633
8.0911322 -4.4732609 -1.9814813
8.200058 -4.2785649 -1.9822967
8.4033203 -3.8811696 -1.9838263
8.4975386 -3.6786411 -1.9845396
8.5866995 -3.4738414 -1.9852178
8.6708202 -3.2668197 -1.9858606
8.8234568 -2.84656 -1.9870378
8.9550781 -2.4190717 -1.9880679
9.0129299 -2.2028463 -1.9885272
9.0653515 -1.9852777 -1.9889483
9.2649021 -0.65770137 -1.9906683
9.2787695 -0.43412048 -1.9908184
9.2870502 -0.21016723 -1.9909292
9.2897854 0.01385559 -1.9910007
9.2784176 0.46184081 -1.9910244
9.2643747 0.68544126 -1.9909772
9.2195311 1.1312939 -1.990764
9.1887884 1.3531817 -1.9905984
9.1525393 1.5742193 -1.9903935
9.0635738 2.0132337 -1.9898666
9.0109177 2.2308588 -1.989545
8.9528713 2.4471424 -1.9891849
8.889492 2.6617975 -1.9887867
8.8207617 2.8747637 -1.9883503
8.7467775 3.0859795 -1.9878763
8.6675777 3.2951634 -1.9873651
8.5832424 3.50226 -1.986817
8.1953316 4.3073101 -1.9842618
7.7785153 4.5799079 -1.934611
7.3853126 4.5918522 -1.8638346
7.0006051 4.8357306 -1.8235338
6.7530465 5.1629596 -1.8218597
6.4898434 5.4772429 -1.8200717
6.3526173 5.6292572 -1.8191366
6.211699 5.7777543 -1.818175
6.0672069 5.9227057 -1.8171872
5.7680664 6.2013483 -1.815137
0.48921874 6.5218182 -1.5565112
0.016347656 6.5216336 -1.5521123
-0.14095703 6.5215716 -1.5524554
-0.29843751 6.5215082 -1.553702
-0.61462891 6.5213785 -1.5589247
-0.77371091 6.5213127 -1.5629163
-1.4211133 6.5210357 -1.588392
-1.5867578 6.5209622 -1.5972341
-1.9241406 6.5208097 -1.6180667
-2.0780859 6.4638944 -1.6159106
-2.2391112 6.4283671 -1.6200632
-2.4144433 6.4282856 -1.6342474
-2.5964258 6.4367242 -1.6518397
-3.0810547 6.688848 -1.7526834
-3.2393847 6.608295 -1.7515452
-3.3956444 6.5240521 -1.7504208
-3.5497265 6.4361711 -1.7493109
-3.998369 6.1512847 -1.7460725
-4.5616503 5.7240934 -1.7419904
-4.6957421 5.6092682 -1.7410156
-4.8270116 5.4913626 -1.7400601
-4.9553709 5.3704581 -1.7391244
-5.3224411 4.990428 -1.7364407
-5.4385939 4.858222 -1.7355887
-5.5515232 4.7233796 -1.7347586
-5.9249902 4.5674748 -1.7804816
-6.5875878 4.3572636 -1.8797518
-6.7847557 4.0313716 -1.878282
-6.8774509 3.8651276 -1.8775878
-7.280664 3.0047362 -1.8745368
-7.3489647 2.8274791 -1.8740127
-7.4130664 2.6487126 -1.8735178
-7.5798731 2.1043622 -1.8722117
-7.6268945 1.920553 -1.8718365
-7.6695604 1.7357305 -1.8714917
-7.7418847 1.363429 -1.8708935
-7.7966404 0.98826778 -1.8704193
-7.8174024 0.79985595 -1.8702285
-7.8337693 0.61102355 -1.8700689
-7.8456836 0.42188415 -1.8699408
-7.8531637 0.23253234 -1.8698437
-7.8562207 0.04305359 -1.8697779
-7.8240232 -0.71396971 -1.8698294
-7.7813864 -1.0905578 -1.8700433
-7.7534571 -1.278023 -1.8701969
-7.7211523 -1.4647931 -1.8703821
-7.6844726 -1.650777 -1.8705981
-7.5980663 -2.0199883 -1.871123
-7.5483789 -2.2030108 -1.8714318
-7.4361715 -2.5654161 -1.8721408
-7.3737302 -2.7446041 -1.8725406
-7.3070312 -2.922313 -1.8729707
-7.1612597 -3.2729311 -1.8739198
-6.9990525 -3.6165166 -1.8749865
-6.7258105 -4.1170597 -1.876802
-6.4176073 -4.5976062 -1.8788693
-6.193408 -4.9056778 -1.8803828
-6.0758786 -5.0557609 -1.8811789
-5.4360547 -5.76335 -1.885538
-4.5839939 -5.9100761 -1.7800769
-4.2013574 -5.9925957 -1.7418106
-4.05792 -6.0956454 -1.7428008
-3.7636328 -6.2915764 -1.7448361
-3.6129589 -6.3843331 -1.7458798
-3.147754 -6.641099 -1.7491091
-2.9885547 -6.7193398 -1.7502166
-2.6644921 -6.864481 -1.7524741
-2.3334472 -6.9941869 -1.7547845
-1.9961425 -7.1081204 -1.7571429
-1.8253515 -7.1590662 -1.7583386
-1.6533008 -7.2059383 -1.759544
-0.77705079 -7.3782334 -1.7656994
-0.42097655 -7.4176426 -1.768208
-0.24212889 -7.4309402 -1.7694693
0.29638672 -7.4449692 -1.7732737
0.83566403 -7.4200068 -1.7770922
1.1942188 -7.3816237 -1.7796364
2.2558594 -7.1625233 -1.7871935
2.6022265 -7.0551615 -1.7896676
2.7734959 -6.9951358 -1.7908925
3.1117969 -6.8625259 -1.7933153
3.2785742 -6.7900119 -1.7945113
3.4436717 -6.7133923 -1.7956964
3.606914 -6.6327128 -1.7968695
3.9276366 -6.4593439 -1.7991775
4.2398438 -6.2702723 -1.8014288
4.8784571 -5.8983707 -1.8217152
5.6258006 -5.8788791 -1.9365618
6.1321678 -5.543602 -1.9673812
6.2672262 -5.3968005 -1.9683704
6.526484 -5.0932298 -1.9702743
6.7706637 -4.7769542 -1.9720743
6.8868747 -4.6142793 -1.9729339
7.107285 -4.2803569 -1.9745699
7.2112694 -4.1093106 -1.9753448
7.3110352 -3.9356761 -1.9760907
7.4065428 -3.7595608 -1.976807
7.4976754 -3.5810843 -1.9774928
7.5843554 -3.4003389 -1.9781479
7.7442379 -3.032517 -1.9793639
7.8173633 -2.8456655 -1.9799243
7.8858395 -2.6570063 -1.9804525
7.9496093 -2.4666674 -1.9809475
8.0086517 -2.2747512 -1.9814095
8.0629292 -2.081387 -1.9818386
8.1123829 -1.8866946 -1.9822335
8.2615423 -1.0971222 -1.983472
8.3367968 -0.095247187 -1.9842371
8.3070507 0.70828366 -1.9842139
8.2871675 0.90838313 -1.98412
8.2623243 1.1079186 -1.9839908
8.197773 1.5047796 -1.9836267
8.1581049 1.7018536 -1.9833921
8.1136131 1.8978583 -1.9831232
7.9510937 2.4782214 -1.9821092
7.8190036 2.8575299 -1.9812635
7.7460155 3.0445518 -1.9807909
7.6683397 3.2296588 -1.9802848
7.4994726 3.5936675 -1.9791757
7.40832 3.7723479 -1.9785728
7.2131052 4.1224995 -1.9772739
7.0008593 4.4623184 -1.9758524
6.4802537 4.5844417 -1.8891983
6.0107813 4.703383 -1.8165045
5.7721677 4.9833245 -1.8148825
5.3889842 5.3798308 -1.8122656
5.2550192 5.5054412 -1.8113476
5.1180663 5.6276617 -1.8104076
4.9782224 5.7464118 -1.8094467
4.690156 5.9732218 -1.8074627
4.5421481 6.0811625 -1.8064413
4.3916602 6.1853814 -1.8054014
4.2386913 6.2858124 -1.8043432
4.0834374 6.3824067 -1.8032681
3.9259374 6.4751115 -1.802176
3.6046679 6.648653 -1.7999448
3.4410546 6.7293472 -1.7987927
2.907871 6.4346194 -1.6805102
2.7229297 6.4345608 -1.6628567
2.0450976 6.5223713 -1.626799
1.7043749 6.5222549 -1.6043801
1.3721484 6.5221405 -1.5862069
1.0466211 6.5220242 -1.5720599
0.88583982 6.521966 -1.566439
0.72611326 6.5219059 -1.5617627
0.093906246 6.5216641 -1.5522753
-0.37841797 6.5214748 -1.5546805
-1.0152539 6.5212102 -1.5707024
-1.1769726 6.5211406 -1.5770675
-1.6714844 6.5209231 -1.602113
-2.0111425 6.5207696 -1.6240393
-2.1537695 6.4284062 -1.6135058
-2.3276367 6.4283257 -1.6271069
-2.6883984 6.4366803 -1.6601434
-3.1616113 6.6484599 -1.7521044
-3.4740527 6.4799395 -1.7498562
-3.6270311 6.3902397 -1.7487537
-3.7777636 6.2969804 -1.7476661
-3.9261131 6.2002335 -1.7465948
-4.3563185 5.8896379 -1.7434808
-4.7626462 5.54986 -1.7405288
-5.0193357 5.3080215 -1.7386575
-5.1432323 5.1827202 -1.7377523
-5.3817477 4.9237189 -1.7360058
-5.4962792 4.7901664 -1.7351649
-6.070127 4.562089 -1.8071908
-6.6390524 4.2754912 -1.8793689
-6.7376075 4.1125188 -1.8786343
-6.9229684 3.7800348 -1.8772463
-7.0923533 3.4394548 -1.8759695
-7.1709571 3.2663665 -1.8753735
-7.2454686 3.0915155 -1.8748058
-7.3158102 2.9150438 -1.8742672
-7.3819919 2.7370141 -1.8737578
-7.5016599 2.376668 -1.872828
-7.5550976 2.1945629 -1.8724078
-7.6042576 2.0112891 -1.8720175
-7.6490722 1.8269458 -1.8716577
-7.757441 1.2685437 -1.8707616
-7.7847848 1.0809473 -1.8705245
-7.8262401 0.70414186 -1.8701437
-7.8552732 0.1364563 -1.8698065
-7.8560643 -0.05304138 -1.8697567
-7.8148923 -0.80963439 -1.8698717
-7.7935543 -0.99793822 -1.8699788
-7.7677927 -1.1857073 -1.8701172
-7.7031054 -1.5592022 -1.8704876
-7.6641989 -1.7447625 -1.8707194
-7.5733981 -2.1129379 -1.8712755
-7.5215526 -2.2953744 -1.8715998
-7.4654098 -2.4765892 -1.8719546
-7.4050097 -2.656456 -1.8723398
-7.3404293 -2.8349118 -1.8727549
-7.2716699 -3.011843 -1.8731998
-7.1987305 -3.187145 -1.8736749
-7.1216698 -3.3607457 -1.8741794
-6.9553809 -3.7024269 -1.8752754
-6.575254 -4.3611188 -1.8778098
-5.8920312 -5.2767467 -1.8824273
-5.7656541 -5.4197912 -1.8832877
-5.1694336 -5.8960366 -1.8662062
-4.6955175 -5.9074845 -1.7959851
-3.6875196 -6.3390479 -1.7453631
-3.38166 -6.5174069 -1.7474841
-3.2254882 -6.601171 -1.748569
-2.9070799 -6.7575769 -1.7507837
-2.7450292 -6.8301272 -1.7519128
-2.5811815 -6.8988385 -1.7530551
-1.909707 -7.1344581 -1.7577479
-1.7382617 -7.1833496 -1.7589487
-1.5655859 -7.2281513 -1.7601591
-0.86441404 -7.3659081 -1.7650845
-0.68701172 -7.3898373 -1.7663332
-0.15124999 -7.4360394 -1.7701107
0.38759765 -7.443491 -1.7739189
0.5674023 -7.437315 -1.7751914
1.2849023 -7.369133 -1.7802805
1.4633007 -7.3412237 -1.7815484
1.6410937 -7.3089852 -1.7828127
1.818164 -7.2724185 -1.7840734
1.9943945 -7.2315388 -1.7853291
2.1697655 -7.1863623 -1.7865794
2.6892383 -7.0252452 -1.7902895
2.8598242 -6.9630909 -1.7915102
3.0289843 -6.8967514 -1.7927219
3.1966014 -6.8262615 -1.7939233
3.6890037 -6.5902615 -1.7974597
3.8493555 -6.5035453 -1.7986137
4.0076365 -6.412878 -1.799754
4.3175583 -6.2198839 -1.80199
4.4690428 -6.1176572 -1.803085
4.6180077 -6.0116949 -1.8041629
4.7638278 -5.9012146 -1.8049741
4.9986134 -5.8953447 -1.8395286
5.9240232 -5.75632 -1.9658601
6.0642576 -5.6147022 -1.9668847
6.3343358 -5.321074 -1.9688625
6.8301368 -4.6948304 -1.972514
6.9443359 -4.5306792 -1.9733596
7.054492 -4.3636899 -1.9741772
7.4532809 -3.6693404 -1.9771587
7.6266208 -3.3078582 -1.9784683
7.706543 -3.1239154 -1.9790759
7.9187498 -2.5606837 -1.9807076
8.0367775 -2.176868 -1.9816314
8.0885935 -1.9828194 -1.9820428
8.1356249 -1.7875012 -1.9824209
8.2150784 -1.3935651 -1.9830744
8.2973633 -0.79627562 -1.9837952
8.327383 -0.39529723 -1.9841006
8.3374214 0.0067230221 -1.9842652
8.3349409 0.20781067 -1.9842947
8.3274803 0.40877378 -1.9842886
8.2478514 1.2088434 -1.9839118
8.2155275 1.4072863 -1.9837295
8.1783009 1.6048383 -1.9835123
8.0892181 1.9968078 -1.9829736
7.9807811 2.3837445 -1.9822971
7.6272068 3.3227568 -1.9800159
7.3604879 3.862061 -1.9782553
7.2628317 4.037128 -1.9776056
7.0547071 4.3795819 -1.9762138
6.6391015 4.5793047 -1.9194723
5.9518747 4.7754984 -1.8161047
5.7094336 5.0523601 -1.814455
5.583281 5.1861286 -1.8135943
5.185957 5.5678496 -1.8108736
5.0474997 5.6883159 -1.8099229
4.9061718 5.8052812 -1.8089509
4.7621288 5.9186697 -1.8079586
4.615449 6.0284281 -1.8069472
4.4661522 6.134479 -1.8059164
3.8452344 6.5206194 -1.8016162
3.5218749 6.6899762 -1.7993346
2.6305664 6.4345317 -1.6544092
2.4847069 6.5225163 -1.6611364
2.1305859 6.5223989 -1.6330099
1.9577734 6.5223417 -1.6206976
1.7874805 6.5222845 -1.6095001
1.4533398 6.5221686 -1.5903049
1.2890625 6.5221109 -1.5822476
0.80472654 6.5219355 -1.5639496
0.64546871 6.5218754 -1.5597482
0.48695311 6.5218167 -1.5564708
0.32902342 6.5217557 -1.5541105
0.17146485 6.5216947 -1.5526587
0.014121094 6.5216327 -1.5521115
-0.30068359 6.5215082 -1.553727
-0.45851561 6.5214434 -1.5558938
-1.0970898 6.5211759 -1.573809
-1.4234375 6.5210333 -1.5885098
-1.9265722 6.5208087 -1.6182284
-2.0780663 6.4562688 -1.6141851
-2.2415721 6.4283657 -1.620258
-3.0833104 6.6877289 -1.7526672
-3.241621 6.6071243 -1.7515292
-3.3978515 6.5228314 -1.750405
-3.7037597 6.3433843 -1.7482003
-4.1450877 6.0479546 -1.7450112
-4.2872267 5.9427204 -1.7439816
-4.4267478 5.8342071 -1.74297
-4.5635643 5.7224808 -1.7419766
-4.6976075 5.6076117 -1.7410022
-4.8288474 5.4896698 -1.7400469
-4.9571776 5.3687224 -1.7391113
-5.0825586 5.2448416 -1.7381958
-5.2048826 5.1180964 -1.7373016
-5.4402146 4.8563261 -1.7355767
-5.6674414 4.5878229 -1.7353833
-5.9290037 4.567327 -1.7812182
-6.2196579 4.5564899 -1.8349748
-6.4847555 4.5144901 -1.8805157
-6.8787303 3.8627582 -1.8775784
-7.0521288 3.5240972 -1.8762735
-7.1327343 3.3518999 -1.8756634
-7.2816601 3.0022345 -1.8745291
-7.4139452 2.6461616 -1.873511
-7.4737301 2.4659746 -1.8730463
-7.5805664 2.1017663 -1.8722061
-7.7084179 1.547348 -1.871173
-7.7423143 1.3607769 -1.87089
-7.8176756 0.79717284 -1.8702261
-7.8339548 0.60834533 -1.8700668
-7.84582 0.41919434 -1.8699391
-7.8562303 0.040360108 -1.8697772
-7.8237987 -0.71665341 -1.8698303
-7.8046093 -0.90518123 -1.8699222
-7.720664 -1.4674377 -1.8703848
-7.6428123 -1.8384918 -1.870849
-7.5973926 -2.0225918 -1.8711271
-7.5476465 -2.2056038 -1.8714365
-7.4353027 -2.5679708 -1.8721462
-7.3727927 -2.7471349 -1.8725466
-7.3060837 -2.9248278 -1.8729767
-7.2351856 -3.1009517 -1.8734372
-7.1601658 -3.2753978 -1.873927
-6.9978905 -3.6189253 -1.8749945
-6.8195114 -3.9546645 -1.8761773
-6.7244334 -4.1193843 -1.8768114
-6.522656 -4.4420547 -1.8781627
-6.4160643 -4.5998282 -1.8788797
-6.1917772 -4.9078236 -1.880394
-6.0741992 -5.0578732 -1.8811903
-5.9530077 -5.2051826 -1.8820128
-5.8283787 -5.3496432 -1.8828604
-5.7003121 -5.4912052 -1.8837329
-5.4341211 -5.7652531 -1.8855512
-5.2920017 -5.8929682 -1.8850158
-5.0458493 -5.8990879 -1.8474982
-4.5808105 -5.9101496 -1.7796261
-4.3604493 -5.9151449 -1.7489458
-4.1993456 -5.9940839 -1.7418246
-3.4578514 -6.4747849 -1.7469554
-3.3027246 -6.5603356 -1.7480322
-3.1455078 -6.6422362 -1.749125
-2.8251464 -6.7948461 -1.7513543
-1.9937207 -7.1088672 -1.7571598
-1.8229296 -7.1597562 -1.7583554
-1.6508398 -7.2065783 -1.7595614
-1.4775586 -7.2492981 -1.7607766
-1.1278515 -7.3223186 -1.7632321
-0.77453125 -7.3785734 -1.7657173
0.29896483 -7.4449453 -1.7732919
1.0176758 -7.4027143 -1.7783831
1.5535351 -7.3254189 -1.7821898
1.7309766 -7.2909756 -1.7834525
1.9076757 -7.2522268 -1.784711
2.4321094 -7.1102018 -1.7884519
2.6046288 -7.0543408 -1.7896849
3.2809179 -6.7889457 -1.7945281
3.445996 -6.7122765 -1.7957132
3.7705858 -6.5467877 -1.7980467
3.9298828 -6.4580593 -1.7991937
4.2420311 -6.2688775 -1.8014446
4.3946681 -6.1685162 -1.8025472
4.6926169 -5.9565454 -1.804703
4.8817968 -5.8982873 -1.822207
6.1341209 -5.5415311 -1.9673955
6.7723241 -4.7746563 -1.9720865
7.0007224 -4.4463487 -1.9737779
7.3124413 -3.9331985 -1.9761013
7.4989061 -3.5785289 -1.9775023
7.5855465 -3.3977597 -1.9781568
7.8183398 -2.8430023 -1.979932
8.0094528 -2.2720141 -1.981416
8.063652 -2.0786176 -1.9818443
8.1575975 -1.6880108 -1.9825995
8.1973238 -1.4910101 -1.9829262
8.23209 -1.2930822 -1.9832181
8.3217964 -0.4942511 -1.9840382
8.3317966 -0.29342407 -1.9841557
8.3368158 -0.092401125 -1.9842379
8.3367968 0.10870788 -1.9842846
8.3317776 0.30973938 -1.984296
8.3217964 0.51058412 -1.9842722
8.3068161 0.71113282 -1.9842129
8.2619333 1.1107409 -1.9839886
8.1972847 1.5075854 -1.9836239
8.0092773 2.2889013 -1.9824765
7.9502344 2.4809449 -1.9821037
7.7449021 3.0472045 -1.9807837
7.5849218 3.415318 -1.9797382
7.4982028 3.596231 -1.9791671
7.2116599 4.1249409 -1.9772642
6.9992967 4.4646964 -1.9758416
6.802949 4.5739484 -1.9509945
6.0095701 4.7054119 -1.8164963
5.8916602 4.8468451 -1.8156956
5.7704296 4.9852715 -1.8148706
5.6458983 5.1205912 -1.8140216
5.518086 5.2527337 -1.8131487
5.2531052 5.5072012 -1.8113345
4.5400195 6.0826702 -1.8064266
4.3895116 6.1868377 -1.8053867
4.2365036 6.28721 -1.8043281
4.0812302 6.3837495 -1.8032528
3.6023631 6.6498308 -1.7999289
3.096211 6.4389324 -1.7003894
2.9052148 6.4346185 -1.6802523
2.5391796 6.4345036 -1.6462948
2.39375 6.5224857 -1.6535486
1.2063282 6.5220819 -1.5785425
1.0443164 6.5220232 -1.5719724
0.8835547 6.5219631 -1.5663654
0.72384763 6.5219049 -1.5617028
0.40679687 6.5217862 -1.5551605
0.24908203 6.5217252 -1.553261
0.091679685 6.5216632 -1.5522676
-0.065644532 6.5216022 -1.5521779
-0.53873044 6.521409 -1.5573412
-0.85699219 6.5212774 -1.5653667
-1.017539 6.5212078 -1.5707873
-1.1792773 6.5211391 -1.5771635
-1.6738671 6.5209222 -1.6022537
-1.8425781 6.5208478 -1.6126876
-2.1562207 6.4284062 -1.6136922
-3.0045702 6.7260842 -1.753233
-3.1638379 6.6473198 -1.7520885
-3.9282129 6.1988349 -1.7465796
-4.0741014 6.0986075 -1.7455249
-4.2175097 5.9950104 -1.7444868
-4.3583007 5.8880963 -1.7434665
-4.4964647 5.7779484 -1.7424638
-4.8942871 5.4287076 -1.7395697
-5.0211034 5.3062654 -1.7386447
-5.1449609 5.1809158 -1.7377398
-5.3833985 4.9218488 -1.7359936
-5.4978709 4.7882571 -1.7351532
-6.3737988 4.5506668 -1.8638885
-6.538125 4.4339008 -1.8801196
-6.6404781 4.2731977 -1.8793585
-6.7389841 4.1101837 -1.878624
-7.0935059 3.437005 -1.8759607
-7.1720505 3.2638879 -1.8753649
-7.2464938 3.0890374 -1.8747979
-7.3829002 2.7344708 -1.8737509
-7.4447851 2.5549638 -1.8732715
-7.5024509 2.3740861 -1.8728218
-7.55582 2.1919641 -1.872402
-7.6049314 2.0086827 -1.8720123
-7.6496873 1.8243164 -1.8716528
-7.6900973 1.6390082 -1.8713241
