# .PCD v0.7 - Point Cloud Data file format
VERSION 0.7
FIELDS x y z
SIZE 4 4 4
TYPE F F F
COUNT 1 1 1
WIDTH 1474
HEIGHT 1
VIEWPOINT 0 0 0 1 0 0 0
POINTS 1474
DATA ascii
14.294394 6.533936 -0.1327341
11.271093 6.5327702 -0.11002067
10.112793 6.5328717 -0.10167629
9.5961523 6.5326738 -0.098038405
8.2432423 6.5321512 -0.088823847
5.7818165 6.4381413 -0.073076703
5.2506833 6.4472027 -0.070218503
4.5683007 6.5214605 -0.067244105
3.6864061 6.5211186 -0.063262403
3.4814258 6.5210395 -0.062429197
3.2816601 6.5209613 -0.061650999
3.0866992 6.520884 -0.060928419
2.8961523 6.5208097 -0.060256727
2.7096484 6.5207391 -0.059634857
2.526875 6.5206671 -0.059058379
2.3474803 6.520596 -0.058527373
1.9976953 6.5204606 -0.057592466
1.8267578 6.5203934 -0.057186279
1.6581054 6.520329 -0.05681793
1.4915429 6.5202627 -0.056487348
1.3267773 6.5201983 -0.05619232
1.0019531 6.520071 -0.055709302
0.68189454 6.5199466 -0.055362243
0.51677734 6.4403481 -0.054564055
0.36037108 6.4360309 -0.054438017
0.20474608 6.4359698 -0.05438057
-0.26507813 6.5238309 -0.055140074
-0.42296875 6.5237699 -0.055209503
-0.58134764 6.5237079 -0.055312041
-0.90039062 6.523582 -0.05561424
-1.3874023 6.5233917 -0.056323241
-1.552832 6.5233254 -0.056628723
-1.7201757 6.5232596 -0.056973264
-1.8896484 6.5231924 -0.057354506
-2.4134374 6.5229864 -0.058737639
-2.7781639 6.5228424 -0.059873734
-2.9660938 6.5227666 -0.060513455
-3.1582031 6.5226908 -0.061202161
-3.3548241 6.522614 -0.06194336
-3.5564063 6.5225334 -0.062741011
-3.7633593 6.5224514 -0.063594967
-4.4213085 6.5221915 -0.066544034
-4.6059179 6.4535065 -0.066958696
-5.4005957 6.5132771 -0.071455233
-5.6712694 6.5131693 -0.072933652
-5.9535155 6.5130572 -0.074521102
-6.881875 6.5126886 -0.080017239
-7.9642186 6.5122585 -0.086881943
-8.3682909 6.5120978 -0.089549556
-8.7981739 6.5119267 -0.092440337
-9.7485056 6.5115485 -0.09900406
-12.155313 6.5202017 -0.1164901
-12.892383 6.5199075 -0.12200966
-15.398926 6.4345608 -0.14094783
-16.721621 6.5178227 -0.1515678
-19.443407 6.5167365 -0.17317951
-2.8751562 -7.888989 -0.070911936
-6.8825583 -22.153933 -0.1959161
-4.4669042 -21.518885 -0.18560787
-1.8186914 -21.601545 -0.18307731
-1.2943164 -21.59749 -0.18272515
-0.77175778 -21.596342 -0.182505
0.27103516 -21.594051 -0.18238178
1.3148828 -21.591761 -0.1826894
1.8383789 -21.586777 -0.18296753
2.8925977 -21.582895 -0.18390675
3.4244139 -21.58094 -0.18453747
5.0477343 -21.580629 -0.18717575
6.1592965 -21.578377 -0.18951336
7.3016014 -21.576059 -0.19236259
7.8849216 -21.570621 -0.19395816
8.4797068 -21.568726 -0.19572662
9.0858393 -21.566799 -0.1976435
9.704258 -21.564829 -0.19971085
10.33621 -21.562817 -0.2019448
10.985801 -21.566549 -0.20440613
11.649277 -21.565821 -0.20700233
12.330254 -21.565067 -0.20979145
13.030273 -21.564295 -0.21278198
13.746016 -21.555777 -0.21590969
14.48873 -21.554663 -0.21933979
16.049473 -21.55232 -0.22693999
16.870274 -21.548674 -0.23112515
18.610155 -21.542706 -0.24042191
19.534803 -21.539534 -0.24559078
28.170195 6.5310612 -0.24421477
20.976933 6.4941349 -0.18544875
16.690136 6.5241461 -0.15133888
12.151113 6.5331106 -0.11651252
11.477558 6.5328507 -0.11153308
10.288867 6.5329399 -0.10292854
9.7597456 6.5327358 -0.099184342
9.267519 6.532547 -0.095755383
8.807929 6.5323696 -0.092609249
8.3773632 6.5322027 -0.089714967
7.9726171 6.5320463 -0.087043986
7.5910544 6.5318985 -0.084575802
6.5635352 6.5315008 -0.078199916
6.2540426 6.5313811 -0.076368101
5.8736134 6.4381766 -0.073599778
5.5948825 6.4380679 -0.072030947
5.136797 6.5216813 -0.070110396
4.6448631 6.5214896 -0.067616954
3.9667382 6.5212274 -0.064460903
3.7541406 6.5211444 -0.063545987
3.5473633 6.5210638 -0.062692262
3.1495116 6.5209098 -0.061156768
2.9575586 6.520834 -0.060468595
2.5858202 6.52069 -0.059239957
2.4053514 6.5206194 -0.058694229
2.228086 6.5205498 -0.058193512
2.0537109 6.5204816 -0.057733841
1.8819727 6.5204144 -0.057313535
1.3800781 6.5202203 -0.056284178
1.0542969 6.520092 -0.055778272
0.89341795 6.5200295 -0.055577848
0.73359376 6.5199661 -0.055409163
0.56761718 6.4403677 -0.054600295
0.099746093 6.4359293 -0.05435852
-0.21390624 6.5238504 -0.055124052
-0.5298633 6.5237274 -0.055275343
-0.68869138 6.523664 -0.055399474
-1.0089843 6.5235391 -0.055747449
-2.0054686 6.5231476 -0.05763359
-2.1790819 6.523078 -0.058080595
-3.2904687 6.5226398 -0.061696623
-3.6955664 6.5224786 -0.063310929
-4.3471384 6.5222211 -0.066194303
-4.5781932 6.5221295 -0.067295223
-4.749033 6.4297466 -0.067504421
-4.9932032 6.4296489 -0.068748474
-5.3150682 6.5133109 -0.07099586
-5.5821776 6.5132046 -0.072442703
-6.1513085 6.512979 -0.075656585
-6.4556055 6.512857 -0.077443771
-6.7748046 6.5127311 -0.07936424
-7.4642282 6.5124578 -0.083656237
-8.2344046 6.5121527 -0.088659815
-8.6556149 6.5119829 -0.091476135
-9.1047363 6.511806 -0.094533309
-9.9860058 6.4372759 -0.10033161
-10.672636 6.5207925 -0.10562469
-11.930146 6.5202909 -0.11481838
-12.645547 6.5200052 -0.12015422
-14.299023 6.5193462 -0.13271843
-16.342489 6.5179739 -0.14858779
-20.337627 6.4496036 -0.18018116
-22.408876 6.5156412 -0.19708519
-24.606152 6.5147648 -0.21496353
-27.260019 6.5176458 -0.23670749
-28.409521 -7.9290109 -0.24909541
-6.4057422 -21.871229 -0.19246925
-5.7655272 -21.605347 -0.18884914
-4.1103125 -21.561567 -0.18537089
-3.5803125 -21.603302 -0.18493374
-2.5164256 -21.602242 -0.1836711
-1.9892578 -21.601715 -0.18320304
-0.94128907 -21.596714 -0.18256415
-0.41943359 -21.595568 -0.18241496
2.193203 -21.58547 -0.18323371
3.7857811 -21.579609 -0.18502845
4.3246679 -21.577627 -0.18585521
6.5412498 -21.577602 -0.19041869
7.1138668 -21.576441 -0.19186947
9.5021095 -21.565474 -0.19902305
10.129551 -21.563477 -0.20120029
11.432051 -21.566059 -0.2061394
12.107226 -21.565311 -0.20886539
12.800839 -21.564548 -0.2117905
14.245078 -21.555027 -0.21819839
15.004004 -21.553888 -0.22178963
5.6469922 -7.7085104 -0.080699153
16.601719 -21.551491 -0.2297557
18.318281 -21.543705 -0.23882216
29.210117 6.5314617 -0.25277871
26.220156 6.5311489 -0.22820282
21.401073 6.4421721 -0.18874905
18.406425 6.5248075 -0.16492377
17.084023 6.5242987 -0.1544434
14.908359 6.534174 -0.1374689
11.689843 6.5329313 -0.1130944
9.4235544 6.5326066 -0.096835628
7.7125192 6.5319462 -0.085355148
6.9975195 6.5316691 -0.08084099
5.6840429 6.4381037 -0.072530061
5.2201562 6.5217142 -0.070548475
4.9666796 6.5216141 -0.069229506
4.0370898 6.5212541 -0.064772569
3.8224804 6.5211697 -0.06383644
3.613867 6.5210896 -0.062963106
3.2127538 6.5209341 -0.061391447
3.0193944 6.5208573 -0.060686871
2.8303125 6.5207853 -0.060033109
2.4635742 6.5206413 -0.058867414
2.1100194 6.5205045 -0.057877883
1.9374609 6.5204372 -0.057445753
1.7673438 6.5203705 -0.05705284
1.5994531 6.5203056 -0.056697156
1.4335742 6.5202398 -0.05637924
1.2694141 6.520175 -0.056097336
1.1067969 6.520113 -0.055851515
0.78533202 6.5199871 -0.055460203
0.61849606 6.4403872 -0.054640502
0.46164063 6.4360709 -0.054492872
0.30572265 6.4360089 -0.054414291
0.15019532 6.4359488 -0.054366987
-0.0052343747 6.5239334 -0.055094983
-0.16273437 6.5238714 -0.055111997
-0.47845703 6.5237479 -0.05524208
-0.95673823 6.52356 -0.055681303
-1.4452538 6.5233684 -0.056427076
-2.8436327 6.5228152 -0.060093764
-3.6283593 6.5225053 -0.063032605
22.460663 6.538815 -0.72460884
17.561426 6.5241179 -0.58029562
13.447812 6.5333185 -0.46310729
12.66041 6.5330291 -0.44129324
11.287128 6.5325212 -0.40395495
10.546288 6.4484601 -0.38289928
9.1268358 6.5322733 -0.34765592
8.2537298 6.5319486 -0.32603768
7.8562303 6.5318012 -0.31647104
7.1262693 6.5315299 -0.29942757
6.7896481 6.5314045 -0.29182386
6.1642966 6.5311713 -0.27818182
5.2573242 6.4470425 -0.25767872
4.8133202 6.5213971 -0.25106433
4.3433008 6.5212197 -0.24269672
3.9025586 6.5210538 -0.23539925
3.4866405 6.520895 -0.22904548
3.2867773 6.5208206 -0.22619015
3.0916991 6.5207462 -0.22353363
2.714453 6.5206022 -0.21877766
2.3520899 6.520463 -0.21471114
2.1757226 6.5203958 -0.21291716
1.6624609 6.5201983 -0.2084251
1.3310547 6.5200701 -0.20612521
1.1679101 6.5200067 -0.2051722
1.0061523 6.5199442 -0.20434566
0.84558594 6.5198832 -0.20364478
0.68605465 6.5198197 -0.20306736
0.52087891 6.4402237 -0.20013741
0.053398438 6.4357843 -0.19935471
-0.26093748 6.5237055 -0.20223312
-0.41880858 6.523643 -0.20248611
-0.57718748 6.5235796 -0.20285739
-1.0571289 6.5233917 -0.20469756
-1.2193555 6.5233269 -0.20556045
-1.5484375 6.5231962 -0.20767097
-1.7157226 6.523129 -0.20892699
-1.8851367 6.5230608 -0.21031947
-2.0569532 6.5229936 -0.21185657
-2.2313867 6.522923 -0.21354228
-2.4086914 6.5228534 -0.21538146
-2.5892186 6.522779 -0.21737899
-3.970371 6.5222211 -0.23651485
-4.1893358 6.5221319 -0.24010859
-4.6071777 6.4639163 -0.24587123
-4.8208494 6.4295611 -0.2489191
-6.5490427 6.512641 -0.28608707
-7.5733786 6.5122199 -0.30938777
-8.7862787 6.5117178 -0.3387517
-9.7348537 6.5113249 -0.36277246
-10.130117 6.4273725 -0.37161118
-11.464335 6.5202188 -0.40852538
-12.136396 6.5199394 -0.42673969
-13.680332 6.5192986 -0.46940807
-15.370898 6.4342461 -0.51614183
-17.955498 6.5169573 -0.59167928
-2.8769336 -7.8784275 -0.25979927
-6.9008985 -22.163385 -0.71902907
-5.0204587 -21.495737 -0.68375576
-3.4205663 -21.602917 -0.67749357
-0.78542966 -21.59585 -0.66937935
0.25734374 -21.593559 -0.66891438
0.77880859 -21.592415 -0.66926789
1.3011523 -21.591265 -0.67000914
1.8246484 -21.587097 -0.67105317
2.3503711 -21.585163 -0.67256284
2.8787694 -21.583218 -0.67446882
3.410449 -21.581263 -0.67678285
3.9461327 -21.579292 -0.67951161
5.0333204 -21.580475 -0.68640202
5.5854688 -21.579355 -0.69045615
6.144453 -21.578222 -0.69496405
7.2863474 -21.575905 -0.70541191
7.8696876 -21.57128 -0.71125501
9.0700779 -21.567471 -0.72473347
10.319765 -21.563507 -0.74048764
10.968437 -21.566196 -0.74945509
11.631465 -21.56546 -0.75896573
13.011425 -21.563929 -0.78012544
13.727383 -21.556591 -0.79161739
15.235937 -21.554356 -0.81761366
16.84873 -21.549263 -0.84730273
28.249043 6.5305252 -0.89809805
25.471815 6.5399175 -0.81459111
20.973457 6.4785318 -0.67994606
19.446014 6.5248089 -0.63534892
17.992382 6.5242753 -0.59283131
16.720449 6.523808 -0.5559482
15.622559 6.5341191 -0.52453417
14.620097 6.5337491 -0.49602744
12.907734 6.5331206 -0.44811621
12.169082 6.5328484 -0.42782363
11.494062 6.532598 -0.40951765
10.734492 6.4485297 -0.38788703
10.302852 6.5327082 -0.37787893
9.2796679 6.532331 -0.3515169
7.2393746 6.5315728 -0.30202022
6.8970118 6.5314445 -0.29422909
6.5716796 6.5313239 -0.28699437
5.9659762 6.5310965 -0.2740007
4.8927341 6.5214262 -0.25253379
4.6509767 6.521337 -0.24811016
4.1914258 6.5211625 -0.2401195
3.972285 6.521081 -0.23651713
2.7745898 6.5206265 -0.21950176
2.4099998 6.5204849 -0.21532646
2.2326367 6.5204167 -0.21348244
2.058203 6.5203509 -0.21179175
1.8864062 6.5202837 -0.21024829
1.7170117 6.5202188 -0.20884913
1.5497265 6.5201554 -0.20758834
0.89759761 6.5199027 -0.20385906
0.73773438 6.5198407 -0.20324069
-0.20976561 6.523726 -0.20217678
-0.36751953 6.5236626 -0.20239048
-0.68453121 6.5235391 -0.20317562
-0.84414059 6.5234756 -0.20374905
-1.0047461 6.5234113 -0.20444484
-1.1665429 6.5233479 -0.20526615
-1.4945703 6.5232182 -0.20729229
-1.6611913 6.5231509 -0.20850402
-1.8299218 6.5230827 -0.20985259
-2.0009179 6.5230155 -0.21134169
-2.1744726 6.5229459 -0.21297847
-2.3508203 6.5228753 -0.21476695
-2.8996484 6.5226541 -0.22110435
-3.6900389 6.5223346 -0.23212066
-4.1175389 6.522161 -0.23891433
-5.3080664 6.5131497 -0.26025802
-5.8529587 6.5129266 -0.27123067
-6.1433496 6.5128069 -0.27732143
-6.4472752 6.5126824 -0.2838608
-7.4544921 6.5122671 -0.30660468
-7.8278418 6.5121136 -0.3154026
-8.6439447 6.5117779 -0.33521986
-12.62544 6.5197368 -0.4401406
-13.409023 6.5194111 -0.46183622
-15.096259 6.4587555 -0.50860816
-16.31164 6.5176435 -0.54409552
-18.910009 6.5165582 -0.61954647
-20.341024 6.464849 -0.66112125
-22.354727 6.5152106 -0.72125387
-24.54163 6.5142961 -0.78650934
-27.181688 6.5171318 -0.86581951
-28.373426 -7.8995852 -0.91230291
-20.097803 -7.7508645 -0.66723007
-11.346786 -7.92103 -0.42863834
-2.9356248 -7.8477273 -0.25953689
-8.0452728 -23.19866 -0.76057112
-7.1406641 -22.315935 -0.72576791
-6.4225974 -21.877405 -0.70625311
-5.1979294 -21.493927 -0.68497509
-4.6547556 -21.507105 -0.681611
-0.43310547 -21.595076 -0.66904914
0.60949218 -21.592783 -0.6691097
1.1314648 -21.591639 -0.6697287
3.2374609 -21.5819 -0.67598641
3.7717772 -21.579933 -0.67857873
4.8554688 -21.580837 -0.68518311
5.4055271 -21.579721 -0.68908888
5.9622264 -21.57859 -0.69345009
7.0986915 -21.576284 -0.70357472
8.2700195 -21.570009 -0.71556264
10.113222 -21.564161 -0.73776913
10.754551 -21.562126 -0.74634451
12.089082 -21.564953 -0.7657817
14.226015 -21.555851 -0.79999995
14.984375 -21.554726 -0.81314862
5.6405077 -7.7098875 -0.29590327
17.420546 -21.54731 -0.85828376
18.295313 -21.544319 -0.87549978
19.206406 -21.541203 -0.89396435
26.215878 6.5124369 -0.83672929
21.448847 6.441752 -0.69369733
19.963827 6.5249982 -0.6505779
18.442461 6.5244403 -0.60595864
15.742011 6.4396601 -0.52684098
14.933359 6.533865 -0.50490355
14.002265 6.5335236 -0.47861716
12.401386 6.5329328 -0.43417701
11.706738 6.5326777 -0.41525888
9.435957 6.5323868 -0.35548651
8.9653902 6.5322137 -0.34360087
8.5250196 6.5320501 -0.33266816
7.3544335 6.5316167 -0.30467781
7.0062108 6.531486 -0.29669565
6.6755075 6.5313625 -0.28928599
6.3607812 6.5312443 -0.28239584
5.6911325 6.4379373 -0.2661604
4.9730663 6.5214567 -0.25403607
4.2640038 6.5211892 -0.24134277
3.827949 6.5210257 -0.23422046
3.6191797 6.5209451 -0.23101184
3.2178125 6.5207939 -0.22523578
3.0243163 6.5207195 -0.22264579
2.8351562 6.5206475 -0.22024319
2.6498828 6.5205779 -0.21801636
1.941914 6.5203071 -0.21073402
1.6038085 6.5201774 -0.2079832
1.4378515 6.5201116 -0.20681381
0.94968748 6.5199223 -0.20408618
0.30980468 6.4358854 -0.19958286
-0.0011132812 6.5238066 -0.20207493
-0.47429687 6.5236225 -0.20260222
-0.63289058 6.5235586 -0.20301582
-1.1138867 6.5233698 -0.20498596
-1.6068945 6.5231719 -0.20809497
-2.1178319 6.5229678 -0.21243079
-2.2932618 6.5228972 -0.21416977
-2.6533594 6.5227532 -0.21811855
-2.8386719 6.5226789 -0.22034481
-3.4196093 6.5224442 -0.22811668
-3.6228514 6.5223627 -0.231104
-4.2677536 6.5221 -0.24142975
-5.4870996 6.5130768 -0.26379433
-5.7614059 6.5129642 -0.26934433
-6.0476756 6.5128469 -0.27529815
-6.3470507 6.5127239 -0.28168693
-6.6608496 6.5125942 -0.28855187
-6.9905176 6.5124588 -0.29593703
-7.3377147 6.5123162 -0.30389145
-8.0924416 6.5120049 -0.32174465
-8.9434958 6.5116534 -0.34267467
-9.8515625 6.4693546 -0.36506766
-11.693457 6.520124 -0.41470799
-13.146347 6.5195193 -0.45453522
-13.98373 6.5191717 -0.47790772
-17.115419 6.5173078 -0.56728905
-18.440292 6.5167561 -0.60581154
-19.959238 6.5161209 -0.65035421
-21.720654 6.5154753 -0.70242172
-23.789629 6.5146112 -0.76401824
-2.9941015 -7.8169265 -0.25928593
-6.646699 -22.001642 -0.71192724
-5.9812794 -21.67532 -0.69649148
-4.8302145 -21.50165 -0.68261909
-4.2955275 -21.53993 -0.68034446
-3.7670703 -21.595079 -0.67902136
-3.2333007 -21.602732 -0.67660582
-2.7019532 -21.602201 -0.67434758
-1.6483397 -21.601154 -0.67104977
-0.60238278 -21.595446 -0.66918677
0.44023436 -21.593157 -0.66899282
0.96189451 -21.59201 -0.66948342
1.4846874 -21.590862 -0.67036062
2.0088282 -21.58642 -0.67153418
2.5353711 -21.584482 -0.67318451
3.5978906 -21.580574 -0.67769182
5.2262888 -21.580086 -0.68777192
5.7807617 -21.57896 -0.69198531
6.9119139 -21.576664 -0.70179856
8.0770502 -21.57062 -0.7134636
9.2854681 -21.566786 -0.72732365
10.544745 -21.562792 -0.74351174
11.19916 -21.565943 -0.7527144
11.868144 -21.565197 -0.76246428
12.555098 -21.564436 -0.7729302
13.261601 -21.56365 -0.78415376
13.985058 -21.556208 -0.79592329
16.313828 -21.552755 -0.8372786
19.847559 -21.542795 -0.90732694
27.196093 6.5301409 -0.86634994
18.912889 6.5246134 -0.6197145
16.101191 6.4397917 -0.53715193
15.258007 6.5339837 -0.51413411
13.426191 6.5333099 -0.46250597
12.640742 6.5330219 -0.44075188
11.925527 6.5327582 -0.42118838
10.531289 6.4484539 -0.38250163
10.112422 6.5326385 -0.37291053
9.1146479 6.53227 -0.34734815
8.6648626 6.5321026 -0.33611944
7.8461328 6.5317984 -0.31623071
5.7816796 6.4379716 -0.26802927
5.5067577 6.4378691 -0.26241538
4.8069334 6.5213957 -0.25094739
4.5681834 6.5213041 -0.24662791
4.1138086 6.5211344 -0.2388272
3.6863279 6.5209708 -0.23202911
3.2816014 6.5208182 -0.22611812
3.0866406 6.5207453 -0.22346695
2.8960936 6.5206704 -0.22100414
2.5268359 6.5205302 -0.21660805
2.1711328 6.5203948 -0.21287209
1.9976367 6.5203276 -0.21123298
1.8267187 6.5202618 -0.20974216
1.6580664 6.520196 -0.20839229
1.4915234 6.5201335 -0.20717826
1.1636523 6.5200052 -0.20514846
1.0019336 6.5199432 -0.20432612
0.68189454 6.5198188 -0.20305225
0.20472656 6.4358439 -0.19945182
0.049335938 6.4357829 -0.19935447
-0.26505858 6.5237041 -0.20223792
-0.42296875 6.5236416 -0.20249477
-0.74041015 6.5235171 -0.2033633
-1.2236328 6.5233245 -0.20558365
-1.5528125 6.5231938 -0.20770156
-1.7201366 6.523128 -0.20896056
-2.235996 6.5229206 -0.21358852
-2.5940039 6.5227776 -0.21743332
-3.1581249 6.5225506 -0.22447276
-3.5563281 6.5223894 -0.23011062
-3.7632616 6.5223041 -0.23324531
-3.9760351 6.5222187 -0.23660648
-4.4212012 6.522038 -0.24406303
-4.6071777 6.4552655 -0.24565257
-4.8272071 6.4295588 -0.24903552
-5.0743065 6.4294572 -0.25370282
-5.671123 6.513001 -0.26750064
-7.2229977 6.5123649 -0.30124325
-8.3680267 6.5118914 -0.32843566
-8.7978907 6.511713 -0.3390404
-9.7481537 6.5113187 -0.36311367
-13.702607 6.519289 -0.47003099
-14.600009 6.5189142 -0.49527147
-15.398144 6.4342337 -0.51691622
-23.079414 6.5149064 -0.74282563
-25.405809 6.5139346 -0.81240726
-28.232128 6.5166922 -0.89749533
-19.888124 -7.8640976 -0.66245276
-2.8722069 -7.8809061 -0.25982073
-7.6805172 -22.767757 -0.74428594
-5.0062013 -21.49618 -0.68366945
-3.4065623 -21.602905 -0.67742497
-2.874043 -21.602373 -0.6750375
-1.2942969 -21.596966 -0.67017287
-0.25021484 -21.594675 -0.66894752
0.27101561 -21.593527 -0.6689195
0.79246092 -21.592382 -0.66928333
2.3641601 -21.585112 -0.67260557
2.8926365 -21.583168 -0.67452264
3.9602344 -21.579241 -0.67958665
5.0476952 -21.580446 -0.68650413
5.6000195 -21.579327 -0.69056708
7.8851562 -21.57123 -0.71141702
9.086113 -21.567419 -0.72492468
9.7045507 -21.565456 -0.73251915
12.330039 -21.564684 -0.7694537
13.746543 -21.556564 -0.79193562
15.256328 -21.554323 -0.81797743
16.050077 -21.553146 -0.83239233
17.723476 -21.546272 -0.86418515
18.610624 -21.54324 -0.88183087
28.167734 6.5304961 -0.89564902
25.40498 6.5398932 -0.81258237
23.079609 6.539041 -0.74303776
16.689238 6.523798 -0.55504674
15.594785 6.5341067 -0.52374196
11.477109 6.5325918 -0.40906063
10.71914 6.4485235 -0.38747904
9.7593946 6.5325079 -0.36377159
9.2672262 6.5323257 -0.35120201
7.972363 6.5318451 -0.31924582
7.5908399 6.531702 -0.31019163
7.2301755 6.531569 -0.30180889
6.5633593 6.531321 -0.28681093
6.2538867 6.5312052 -0.28009421
4.8862696 6.5214238 -0.25241476
4.6447654 6.5213337 -0.24799773
4.411406 6.5212455 -0.24387309
4.1856055 6.5211601 -0.24002193
3.9666405 6.5210781 -0.2364254
2.769707 6.5206242 -0.21944202
2.5857811 6.5205522 -0.21727562
2.4053125 6.520484 -0.21527587
2.2280469 6.5204153 -0.21343535
2.0536718 6.5203495 -0.21174949
1.3800585 6.5200896 -0.20643447
1.2164453 6.5200262 -0.20544285
1.0542969 6.5199637 -0.20457938
0.8933984 6.5199003 -0.20384121
0.73357421 6.5198383 -0.20322636
0.41099608 6.4359245 -0.19975875
0.25519532 6.4358649 -0.19950759
0.099726558 6.4358025 -0.19937274
-0.37166014 6.5236611 -0.20239818
-0.5298633 6.5235991 -0.20273341
-0.84832031 6.5234733 -0.20376568
-1.1708008 6.5233464 -0.20528965
-1.3340234 6.5232816 -0.20624049
-1.4989063 6.5232158 -0.20732249
-1.6655859 6.52315 -0.2085374
-1.8343555 6.5230803 -0.20988891
-2.1790235 6.5229435 -0.21302368
-2.5349998 6.5228009 -0.21676548
-2.7179296 6.5227289 -0.21887924
-2.9045703 6.5226517 -0.22116607
-3.0952733 6.5225749 -0.22363067
-3.29041 6.5224967 -0.22628711
-3.6954687 6.5223322 -0.23220359
-4.5780859 6.5219731 -0.24682063
-5.5820312 6.5130377 -0.26569805
-6.1511521 6.5128045 -0.27748683
-7.4640136 6.5122647 -0.30682603
-7.8379197 6.5121098 -0.31564346
-9.5848341 6.5113873 -0.35892189
-9.9856443 6.4370441 -0.36800194
-11.929677 6.5200262 -0.42111278
-12.645009 6.5197282 -0.44067892
-15.09625 6.4474564 -0.50847149
-18.948877 6.5165424 -0.62068599
-20.341015 6.4506803 -0.66099447
-24.604296 6.5142703 -0.78838551
-27.257704 6.5171013 -0.8681131
-28.409882 -7.9291153 -0.91363996
-11.343447 -7.9294019 -0.42870292
-2.9308789 -7.8502011 -0.25955707
-7.1211619 -22.303524 -0.72521806
-5.1828513 -21.49098 -0.68477619
-4.6406054 -21.507542 -0.68153524
-3.5802734 -21.603075 -0.67828858
-3.0464842 -21.602543 -0.67576778
-1.9892383 -21.601492 -0.67194641
-0.94124997 -21.596191 -0.66958296
-0.41941404 -21.595045 -0.66903824
0.10183594 -21.593901 -0.66888523
0.62314451 -21.592754 -0.66912216
1.1451758 -21.591608 -0.66974568
1.6684179 -21.590456 -0.67076737
2.1932225 -21.585741 -0.67206639
2.7207811 -21.583801 -0.67385733
3.2513866 -21.581848 -0.67604941
3.7858398 -21.579882 -0.67865264
4.3247266 -21.577902 -0.68167663
5.9768748 -21.57856 -0.69356841
7.6954684 -21.575075 -0.70954514
8.8880663 -21.568047 -0.72258228
10.129844 -21.564108 -0.73798025
11.431874 -21.565683 -0.75605583
12.107012 -21.564934 -0.76605362
12.800605 -21.564161 -0.77677709
14.245605 -21.555822 -0.80033392
15.00457 -21.554697 -0.81350332
16.602364 -21.552328 -0.84269524
17.443027 -21.547232 -0.85871792
23.78953 6.5393009 -0.76422256
21.399628 6.4417353 -0.69224036
19.921152 6.5249834 -0.64932281
17.083086 6.523942 -0.56643063
13.979121 6.5335135 -0.47796828
13.141992 6.533206 -0.45460472
11.689355 6.5326715 -0.41478786
10.911856 6.4485955 -0.39260909
9.9269142 6.5325689 -0.3680962
8.9534569 6.5322089 -0.34330082
8.5138674 6.5320454 -0.33239433
8.1010542 6.5318928 -0.32234031
7.3450975 6.5316119 -0.30446038
6.997324 6.5314813 -0.29649371
6.3527341 6.5312419 -0.28222129
6.0528321 6.5311298 -0.27582276
5.6839061 6.4379349 -0.26601511
5.4130273 6.4378347 -0.26053259
4.9665427 6.5214543 -0.25391239
4.7222462 6.5213628 -0.24939838
4.4863086 6.521275 -0.24518234
4.2581053 6.5211868 -0.24124309
3.8224218 6.5210233 -0.23413326
3.6137891 6.5209441 -0.23093036
3.2126951 6.5207915 -0.22516647
2.8302538 6.5206451 -0.22018276
2.2852733 6.5204372 -0.21401672
1.9374218 6.5203032 -0.21069473
1.7673242 6.5202384 -0.20925258
1.5994335 6.520175 -0.20794994
1.2693945 6.5200467 -0.20575054
1.1067773 6.5199833 -0.20484611
0.78533202 6.5198588 -0.20341277
0.15019532 6.4358234 -0.19940379
-0.0052343747 6.5238056 -0.20207545
-0.16273437 6.5237446 -0.20213524
-0.32039061 6.5236821 -0.20231521
-0.63705075 6.5235577 -0.20302817
-0.95671874 6.5234308 -0.20422523
-1.118125 6.5233669 -0.20500869
-1.7793554 6.5231037 -0.20943561
-1.9496288 6.5230365 -0.21088207
-2.1223829 6.5229669 -0.21247543
-2.2978907 6.5228958 -0.21421807
-2.4763672 6.5228252 -0.21611466
-2.843574 6.5226765 -0.22040477
-3.0329101 6.5225992 -0.22281058
-3.2265625 6.5225224 -0.22540389
-3.8372068 6.5222745 -0.23439784
24.664883 6.539124 -1.3661031
22.459082 6.5383563 -1.2523086
20.550838 6.5247931 -1.1543546
17.560429 6.5237503 -1.0029124
14.316973 6.5333304 -0.84252167
13.447227 6.5330267 -0.80038601
9.6085548 6.5322247 -0.62203008
9.126543 6.5320525 -0.60085666
8.6760159 6.5318952 -0.58140898
8.2534571 6.531745 -0.56349587
7.8559766 6.5316019 -0.54696137
7.4809375 6.5314679 -0.5316726
6.7894335 6.5312214 -0.50436473
6.4692969 6.531105 -0.49215156
5.5136719 6.4377069 -0.45378503
4.8132029 6.5212393 -0.43392256
4.5742188 6.5211515 -0.42644426
4.119453 6.5209842 -0.41293731
3.691699 6.5208282 -0.40116677
3.486582 6.5207524 -0.39586833
3.2867186 6.5206766 -0.3909328
2.714375 6.5204644 -0.37812197
2.3520508 6.5203276 -0.37109214
2.1756639 6.5202618 -0.36799166
2.0021288 6.5201969 -0.36515459
1.8311328 6.5201311 -0.36256906
1.6624218 6.5200663 -0.36022964
1.4958203 6.5200028 -0.35812613
1.3310351 6.5199409 -0.35625353
1.1678905 6.519877 -0.35460588
1.0061328 6.519815 -0.35317999
0.84558594 6.5197539 -0.35196787
0.36445311 6.4357805 -0.34509963
0.20880859 6.4357204 -0.34472644
0.053398438 6.4356585 -0.34455401
-0.10333984 6.5236392 -0.3492952
-0.41880858 6.5235162 -0.34996453
-0.73623043 6.5233903 -0.35145545
-0.89613277 6.5233269 -0.3525148
-1.0570898 6.523262 -0.35378689
-1.2193359 6.5231977 -0.35527644
-1.3830273 6.5231304 -0.35698828
-1.7157031 6.5229974 -0.36109442
-2.0569141 6.5228596 -0.36616102
-2.231328 6.5227885 -0.36907351
-3.1529491 6.5224099 -0.38784507
-4.1892381 6.5219803 -0.41498819
-5.6637206 6.5128374 -0.46207464
-6.240283 6.5125909 -0.48288184
-7.2136035 6.5121784 -0.5202803
-7.9534469 6.5118618 -0.55031163
-8.3568459 6.5116887 -0.5671823
-8.7859859 6.5115042 -0.58546978
-9.7345209 6.5110965 -0.62698305
-12.135879 6.5196719 -0.7375356
-13.679707 6.5190029 -0.81127346
-14.57456 6.5186138 -0.85476345
-15.370117 6.4339199 -0.89206094
-16.688662 6.5171356 -0.9591676
-20.799326 6.4315557 -1.1655579
-23.02207 6.5144644 -1.2809193
-25.337334 6.5134516 -1.4005843
-28.620399 6.625351 -1.5727692
-28.752705 5.9287372 -1.5717163
-28.869276 5.2298236 -1.5707318
-28.688515 -6.0237598 -1.5693866
-28.549629 -6.7178683 -1.5702038
-28.395859 -7.4092674 -1.5711267
-28.227295 -8.0976954 -1.5721545
-19.868944 -7.8419681 -1.1435747
-14.557851 -25.480515 -1.5710968
-13.95248 -25.850027 -1.5726548
-13.307129 -26.14502 -1.5705948
-12.647695 -26.407244 -1.5675513
-10.62667 -27.055813 -1.5562054
-2.873086 -7.8678379 -0.44842497
-7.7015524 -22.782562 -1.2875149
-6.9000387 -22.160608 -1.2425935
-6.208457 -21.777822 -1.2123655
-4.4809766 -21.518267 -1.176733
-3.953203 -21.581022 -1.1746056
-3.4205468 -21.602692 -1.170948
-2.3587694 -21.601637 -1.1633581
-1.8324023 -21.601112 -1.1606109
-1.3079687 -21.596472 -1.1583251
-0.78542966 -21.595324 -1.1569096
0.25734374 -21.593035 -1.1561053
1.3011132 -21.59074 -1.1579939
1.8246679 -21.587368 -1.1598425
2.3503907 -21.585434 -1.1624482
3.4104881 -21.581535 -1.1697469
3.9461718 -21.579565 -1.1744627
4.4865232 -21.577579 -1.1799043
5.0332813 -21.580296 -1.1863514
5.5854101 -21.579172 -1.1933564
6.1444335 -21.578037 -1.2011443
7.8699217 -21.57189 -1.2293497
9.6884766 -21.566137 -1.2657442
10.968223 -21.565825 -1.2953146
12.311738 -21.564323 -1.3293986
15.236504 -21.555168 -1.4131891
16.029551 -21.554007 -1.4380654
16.849121 -21.549778 -1.4644947
17.701132 -21.546877 -1.4929016
18.587362 -21.543858 -1.5233368
20.479649 -21.541616 -1.5912815
28.246601 6.5299578 -1.5521159
20.969961 6.4774551 -1.1750016
17.991346 6.5239005 -1.0245709
13.719844 6.5331216 -0.81354183
10.734082 6.4482841 -0.67038733
7.6003318 6.5315104 -0.53650635
6.8968163 6.5312591 -0.5085243
6.5715036 6.5311418 -0.49601844
6.2616405 6.5310307 -0.48438948
5.9658008 6.5309243 -0.47356191
5.3418751 6.4469109 -0.44823417
4.6508789 6.5211797 -0.42881584
4.4173241 6.5210953 -0.42167562
4.1913476 6.5210114 -0.41500598
3.9722068 6.5209308 -0.4087804
2.9624023 6.520556 -0.3834261
2.5905077 6.5204167 -0.37562063
2.409961 6.5203495 -0.37215671
2.0581641 6.5202179 -0.36604717
1.7169726 6.5200872 -0.36096251
1.3843359 6.5199604 -0.35683659
0.73773438 6.5197124 -0.35126925
0.5716992 6.4401178 -0.34613612
0.41505858 6.4357986 -0.345265
0.25927734 6.43574 -0.34482494
0.10380859 6.435679 -0.34458801
-0.20974609 6.5235968 -0.34943035
-0.36751953 6.5235357 -0.34980068
-0.68451172 6.5234098 -0.3511574
-0.84410155 6.5233479 -0.35214782
-1.3297266 6.5231533 -0.35640842
-1.6611718 6.5230193 -0.36036471
-2.3507812 6.5227408 -0.37118945
-2.8995702 6.5225153 -0.38214168
-3.0901561 6.5224371 -0.38639462
-3.4849217 6.5222735 -0.39589721
-3.689961 6.5221891 -0.40118185
-3.900625 6.5221014 -0.40685111
-4.5718164 6.5218205 -0.4263989
-4.7425294 6.4294353 -0.42771932
-4.986455 6.4293342 -0.43559182
-5.5747461 6.5128727 -0.45896539
-6.1431832 6.5126333 -0.47930321
-6.4470897 6.5125041 -0.49060509
-6.7658496 6.5123687 -0.50275189
-7.1010056 6.5122271 -0.51582336
-7.4542675 6.5120754 -0.52991146
-8.6436615 6.5115652 -0.57936776
-9.5714941 6.5111675 -0.61975145
-9.9714355 6.4368181 -0.6353969
-10.656718 6.5203118 -0.66884398
-11.91126 6.5197687 -0.72696686
-12.624902 6.5194597 -0.76069546
-13.408437 6.5191193 -0.7981894
-14.273749 6.5187445 -0.84008664
-15.098877 6.4598746 -0.87921774
-20.344423 6.4659328 -1.1428602
-24.539764 6.5138016 -1.3592749
-28.576338 6.8514862 -1.5732466
-28.71162 6.1551433 -1.5720583
-28.939589 4.7567034 -1.5701263
-28.596376 -6.4928331 -1.5699267
-28.104931 -8.5608435 -1.572909
-11.347695 -7.9216709 -0.74090767
-16.276415 -25.106293 -1.6018641
-14.817929 -25.470449 -1.5775808
-14.164599 -25.758183 -1.5737671
-13.516259 -26.049046 -1.5711447
-12.193848 -26.562653 -1.5647681
-11.522148 -26.786135 -1.5610901
-2.9316602 -7.8371921 -0.44797438
-8.0421877 -23.189787 -1.3140482
-7.1397557 -22.313107 -1.254239
-5.780654 -21.607147 -1.1974617
-5.197783 -21.493328 -1.1838567
-4.6548047 -21.507326 -1.1780932
-1.4781641 -21.600761 -1.1591423
0.088144526 -21.593409 -1.1560544
1.1314453 -21.591112 -1.1575091
1.654668 -21.589962 -1.1592522
2.1794727 -21.586061 -1.1615261
3.7718163 -21.580208 -1.1728541
4.3105664 -21.578228 -1.1780537
5.4054685 -21.579538 -1.1909959
6.5262499 -21.577261 -1.2068626
7.0986133 -21.576097 -1.2160317
7.6800585 -21.574917 -1.2260606
8.2702732 -21.570621 -1.2367957
8.8723631 -21.568718 -1.2486017
10.754863 -21.562765 -1.2900205
5.6398239 -7.7089543 -0.51137108
16.581327 -21.5532 -1.4558429
17.420958 -21.547832 -1.4834658
18.295742 -21.544851 -1.5132269
19.206894 -21.541744 -1.5451418
23.846796 6.5388393 -1.3238081
21.447401 6.4413166 -1.1988931
17.114668 6.5235953 -0.98057282
15.741211 6.4393268 -0.91052443
14.932636 6.5335464 -0.87261868
13.162285 6.5329251 -0.78669089
10.483281 6.5325346 -0.66129094
8.9650974 6.5319953 -0.59384948
8.1113081 6.5316935 -0.55754411
7.0059762 6.5312982 -0.51278472
6.6753125 6.5311809 -0.49997881
6.3606052 6.5310659 -0.48807281
6.0603905 6.5309587 -0.47699282
5.6909962 6.4377704 -0.46001548
5.4198437 6.4376712 -0.45052969
4.972949 6.521297 -0.43905821
4.7284179 6.5212078 -0.43124145
4.0426173 6.520956 -0.41075453
3.6191015 6.5208011 -0.39926624
3.4158788 6.5207257 -0.39409697
2.2898242 6.5203042 -0.3699742
2.1144726 6.5202384 -0.36696741
1.9418554 6.5201726 -0.36421955
1.7717187 6.5201077 -0.36172065
1.437832 6.5199823 -0.35744277
1.2736523 6.5199184 -0.35564983
1.1109961 6.519855 -0.35408106
0.94966793 6.519793 -0.3527298
0.62255859 6.4401374 -0.34638938
0.4657031 6.4358206 -0.34545183
0.1542578 6.4356985 -0.34464318
-0.15859374 6.5236173 -0.3493537
-0.47427735 6.5234928 -0.35016584
-0.63287109 6.5234308 -0.35088047
-0.79222655 6.5233684 -0.35180345
-0.95248044 6.5233035 -0.35293666
-1.1138672 6.5232391 -0.35428512
-1.2766016 6.5231743 -0.35585129
-1.4408398 6.5231085 -0.35764155
-1.7748828 6.5229731 -0.36191225
-2.2932031 6.5227628 -0.37015745
-2.4716015 6.5226908 -0.37343043
-2.6533203 6.5226154 -0.37698323
-2.8386133 6.5225396 -0.38082793
-3.0278516 6.5224628 -0.3849797
-3.2213671 6.5223823 -0.3894524
-3.8315818 6.5221305 -0.40496692
-4.0463476 6.5220413 -0.41090655
-4.6652246 6.4294696 -0.42527616
-4.9062986 6.429368 -0.43297854
-5.4869628 6.5129108 -0.45592344
-5.7612596 6.5127945 -0.4655171
-6.6606541 6.512414 -0.4987109
-7.3374996 6.5121245 -0.52522171
-7.7040915 6.5119681 -0.54005224
-8.5043068 6.5116262 -0.57342839
-9.4121771 6.5112348 -0.61272031
-9.853447 6.4705887 -0.63109314
-10.321777 6.4270549 -0.65095848
-11.057353 6.5201383 -0.68722713
-11.692988 6.5198636 -0.71674043
-13.983086 6.5188699 -0.82596332
-15.947412 6.5174589 -0.92232203
-18.439238 6.5163751 -1.0470098
-19.957977 6.5157123 -1.1239858
-23.787861 6.5141287 -1.3204123
-28.668945 6.3813396 -1.5724118
-28.641445 -6.2675457 -1.5696615
-28.49744 -6.9607458 -1.5705152
-28.338348 -7.6511111 -1.5714755
-28.16457 -8.3384581 -1.5725403
-13.723184 -25.948503 -1.5715177
-12.411953 -26.488434 -1.5660739
-11.032637 -26.845442 -1.5538616
-2.9898632 -7.8058376 -0.44750649
-7.4037986 -22.528727 -1.2695808
-6.6458883 -21.99892 -1.2303245
-5.9807811 -21.673578 -1.2037036
-3.7671287 -21.595461 -1.1736093
-3.2332616 -21.602507 -1.1694129
-2.1738281 -21.601452 -1.1623154
-0.60236329 -21.594921 -1.1565758
4.1351757 -21.578871 -1.1762861
5.7807031 -21.578777 -1.1959969
8.6756639 -21.569338 -1.2446681
9.2857027 -21.56741 -1.2571241
11.198945 -21.565569 -1.3009506
12.554863 -21.564051 -1.3358865
14.736034 -21.555901 -1.3979263
16.314434 -21.553591 -1.4472051
17.144297 -21.548771 -1.4742395
18.00791 -21.54583 -1.5033411
18.906952 -21.542768 -1.5345224
19.847616 -21.542849 -1.5682062
14.022109 -7.8906865 -0.86140007
21.988106 -7.867528 -1.2502609
20.505878 6.5247769 -1.152056
18.911757 6.5242214 -1.0710326
15.257246 6.5336599 -0.88857025
13.425586 6.5330181 -0.79934531
12.640215 6.532742 -0.76175183
11.270234 6.5322623 -0.69739592
10.530918 6.4482136 -0.66108114
10.11207 6.5324016 -0.64450562
9.5954876 6.5322199 -0.62144971
7.8458591 6.5315986 -0.54654664
7.4713669 6.5314655 -0.53128749
6.461113 6.5311027 -0.49184233
6.1563282 6.5309939 -0.48050275
5.7815232 6.4378033 -0.463245
5.5066013 6.4377041 -0.45353875
5.2504296 6.446878 -0.44512621
5.0542579 6.5213261 -0.44171226
4.3372264 6.5210648 -0.41928327
4.1136913 6.5209832 -0.41277319
3.4812694 6.52075 -0.39573404
3.0865819 6.5206037 -0.38622588
2.8960352 6.5205326 -0.38196862
2.7095313 6.520463 -0.37802288
2.3473828 6.5203266 -0.37100798
2.1710937 6.5202579 -0.36791399
1.8266796 6.5201287 -0.36250556
1.4914843 6.5200019 -0.3580741
1.3267382 6.5199394 -0.35620859
1.0018945 6.5198135 -0.35314476
0.049316406 6.4356585 -0.34455189
-0.58134764 6.5234513 -0.35062546
-0.74041015 6.5233893 -0.35148087
-0.90033203 6.5233245 -0.35254523
-1.0613281 6.5232596 -0.35382381
-1.2236133 6.5231962 -0.35531849
-1.5527734 6.5230632 -0.35897928
-1.7201171 6.5229959 -0.36115599
-1.8895898 6.5229263 -0.36357096
-2.4133399 6.5227141 -0.37233725
-2.5939453 6.5226407 -0.37579808
-2.7780468 6.5225654 -0.37954706
-2.9659765 6.5224872 -0.38359648
-3.3546875 6.5223269 -0.39266226
-3.5562499 6.522244 -0.39770868
-3.9759374 6.5220695 -0.40893406
-4.4210935 6.521884 -0.42182165
-5.0741796 6.429296 -0.43848479
-6.2481833 6.5125885 -0.48317504
-6.5571384 6.5124578 -0.49476454
-7.2227831 6.5121732 -0.52064621
-7.5828319 6.5120196 -0.53511405
-8.367754 6.5116839 -0.56764191
-8.7975979 6.5114994 -0.58596933
-9.2564259 6.5113015 -0.60588318
-12.154297 6.5196648 -0.73840481
-15.397363 6.4339089 -0.89338773
-17.98995 6.5165701 -1.0243638
-20.845957 6.4315338 -1.1679367
-23.077753 6.5144401 -1.2837908
-25.403788 6.5134244 -1.4040304
-28.872149 5.2114811 -1.5707073
-29.174013 4.5418777 -1.5807004
-28.685078 -6.0419812 -1.5694065
-28.391699 -7.42734 -1.5711517
-19.853153 -7.8502731 -1.1429511
-13.935322 -25.857462 -1.5725644
-13.289912 -26.152102 -1.5705172
-12.630107 -26.413347 -1.567438
-2.8683398 -7.8703136 -0.44846317
-5.5746679 -21.566923 -1.1925766
-4.4671288 -21.519924 -1.1766701
-3.4065428 -21.602678 -1.1708325
-0.25023437 -21.594151 -1.1561587
0.79244137 -21.591858 -1.156741
1.8384179 -21.587317 -1.1599033
2.8926756 -21.583439 -1.1658431
3.4245117 -21.581484 -1.1698592
3.9602537 -21.579514 -1.1745949
5.0476365 -21.580265 -1.1865237
5.5999804 -21.579144 -1.1935468
7.3014841 -21.575686 -1.2194505
8.480176 -21.569958 -1.2408316
9.0863667 -21.568041 -1.252973
9.7048244 -21.566086 -1.2660997
10.336797 -21.564089 -1.2802641
10.98543 -21.565805 -1.2957317
11.648848 -21.565063 -1.3121972
12.329823 -21.564301 -1.3298782
13.747031 -21.557354 -1.3688083
18.611074 -21.543776 -1.5241638
19.53582 -21.540627 -1.5568439
14.026054 -8.0382299 -0.8654846
28.165331 6.5299311 -1.5478784
23.07795 6.5385723 -1.2841556
19.404003 6.5243926 -1.0959817
17.955898 6.5238895 -1.0227886
15.594004 6.5337772 -0.90517408
13.697499 6.5331135 -0.81246024
12.150136 6.5325699 -0.73853916
11.47666 6.5323343 -0.70698053
10.71873 6.4482794 -0.66968137
9.7590427 6.5322781 -0.62870961
7.9721289 6.5316434 -0.55176008
7.5906053 6.531508 -0.53611034
6.5631833 6.5311394 -0.4957037
5.8733006 6.4378362 -0.46654451
5.5945897 6.4377346 -0.45661494
5.1365428 6.5213566 -0.44442657
4.8861718 6.521265 -0.4362548
4.4113083 6.5210919 -0.4214946
3.7539842 6.5208502 -0.40282121
3.3458202 6.5207 -0.39236858
2.4052539 6.5203485 -0.37207007
2.2280078 6.5202799 -0.36888996
1.7125585 6.5200858 -0.36090246
1.5453515 6.5200214 -0.35872862
1.2164062 6.5198965 -0.35507542
0.099746093 6.4356766 -0.3445842
-0.056347653 6.5236588 -0.34926564
-0.37164062 6.5235343 -0.34981272
-0.52984375 6.5234709 -0.35039288
-0.68867189 6.5234089 -0.35117984
-0.84830076 6.5233464 -0.35217643
-1.3340234 6.5231524 -0.35645428
-1.6655469 6.5230179 -0.36042315
-2.0054102 6.5228815 -0.36534166
-2.179004 6.5228095 -0.36817649
-2.3554101 6.5227375 -0.37127513
-2.5349414 6.522665 -0.37464455
-2.717871 6.5225897 -0.37829795
-2.9045117 6.5225124 -0.38224956
-3.0951953 6.5224347 -0.38651079
-3.2903125 6.5223527 -0.39109954
-3.4902344 6.5222712 -0.39603186
-3.9062109 6.5220976 -0.407004
-4.5779786 6.5218182 -0.42658851
-4.7487988 6.4294338 -0.42791578
-4.9929686 6.4293313 -0.43580231
-5.8602633 6.5127521 -0.46904311
-6.1509862 6.5126286 -0.4795883
-6.7744236 6.5123649 -0.50308245
-7.463779 6.5120707 -0.53029519
-8.6550589 6.5115604 -0.57985425
-9.1041307 6.5113678 -0.59923506
-9.5845013 6.5111613 -0.62032586
-9.9852924 6.4368119 -0.63601601
-11.274297 6.5200434 -0.6972512
-11.929189 6.5197611 -0.72780883
-13.430019 6.5191107 -0.79923028
-14.297686 6.5187335 -0.84125668
-18.947744 6.5161529 -1.0727121
-20.344414 6.4517584 -1.1426255
-24.602402 6.5137734 -1.3625177
-28.836132 5.4385819 -1.571014
-28.942196 4.7382975 -1.5701038
-28.27915 -7.8926325 -1.5718367
-27.90625 -9.2615318 -1.574146
-20.045488 -7.745244 -1.1504931
-11.344356 -7.9300408 -0.74101645
-16.257353 -25.111704 -1.6015506
-15.53372 -25.312763 -1.589996
-14.14748 -25.765619 -1.5736752
-13.49957 -26.057199 -1.5711201
-12.176279 -26.568613 -1.5646642
-11.504521 -26.791904 -1.561
-10.82957 -26.999435 -1.5574093
-8.0125484 -23.151585 -1.3115927
-6.404707 -21.86768 -1.2199063
-5.7652049 -21.60413 -1.1970941
-5.1828222 -21.490915 -1.1835425
-3.5802538 -21.602852 -1.1723253
-3.0464647 -21.60232 -1.1679646
-1.9891992 -21.601269 -1.1613564
-0.94124997 -21.595667 -1.1572634
-0.41943359 -21.594521 -1.1563224
1.1451172 -21.591084 -1.1575454
1.6683593 -21.589931 -1.1593026
2.7208202 -21.584072 -1.1646873
3.2514453 -21.582119 -1.168479
5.9768553 -21.578377 -1.1987343
7.6954098 -21.574884 -1.2263479
8.2859373 -21.570574 -1.2370913
8.88834 -21.568666 -1.2489251
9.502656 -21.566725 -1.2617298
10.130136 -21.564741 -1.2755443
12.80039 -21.563776 -1.3425354
13.51414 -21.562975 -1.3624132
14.246152 -21.556618 -1.3833249
15.005116 -21.555508 -1.406091
5.6456246 -7.7066402 -0.51145333
17.443457 -21.547754 -1.4842209
18.31916 -21.544769 -1.5140362
23.787792 6.5388188 -1.3207623
19.919903 6.5245733 -1.1221993
17.082148 6.5235844 -0.97894818
15.727968 6.4455194 -0.909998
13.978477 6.5332122 -0.82606596
13.141406 6.532918 -0.78568959
12.381855 6.5326519 -0.74949056
9.4228907 6.5321589 -0.61383176
8.5135736 6.5318365 -0.57448238
7.3448825 6.5314202 -0.52620572
6.9971094 6.5312958 -0.5124374
6.3525586 6.5310636 -0.48777199
6.0526757 6.5309548 -0.47671187
4.9664259 6.5212946 -0.43884611
3.410625 6.5207243 -0.39396605
3.0192578 6.5205779 -0.3846963
2.8301952 6.5205083 -0.38055003
2.6450391 6.5204372 -0.37671021
2.4634764 6.5203691 -0.37316126
2.2852149 6.5203032 -0.36989242
1.7672851 6.5201077 -0.36165985
1.5993944 6.5200434 -0.35940787
1.4335155 6.5199809 -0.35739371
1.1067382 6.519855 -0.35404268
0.94546872 6.5197916 -0.35269758
0.61845702 6.4401374 -0.34636748
0.30572265 6.4357572 -0.34493589
-0.47843748 6.5234928 -0.35018241
-0.63703126 6.5234294 -0.35090104
-0.79638672 6.523366 -0.35182941
-0.95669919 6.5233026 -0.35296908
-1.1181054 6.5232377 -0.35432312
-1.2808789 6.5231729 -0.35589546
-1.6112499 6.5230398 -0.35971573
-1.7793164 6.5229716 -0.36197528
-2.1223438 6.5228324 -0.36722827
-2.297832 6.5227604 -0.37023887
-2.4763086 6.5226884 -0.37352002
-2.6581249 6.522614 -0.37708098
-2.8435156 6.5225382 -0.38093391
-3.0328515 6.52246 -0.38509327
-3.2264843 6.5223794 -0.38957378
-3.4247851 6.5222979 -0.39439121
-3.8371484 6.5221272 -0.4051176
27.472246 4.5070462 -2.1200562
24.900839 5.9623089 -1.9498681
24.736776 6.558095 -1.9488504
17.559433 6.5233841 -1.4264996
15.283242 6.5333428 -1.2657479
13.446621 6.5327334 -1.138448
11.94248 6.5322318 -1.0366081
11.286269 6.532012 -0.99304807
10.125723 6.5321708 -0.91763341
8.6757221 6.5316815 -0.82698935
7.855742 6.5314031 -0.77799523
7.1258788 6.5311518 -0.73610091
6.1639647 6.5308208 -0.68387604
5.7887106 6.4376359 -0.6592899
5.2570896 6.4467182 -0.63347274
4.813086 6.521081 -0.61721313
4.3430858 6.5209136 -0.59664249
4.1193552 6.520834 -0.58736503
3.9023826 6.5207572 -0.57870376
3.0915625 6.520463 -0.5495351
2.7143359 6.5203266 -0.53784448
2.5314453 6.5202579 -0.5326426
2.3519921 6.5201921 -0.5278455
2.1756248 6.5201273 -0.52343631
1.4958007 6.5198722 -0.5094018
1.3310156 6.5198112 -0.5067392
1.0060937 6.5196867 -0.50236595
0.68601561 6.5195646 -0.49922118
0.52085936 6.43997 -0.49201924
0.36443359 6.4356546 -0.49087414
0.20878905 6.4355936 -0.49034262
-0.10335937 6.5235124 -0.49684256
-0.26091796 6.5234504 -0.49717209
-0.41880858 6.5233879 -0.49779326
-0.73619139 6.5232611 -0.49991396
-0.89611328 6.5231977 -0.50142068
-1.2192968 6.5230656 -0.50534904
-1.5483788 6.522934 -0.5105378
-1.8850781 6.5227957 -0.51705259
-2.2312889 6.5226531 -0.52497327
-2.9609179 6.5223503 -0.54547566
-3.3493946 6.5221868 -0.55834287
-3.5508204 6.5221014 -0.56550962
-4.1891403 6.5218291 -0.59028119
-4.4149804 6.5217328 -0.59974378
-4.6097169 6.4674749 -0.6048106
-5.067461 6.4291387 -0.62339067
-5.6635742 6.5126667 -0.65725607
-5.9455075 6.5125446 -0.67153192
-7.9532127 6.511662 -0.78276187
-10.129375 6.4269037 -0.91354221
-10.846143 6.5199823 -0.96370971
-11.463437 6.5197048 -1.004282
-12.135371 6.5194025 -1.049055
-14.573876 6.518301 -1.2157893
-15.369346 6.4335957 -1.2688274
-16.687763 6.5167851 -1.3642823
-20.452784 6.3243623 -1.6303053
-20.819218 4.8194599 -1.6273724
-22.001944 4.5367584 -1.7107629
-22.896875 3.5794842 -1.7648443
-22.968359 3.024771 -1.7642114
-23.108944 1.3541461 -1.7628317
-23.131132 0.79592651 -1.7625455
-23.123661 -0.87941283 -1.7622082
-23.096483 -1.4372741 -1.7622699
-23.057001 -1.9944167 -1.7624183
-23.005283 -2.5506375 -1.7626535
-22.864862 -3.6592643 -1.7633853
-22.776337 -4.2111912 -1.7638804
-22.675507 -4.7612085 -1.7644632
-22.562569 -5.3090844 -1.7651315
-22.43745 -5.854547 -1.7658865
-20.696474 -5.9373093 -1.6396687
-20.249102 -6.8825641 -1.6286666
-20.089521 -7.3738046 -1.6296771
-19.833975 -7.8281627 -1.6237988
-19.737558 -8.3461189 -1.6319314
-19.545282 -8.8267469 -1.6331745
-19.342285 -9.3033867 -1.6344943
-20.486376 -11.101375 -1.7744342
-19.941309 -12.085773 -1.7757214
-19.652451 -12.569031 -1.7765032
-19.042763 -13.516645 -1.7783411
-18.391123 -14.437644 -1.7805434
-18.049873 -14.887617 -1.7817807
-17.336758 -15.765161 -1.784487
-16.965313 -16.192373 -1.785971
-16.193495 -17.022942 -1.7892047
-15.383955 -17.820124 -1.7927908
-14.965478 -18.20574 -1.7947143
-13.656856 -19.308081 -1.8010008
-13.203515 -19.656784 -1.8032657
-12.741836 -19.99571 -1.8056147
-12.27207 -20.324734 -1.8080466
-11.308887 -20.952246 -1.8131567
-9.7855959 -21.764658 -1.8172624
-9.104023 -21.629892 -1.7871386
-2.869199 -7.8572531 -0.63699901
-7.2209277 -21.36079 -1.7171179
-6.2071581 -21.773323 -1.7241665
-5.5898438 -21.569311 -1.6968307
-5.0205665 -21.496183 -1.6810489
-4.4810839 -21.518791 -1.6738729
-3.9532616 -21.581404 -1.6708344
-2.8879101 -21.601938 -1.6596875
-2.3587303 -21.60141 -1.6547875
-1.8324023 -21.600887 -1.6508794
-1.3079492 -21.595943 -1.6476061
-0.78541017 -21.594799 -1.6455929
0.25732422 -21.59251 -1.6444514
2.35041 -21.585705 -1.6535316
2.8788085 -21.583761 -1.6582208
4.4865818 -21.577856 -1.6783634
5.0332227 -21.580109 -1.687497
5.585371 -21.578989 -1.6974578
6.1443553 -21.57785 -1.7085388
9.6887493 -21.566765 -1.8004941
11.527676 -21.372829 -1.8492531
12.065137 -21.132231 -1.8530971
12.597441 -20.877737 -1.856908
13.124296 -20.609444 -1.8606837
14.745488 -19.827915 -1.8817413
15.494081 -19.816652 -1.9156141
16.273926 -19.80957 -1.9523367
17.084551 -19.801989 -1.9916589
21.39959 -16.809723 -2.072295
22.252636 -15.80506 -2.0785408
23.054569 -14.754626 -2.0844376
13.99625 -8.0329218 -1.2289277
24.155643 -13.099064 -2.0925829
24.817987 -11.946342 -2.0975194
25.126699 -11.356425 -2.0998328
25.420176 -10.758008 -2.1020403
25.698027 -10.151544 -2.1041396
23.905233 -8.7824793 -1.9394194
24.13168 -8.2103271 -1.9411483
24.539433 -7.0477276 -1.9442927
24.883768 -5.8631487 -1.9468658
27.570761 -3.7408094 -2.1188304
27.73867 -2.407773 -2.1203244
27.796034 -1.7380792 -2.1208847
27.835625 -1.0669873 -2.1213198
27.857265 -0.39495361 -2.121629
27.847147 0.94982666 -2.1218703
27.76539 2.2921479 -2.1216066
27.61248 3.6279387 -2.1208398
27.509434 4.2921185 -2.1202681
25.595371 4.6287847 -1.9807751
24.950644 5.7679496 -1.9501737
17.990313 6.5235257 -1.4573059
16.718653 6.5231061 -1.366655
15.620976 6.5334549 -1.2894379
14.618691 6.533123 -1.2193687
12.168086 6.5323062 -1.0517172
11.493144 6.5320807 -1.0067159
10.733671 6.44804 -0.95355314
10.302109 6.5322318 -0.92895299
8.3874807 6.5315838 -0.80955589
7.9821677 6.531446 -0.78542662
7.238945 6.5311918 -0.74247468
6.8966208 6.5310736 -0.72332335
6.5713086 6.5309625 -0.70553595
6.2614646 6.5308537 -0.68899548
5.9656248 6.5307512 -0.67359418
5.6016016 6.4375701 -0.64984864
5.1431055 6.5211954 -0.6324693
4.8924999 6.5211086 -0.62082505
3.9721289 6.5207806 -0.58144963
3.5524805 6.5206304 -0.56547409
3.3509765 6.5205569 -0.55828923
3.1543944 6.5204864 -0.55160302
2.9623437 6.5204182 -0.54538763
2.4099023 6.5202127 -0.52935952
2.2325585 6.5201468 -0.52482527
1.8863477 6.52002 -0.51687723
1.3843163 6.5198298 -0.507568
1.220664 6.5197687 -0.5051226
1.0584766 6.5197062 -0.50299042
0.89757812 6.5196438 -0.50116879
0.73771483 6.5195827 -0.49964896
0.41505858 6.4356742 -0.49110878
0.25927734 6.4356132 -0.49048355
0.10380859 6.4355521 -0.49014547
-0.052226562 6.5235319 -0.49679694
-0.20974609 6.5234699 -0.49703354
-0.36749998 6.5234075 -0.49756002
-1.004707 6.5231547 -0.50261033
-1.1664844 6.5230875 -0.50462759
-1.3296875 6.5230231 -0.50695831
-1.6611524 6.5228872 -0.51258713
-2.7129686 6.5224528 -0.53795308
-3.285078 6.5222135 -0.55612516
-3.4848633 6.5221281 -0.56312728
-4.1173434 6.5218606 -0.58734679
-4.5716991 6.5216656 -0.60651195
-4.7424121 6.4292803 -0.60839087
-5.3078027 6.5128226 -0.63981301
-5.5746093 6.5127068 -0.65283209
-6.4469137 6.5123248 -0.69783509
-6.7656641 6.5121841 -0.71511418
-7.827363 6.5117154 -0.77537268
-8.222949 6.5115409 -0.7987563
-9.0916595 6.5111542 -0.85159361
-9.5711517 6.5109406 -0.88152534
-9.9710741 6.4365873 -0.90378803
-10.656308 6.5200663 -0.95135432
-11.257431 6.5197964 -0.99067914
-11.910771 6.5195036 -1.0340226
-13.407832 6.5188284 -1.1353258
-15.101484 6.4609976 -1.2508537
-17.524628 6.5164065 -1.4238268
-20.669844 5.4865437 -1.6285803
-20.784443 4.9832878 -1.6276556
-21.223213 4.5498052 -1.6529357
-22.871054 3.7592473 -1.7650682
-22.946493 3.204989 -1.7644075
-23.060537 2.0927386 -1.763345
-23.099072 1.5352551 -1.7629434
-23.140635 -0.13981506 -1.7622607
-23.129833 -0.69822323 -1.7622067
-23.07118 -1.8136673 -1.7623605
-23.023428 -2.3702042 -1.7625675
-22.890957 -3.4797366 -1.7632431
-22.806387 -4.0322337 -1.7637103
-22.600546 -5.1314869 -1.7649052
-22.479374 -5.6777697 -1.7656322
-20.443438 -6.2271247 -1.6274496
-20.298515 -6.7224164 -1.6283556
-20.142441 -7.2147131 -1.6293411
-19.975567 -7.7037344 -1.6304034
-19.797665 -8.1892939 -1.6315441
-19.608868 -8.6711426 -1.6327626
-20.823154 -10.437048 -1.7737842
-20.570713 -10.93947 -1.7742599
-20.307217 -11.436389 -1.7748275
-20.032684 -11.92758 -1.7754879
-19.74745 -12.412859 -1.7762389
-11.348613 -7.9223118 -1.053979
-18.827353 -13.830743 -1.7790442
-17.813555 -15.187349 -1.7826593
-15.51789 -17.693125 -1.7921846
-14.244297 -18.831621 -1.7981305
