# .PCD v0.7 - Point Cloud Data file format
VERSION 0.7
FIELDS x y z
SIZE 4 4 4
TYPE F F F
COUNT 1 1 1
WIDTH 1500
HEIGHT 1
VIEWPOINT 0 0 0 1 0 0 0
POINTS 1500
DATA ascii
-2.6750782 6.519877 -1.3451595
-2.8606834 6.5197916 -1.3589886
-3.6463866 6.5194292 -1.4258184
-3.855664 6.5193329 -1.4457211
-4.0709958 6.5192304 -1.4670541
-4.2929101 6.519124 -1.4899069
-4.5219531 6.5190144 -1.5143735
-5.0041404 6.5187798 -1.56862
-5.4560547 6.4390335 -1.6109467
-6.189199 6.6277447 -1.7309201
-6.3431444 6.4723272 -1.7297986
-6.4932809 6.313427 -1.7287031
-6.7819138 5.985611 -1.7265917
-7.0545311 5.6450162 -1.7245904
-7.1846485 5.4701886 -1.7236325
-7.3105469 5.2924333 -1.7227035
-7.549531 4.9286418 -1.7209338
-7.826992 4.5872831 -1.7316821
-8.7630663 4.3171649 -1.8646394
-8.8611135 4.1029143 -1.8638983
-9.1247263 3.4477336 -1.8618872
-9.2022848 3.2255907 -1.8612884
-9.2745895 3.0017884 -1.8607267
-9.3416796 2.7764146 -1.8602011
-9.4599018 2.321485 -1.859262
-9.511054 2.092176 -1.858848
-9.6617575 1.1653247 -1.8575696
-9.7177734 0.46352476 -1.8570113
-9.7247458 -0.24032287 -1.8567984
-9.7161522 -0.474812 -1.8568041
-9.7021093 -0.70906246 -1.8568488
-9.6825781 -0.94290894 -1.856932
-9.6576557 -1.1762713 -1.8570535
-9.5503902 -1.8721097 -1.8576477
-9.2644529 -3.0104599 -1.8593987
-9.113203 -3.4555633 -1.8603616
-8.8476954 -4.1092448 -1.8620813
-8.7490234 -4.3229666 -1.8627273
-8.5367575 -4.7434392 -1.864126
-8.4232807 -4.9499621 -1.8648779
-8.0539064 -5.5533881 -1.8673419
-7.0051756 -5.9022045 -1.7484643
-6.764492 -5.9842887 -1.7239287
-6.6218553 -6.1491513 -1.7248957
-6.3250194 -6.4689164 -1.7269142
-5.8516407 -6.9222593 -1.7301462
-5.1714454 -7.473928 -1.7348135
-4.9931836 -7.6018658 -1.7360405
-4.8118162 -7.7256455 -1.7372903
-4.627461 -7.8452091 -1.7385622
-4.4401755 -7.9604712 -1.7398559
-4.2500978 -8.0713406 -1.7411703
-4.0572267 -8.177784 -1.7425052
-3.0559571 -8.6408834 -1.7494569
-2.8489647 -8.7192602 -1.7508978
-2.21666 -8.924859 -1.7553082
-1.5695899 -9.0851355 -1.7598329
-0.68933594 -9.2263489 -1.7660061
-0.46708983 -9.2484665 -1.767568
-0.020527344 -9.2766905 -1.7707098
0.20343749 -9.2827425 -1.7722874
1.1006836 -9.2529182 -1.7786202
1.3248438 -9.2318983 -1.7802056
1.5484179 -9.2054415 -1.7817881
1.7716211 -9.1735353 -1.7833691
1.9941211 -9.1362143 -1.7849466
2.2158399 -9.093462 -1.7865199
3.0923827 -8.868516 -1.792752
3.308203 -8.798893 -1.7942899
3.5225194 -8.7239561 -1.7958184
4.3611131 -8.3718681 -1.8018125
4.5655274 -8.2709494 -1.8032774
4.7674999 -8.164978 -1.8047259
4.9670115 -8.0539923 -1.8061584
5.1638474 -7.9380589 -1.8075732
5.9224997 -7.4260287 -1.8130413
6.2827344 -7.1420135 -1.8156471
6.960371 -6.5211411 -1.8205694
7.1202145 -6.3554106 -1.8217349
7.4275975 -6.0120287 -1.8239819
8.4181051 -5.8596501 -1.9577584
8.8175583 -5.5262566 -1.9862984
8.9528322 -5.3146386 -1.9873016
9.0828123 -5.0996356 -1.9882678
9.2074995 -4.8813372 -1.9891976
9.6511326 -3.9782286 -1.9925357
9.7478704 -3.7456582 -1.9932721
9.838789 -3.5106835 -1.9939675
10.003047 -3.0340326 -1.9952368
10.259238 -2.0582864 -1.9972701
10.308007 -1.8105981 -1.9976715
10.416836 -1.0610272 -1.9986136
10.440566 -0.80956113 -1.9988394
10.46914 -0.30512571 -1.999158
10.472403 0.20013854 -1.9992987
10.46457 0.45266905 -1.999302
10.403105 1.2079834 -1.9990448
10.330723 1.7079523 -1.9986508
10.285136 1.9563904 -1.9983871
10.111425 2.6935108 -1.9973339
9.9651365 3.1765528 -1.996415
9.8830662 3.415108 -1.9958917
9.7950392 3.6514518 -1.9953262
9.6015034 4.1169915 -1.9940701
8.8945894 4.6017876 -1.9115396
8.4342384 4.6248112 -1.8360361
8.0556641 5.2082782 -1.8310217
7.9238477 5.3984661 -1.8301367
7.7874804 5.5852103 -1.8292187
7.5010934 5.9479923 -1.8272839
6.8768358 6.6272783 -1.8229626
6.7111325 6.7872953 -1.8219098
6.1538868 6.531702 -1.712929
5.8629489 6.5316215 -1.6753249
4.7506247 6.4475274 -1.5286636
4.342793 6.5317349 -1.4971713
3.9020703 6.5316019 -1.4522619
3.6912303 6.5315385 -1.4320298
2.9002733 6.5312905 -1.3640496
2.3510156 6.5311127 -1.3249389
2.1745312 6.5310526 -1.3139011
1.829746 6.5309367 -1.294596
1.6609179 6.5308781 -1.286266
1.4941796 6.5308194 -1.2787815
1.1659374 6.5307035 -1.2662611
1.0040234 6.5306449 -1.2611845
0.68363279 6.5305266 -1.253327
0.52476561 6.530468 -1.2505223
0.36646482 6.5304084 -1.248454
0.050996091 6.5302873 -1.2465076
-0.26041016 6.4371233 -1.2296907
-0.57316405 6.4462652 -1.2352847
-0.89845699 6.5206428 -1.2563866
-1.0592773 6.5205765 -1.2609327
-1.3849413 6.5204411 -1.2723554
-1.7173437 6.5202985 -1.2870086
-1.8866405 6.520225 -1.2956021
-2.0583007 6.5201516 -1.3050758
-2.9616992 6.5197468 -1.3668431
-3.1535547 6.51966 -1.3823751
-3.5511718 6.5194755 -1.4170405
-3.9702344 6.5192776 -1.4569666
-4.1890235 6.5191741 -1.4791015
-4.4147067 6.5190654 -1.5028079
-4.6478319 6.5189533 -1.5281869
-4.8891602 6.518837 -1.555361
-5.1393552 6.518714 -1.5844561
-5.3333983 6.4390936 -1.5959145
-5.5968552 6.4347076 -1.6278307
-6.272109 6.544909 -1.7303164
-6.4240623 6.3876276 -1.7292084
-6.5721483 6.2269082 -1.7281268
-6.8565426 5.8955936 -1.7260449
-6.9927149 5.7251849 -1.725045
-7.3762498 5.196054 -1.7222178
-7.4955859 5.0140371 -1.7213339
-7.6105466 4.82939 -1.7204806
-7.7211719 4.6421833 -1.7196569
-8.0478315 4.5780215 -1.7673019
-8.7157812 4.4158807 -1.8649957
-8.911562 3.9872148 -1.8635156
-9.0869722 3.5502434 -1.8621774
-9.166894 3.3289385 -1.8615621
-9.3754101 2.6550727 -1.8599353
-9.5791206 1.7379297 -1.8582854
-9.616601 1.5060974 -1.8579671
-9.6486521 1.2735187 -1.857687
-9.7123041 0.5723291 -1.8570751
-9.7225971 0.3378827 -1.8569479
-9.7274408 0.10325256 -1.8568591
-9.7208004 -0.36598328 -1.8567969
-9.7092772 -0.60036683 -1.8568236
-9.6923237 -0.83440489 -1.8568887
-9.6699018 -1.06802 -1.8569925
-9.6420898 -1.3010387 -1.8571342
-9.5701561 -1.7649212 -1.8575332
-9.5261717 -1.9955322 -1.8577899
-9.476758 -2.2250674 -1.8580848
-9.4219723 -2.4534578 -1.8584179
-9.3619528 -2.6805506 -1.8587883
-9.225996 -3.1303689 -1.859642
-9.1501951 -3.3528519 -1.8601248
-8.9830465 -3.7924318 -1.8612008
-8.7954683 -4.2240133 -1.8624227
-8.6941013 -4.4365335 -1.863088
-8.4765816 -4.8544092 -1.8645245
-8.3604488 -5.059557 -1.8652954
-8.2395506 -5.2620072 -1.8661007
-8.1138868 -5.4616818 -1.8669403
-7.9834762 -5.6584353 -1.8678137
-7.848496 -5.8522096 -1.8687204
-7.5141602 -5.890151 -1.8224157
-6.8288865 -5.9062915 -1.72338
-6.6885548 -6.073029 -1.7244433
-6.5438867 -6.2361426 -1.7254254
-6.2429099 -6.5522532 -1.7274737
-6.0868163 -6.7050552 -1.7285388
-5.9269919 -6.8542571 -1.7296307
-5.7636719 -6.9997435 -1.7307483
-5.5968747 -7.1414437 -1.7318914
-5.4266405 -7.2792797 -1.7330595
-5.2530856 -7.4131498 -1.7342519
-5.0762892 -7.5429931 -1.7354681
-4.3386912 -8.0204268 -1.7405576
-4.1471286 -8.1289234 -1.7418829
-3.7560742 -8.3324108 -1.7445925
-3.5568163 -8.4272614 -1.7459751
-3.3552148 -8.5174379 -1.7473756
-3.1513672 -8.6028509 -1.748793
-2.5273046 -8.8300962 -1.75314
-2.1020899 -8.9568472 -1.7561084
-1.8870507 -9.0126543 -1.7576116
-1.6705469 -9.0633535 -1.7591261
-1.0134765 -9.1844044 -1.7637304
-0.57035154 -9.2388601 -1.766842
-0.28935546 -7.7047162 -1.4716873
-0.12435547 -9.2720509 -1.7699789
0.32351562 -9.2837782 -1.7731338
0.54787105 -9.2815418 -1.7747159
1.668164 -9.1890287 -1.7826359
2.5545897 -9.0172729 -1.7889258
2.7737498 -8.9608383 -1.7904843
2.9916797 -8.8990278 -1.792035
3.2082226 -8.8318777 -1.7935772
4.0578513 -8.5103836 -1.7996423
4.2654881 -8.4169731 -1.8011279
5.0728126 -7.9924908 -1.8069186
5.2682223 -7.8739305 -1.808324
5.4607811 -7.7505078 -1.8097104
5.6504102 -7.6222839 -1.8110772
5.8369336 -7.4893436 -1.8124231
6.0203123 -7.3517351 -1.8137481
6.5499606 -6.9117785 -1.8175848
6.8848825 -6.5966778 -1.8200194
7.3577733 -6.0931354 -1.8234706
7.5069332 -5.9174256 -1.8245633
7.8343749 -5.8746934 -1.8691238
8.2271681 -5.8646131 -1.9285133
8.753027 -5.6232996 -1.9858209
8.890625 -5.4133043 -1.9868399
9.0231247 -5.1998615 -1.9878237
9.2720699 -4.763093 -1.9896804
9.3883791 -4.5400367 -1.9905527
9.4991407 -4.3140821 -1.9913861
9.6042185 -4.0853195 -1.9921801
9.8851366 -3.3838229 -1.994324
10.042969 -2.9049366 -1.9955484
10.176777 -2.418494 -1.9966049
10.403652 -1.1775341 -1.9984936
10.450703 -0.67457759 -1.9989419
10.4725 -0.16980895 -1.9992132
10.457734 0.587865 -1.9992856
10.440176 0.83992428 -1.9992203
10.349766 1.5922515 -1.9987582
10.307051 1.8411932 -1.998515
10.203105 2.3354065 -1.997897
10.074629 2.8236334 -1.9971048
10.001269 3.0651202 -1.9966439
9.8366404 3.542016 -1.9955941
9.745429 3.7771442 -1.9950057
9.6484566 4.0098333 -1.9943762
9.4372845 4.4673843 -1.9929941
9.1307812 4.5951519 -1.9511367
8.2401171 4.9238811 -1.8322558
8.1152735 5.118865 -1.8314211
7.9856443 5.3106046 -1.8305517
7.8513474 5.4989533 -1.8296487
7.712461 5.683825 -1.8287127
7.4213867 6.0426445 -1.8267438
7.2693944 6.2163873 -1.8257126
6.7885351 6.7135515 -1.8224053
6.293457 6.5317402 -1.7313125
5.9964061 6.5316582 -1.6924509
5.4397655 6.5315032 -1.6224629
5.112031 6.4481792 -1.5706658
4.862988 6.4475589 -1.5414908
4.6232224 6.4474893 -1.5143626
4.4491014 6.5317669 -1.5085053
4.2220702 6.5316997 -1.48453
3.7883787 6.5315681 -1.4412478
3.5806248 6.5315056 -1.4217554
3.1809959 6.5313811 -1.3866781
2.9882617 6.5313187 -1.3709608
2.6151171 6.531199 -1.3428657
2.0811718 6.5310221 -1.308374
1.4056054 6.5307879 -1.2751117
1.0790625 6.5306721 -1.2634447
0.59841794 6.5304947 -1.2517326
-0.033398438 6.5302544 -1.2464803
-0.49972656 6.4370279 -1.2323655
-0.82414061 6.5206733 -1.254537
-0.98447263 6.520607 -1.2587277
-1.1459765 6.5205402 -1.263684
-1.3088477 6.520473 -1.2694219
-1.6395117 6.5203323 -1.2833099
-1.8077734 6.5202603 -1.2915051
-2.1513476 6.5201092 -1.310523
-2.5060351 6.5199542 -1.3332601
-3.4570897 6.5195169 -1.4085459
-3.8708789 6.5193253 -1.4471976
-4.0866599 6.5192218 -1.4686373
-4.5386329 6.5190067 -1.5161903
-4.7760935 6.5188894 -1.5425171
-5.2773242 6.5186467 -1.6008863
-6.2003121 6.6167426 -1.7308393
-6.5039062 6.3019342 -1.7286254
-6.9299998 5.8046784 -1.7255056
-7.1938086 5.4575653 -1.723565
-8.2814455 4.5702472 -1.805475
-8.770215 4.3019061 -1.8645854
-8.9605856 3.8709369 -1.863143
-9.0480862 3.6523821 -1.862475
-9.2795706 2.9857178 -1.8606879
-9.3462305 2.7602355 -1.8601654
-9.4076757 2.5333393 -1.8596796
-9.4637499 2.3051159 -1.8592309
-9.5998631 1.6138341 -1.8581103
-9.6344528 1.3815771 -1.8578124
-9.7184963 0.44675109 -1.8570023
-9.7258587 0.21217956 -1.8568957
-9.7278318 -0.022467041 -1.8568271
-9.7008791 -0.72580504 -1.8568536
-9.681015 -0.95962095 -1.8569393
-9.6556635 -1.1929474 -1.8570637
-9.588789 -1.6575464 -1.857427
-9.547226 -1.8886074 -1.8576663
-9.4480658 -2.3475943 -1.8582586
-9.3275776 -2.8016391 -1.8590024
-9.1074219 -3.4713571 -1.8603987
-9.0236721 -3.691082 -1.8609381
-8.9347658 -3.9088805 -1.8615142
-8.8408003 -4.1246047 -1.8621265
-8.7417574 -4.3381705 -1.862775
-8.4149408 -4.9646373 -1.8649333
-7.9117379 -5.7626476 -1.8682952
-7.3230076 -5.8947196 -1.7943921
-6.981328 -5.90276 -1.7450567
-6.6115232 -6.1608214 -1.7249659
-6.4647069 -6.3221674 -1.7259634
-6.1597266 -6.6345634 -1.7280411
-5.8399415 -6.9326658 -1.7302263
-5.6747265 -7.0761442 -1.7313577
-5.5060935 -7.2157788 -1.732514
-5.3340626 -7.3515024 -1.7336954
-5.1587892 -7.4832134 -1.7349005
-4.7987304 -7.7343445 -1.7373806
-4.6141601 -7.8536057 -1.7386541
-4.4266601 -7.9685521 -1.7399493
-3.449121 -8.4761543 -1.7467233
-3.2462304 -8.5637951 -1.7481332
-2.8341405 -8.7246656 -1.7510012
-2.2014062 -8.9292097 -1.7554147
-1.7712109 -9.040453 -1.7584218
-1.5539843 -9.0884008 -1.7599423
-1.3355078 -9.1311684 -1.7614725
-0.89503902 -9.2010555 -1.7645619
-0.67355466 -9.2281075 -1.7661171
0.21945313 -9.2829781 -1.7724004
0.4436914 -9.2832527 -1.773981
0.66810548 -9.2781248 -1.7755647
0.89246094 -9.2675772 -1.7771488
1.5644531 -9.20333 -1.7819017
2.01 -9.1333389 -1.7850593
2.2316992 -9.0901976 -1.7866323
3.3236327 -8.7937088 -1.7944
4.1693358 -8.4609842 -1.8004401
4.3758202 -8.3648262 -1.801918
4.781836 -8.1572113 -1.8048288
4.9811912 -8.0458708 -1.8062603
5.177793 -7.9295893 -1.8076736
5.750742 -7.5516543 -1.8118011
5.9356055 -7.4161844 -1.813136
6.4700584 -6.9824905 -1.8170049
6.6411524 -6.8290424 -1.8182468
6.8084764 -6.6713276 -1.8194635
8.4480276 -5.8588681 -1.9623642
8.6873827 -5.7195749 -1.9853359
8.9623241 -5.2993684 -1.987372
9.4484177 -4.4193344 -1.991004
9.5561523 -4.1918678 -1.9918166
9.8451166 -3.4937799 -1.9940161
10.008457 -3.016808 -1.9952788
10.208476 -2.2870467 -1.9968591
10.26293 -2.0406046 -1.9973004
10.353281 -1.5438824 -1.998053
10.38914 -1.2938739 -1.9983639
10.459043 -0.53950804 -1.9990323
10.469667 -0.28706053 -1.9991659
10.474062 -0.034456175 -1.9992557
10.472031 0.21818787 -1.9993002
10.463769 0.4707489 -1.9993008
10.449101 0.72297603 -1.9992563
10.428164 0.97475034 -1.9991671
10.400918 1.2259088 -1.9990335
10.28164 1.9740967 -1.9983667
10.229414 2.2212079 -1.9980559
9.8769722 3.4320917 -1.9958529
9.7885151 3.6682744 -1.9952841
9.5941401 4.1334772 -1.9940221
9.4883394 4.3621635 -1.9933294
9.376914 4.5880647 -1.9925967
8.8590822 4.6027851 -1.9055939
8.4141798 4.632741 -1.8334154
8.2964649 4.8322711 -1.8326318
8.1738281 5.0287285 -1.8318129
8.0463867 5.2220097 -1.8309594
7.914238 5.4119401 -1.8300719
7.7774997 5.598433 -1.8291513
7.0278125 6.4755487 -1.8240697
6.8651171 6.6388688 -1.8228887
4.9772263 6.4475918 -1.5547216
4.5218554 6.4813666 -1.508464
4.1033201 6.5316653 -1.4723434
3.6763866 6.5315347 -1.4306359
3.471621 6.5314727 -1.4118637
3.2720118 6.5314093 -1.394376
2.5176368 6.5311661 -1.3360568
2.3383007 6.5311089 -1.3241184
1.9885352 6.5309906 -1.3031093
1.8175976 6.5309319 -1.2939709
1.4823047 6.5308146 -1.2782773
1.3175 6.5307574 -1.2716753
1.1543164 6.5306988 -1.2658725
0.9925195 6.5306401 -1.2608519
0.83187497 6.5305815 -1.2565994
0.67222655 6.5305228 -1.2531027
-0.11609375 6.4371796 -1.2288973
-0.42728513 6.4370561 -1.2313782
-1.0708398 6.5205717 -1.261287
-1.2330273 6.5205035 -1.2666605
-1.3966992 6.5204349 -1.2728208
-1.5621094 6.5203652 -1.2797936
1.6849219 6.5307498 -1.4455093
1.1891992 6.5305777 -1.422654
1.0271094 6.5305195 -1.4168315
0.86624998 6.5304608 -1.4118719
0.70642579 6.5304022 -1.407766
0.54742187 6.5303421 -1.4044955
0.38906249 6.5302835 -1.4020567
0.23117188 6.5302238 -1.4004383
0.073535152 6.5301642 -1.3996375
-0.23816405 6.4370012 -1.3805248
-0.39380857 6.4369388 -1.3821481
-0.54992187 6.4368768 -1.3845806
-0.87550777 6.5205193 -1.4100219
-1.0361913 6.520452 -1.4150015
-1.1980859 6.5203838 -1.4208474
-1.3614258 6.5203152 -1.4275744
-1.862246 6.5200982 -1.4532716
-2.2074609 6.5199442 -1.4752754
-2.5641015 6.5197845 -1.5015036
-2.9345312 6.5196147 -1.53231
-3.1257617 6.5195246 -1.5495641
-3.3214257 6.519433 -1.5681326
-3.7278125 6.5192399 -1.6095059
-4.157207 6.519031 -1.6570797
-4.849668 6.512897 -1.7403375
-5.2980075 6.1337113 -1.7370886
-6.4630075 4.8247232 -1.7285699
-6.5743551 4.6652141 -1.7277478
-6.801074 4.5835075 -1.7577512
-7.1489844 4.5711808 -1.8186425
-7.4770899 4.5306745 -1.8737555
-7.5811133 4.347199 -1.8729796
-7.6806641 4.1614141 -1.8722345
-7.7758203 3.9734173 -1.8715197
-8.0343752 3.3972197 -1.8695627
-8.1114454 3.2014306 -1.868974
-8.2516403 2.804889 -1.867893
-8.3146877 2.6043572 -1.867402
-8.3730268 2.4024463 -1.8669436
-8.4754486 1.994967 -1.8661267
-8.5194721 1.7896154 -1.8657684
-8.5586519 1.5833197 -1.8654443
-8.6225386 1.1683716 -1.8648971
-8.6471872 0.95993221 -1.8646749
-8.666914 0.75100404 -1.8644871
-8.681797 0.54168701 -1.8643335
-8.6970892 -0.08746887 -1.8640792
-8.6923628 -0.29721984 -1.8640636
-8.6488476 -0.92503721 -1.8642246
-8.624609 -1.1334583 -1.8643469
-8.5226955 -1.7546442 -1.8649206
-8.4790821 -1.9599798 -1.8651806
-8.3774805 -2.3674147 -1.8658019
-8.2569141 -2.7698064 -1.8665584
-8.1895504 -2.9688418 -1.866987
-8.1175585 -3.1662974 -1.8674487
-7.9598045 -3.5560503 -1.8684701
-7.7838278 -3.9382145 -1.8696219
-7.6891208 -4.1262012 -1.8702456
-7.5900388 -4.3119774 -1.8709011
-7.4865232 -4.4954538 -1.8715881
-7.2667184 -4.8550816 -1.8730543
-7.1504493 -5.0310316 -1.8738329
-7.0300388 -5.2042847 -1.8746417
-6.77707 -5.5423145 -1.8763467
-5.9345117 -5.8943124 -1.7926648
-5.6612306 -5.9008441 -1.7525995
-5.3134766 -6.102015 -1.7341315
-5.0188475 -6.3585663 -1.736149
-4.7120504 -6.6012073 -1.7382554
-4.2304492 -6.9378543 -1.7415725
-3.7251756 -7.240078 -1.7450646
-3.551914 -7.3328652 -1.7462646
-3.376328 -7.4215784 -1.7474818
-3.1986327 -7.5061498 -1.748715
-3.0188086 -7.5865335 -1.7499642
-2.4677148 -7.8020177 -1.7537992
-2.2805274 -7.8651214 -1.7551047
-2.0917187 -7.9237833 -1.7564219
-1.9014062 -7.9779625 -1.7577511
-1.7097266 -8.0276213 -1.7590909
-1.5167577 -8.0727186 -1.7604411
-1.3226367 -8.1132164 -1.7618002
-0.53648436 -8.2285872 -1.767316
-0.31583983 -7.7012844 -1.6519457
-0.1392578 -8.2579203 -1.7701098
0.06001953 -8.2654238 -1.771513
0.2595703 -8.2681322 -1.7729193
0.45927733 -8.2660341 -1.7743276
0.659082 -8.2591 -1.7757382
1.2574999 -8.209341 -1.7799689
1.6545898 -8.1520071 -1.7827818
1.8521875 -8.116106 -1.7841833
2.0490038 -8.0753899 -1.7855804
2.826211 -7.8646946 -1.7911091
3.0173829 -7.8001647 -1.7924719
3.3951561 -7.6570749 -1.7951688
3.9485936 -7.4078536 -1.7991287
4.3074412 -7.2191143 -1.8017025
4.9966016 -6.789187 -1.8066616
5.162324 -6.671104 -1.8078573
5.6420116 -6.2924266 -1.8113275
5.7956834 -6.158298 -1.8124423
6.3929296 -5.8767514 -1.8610961
6.7015624 -5.8685966 -1.9091635
7.0265622 -5.8598247 -1.9608929
7.2172265 -5.7294683 -1.9749682
7.3571677 -5.5566101 -1.9759952
7.7510352 -5.0174627 -1.9788973
8.4147072 -3.8566589 -1.9838467
8.5082808 -3.6538723 -1.9845538
8.5968752 -3.4487526 -1.985226
8.6803513 -3.2414303 -1.985863
8.7586327 -3.0320241 -1.9864635
8.8995504 -2.607528 -1.9875559
8.9620895 -2.3927011 -1.9880469
9.0192776 -2.1763222 -1.9885004
9.1582031 -1.5193511 -1.9896328
9.193594 -1.2982055 -1.9899341
9.2234373 -1.0762091 -1.9901959
9.2477541 -0.85351926 -1.9904189
9.2892971 0.041414183 -1.9909204
9.2156439 1.158675 -1.9906613
9.1841993 1.3805072 -1.9904913
9.1049023 1.8214105 -1.9900345
9.0036526 2.2577014 -1.9894222
8.7368746 3.1119945 -1.9877404
8.3867769 3.9347284 -1.9854633
8.0718555 4.5260954 -1.9833807
7.7499804 4.5947733 -1.9309739
7.1036129 4.688715 -1.8241882
6.7367969 5.1830387 -1.8217171
6.6066403 5.3414483 -1.8208363
6.4726367 5.4965034 -1.8199278
6.3349218 5.6481242 -1.818992
5.5936522 6.3515949 -1.8139297
5.2744923 6.605978 -1.8117387
4.897871 6.4474053 -1.7353159
4.4820704 6.5316143 -1.6977582
4.0329685 6.531486 -1.645192
3.0155077 6.5311823 -1.5417672
2.6412303 6.5310636 -1.5098754
2.4596484 6.5310063 -1.4957068
2.1059961 6.5308905 -1.4706799
1.4291601 6.5306606 -1.4327806
1.102168 6.5305462 -1.4194261
0.14669922 6.5301909 -1.3999084
-0.010859375 6.5301309 -1.399544
-0.16599609 6.4370294 -1.380046
-0.47738281 6.4369059 -1.3833495
-0.63474607 6.4461088 -1.3882149
-1.1227734 6.5204167 -1.4180251
-1.2854102 6.5203485 -1.424341
-1.9537109 6.5200577 -1.4587694
-2.1263866 6.5199823 -1.4698029
-2.3017774 6.5199041 -1.4818738
-2.4801953 6.5198221 -1.495021
-2.8472071 6.5196552 -1.5247277
-3.0364647 6.519567 -1.5413941
-3.2300196 6.5194769 -1.5593439
-3.4282618 6.519383 -1.5786474
-3.6315625 6.5192852 -1.5993758
-4.0552735 6.5190825 -1.6454458
-4.6209373 6.6862979 -1.741954
-4.7778516 6.5687566 -1.740857
-4.9317384 6.4474759 -1.7397439
-5.0826368 6.3226643 -1.7386508
-5.3750782 6.0627728 -1.7365284
-5.6545897 5.7896967 -1.7344943
-6.2931247 5.0536089 -1.7298211
-6.5231638 4.7395768 -1.728126
-6.6567774 4.5955195 -1.7336596
-7.3454685 4.5641413 -1.8534597
-7.6349998 4.2479362 -1.8725766
-7.7322264 4.0609636 -1.8718476
-7.8250194 3.8718328 -1.8711493
-7.9133201 3.6806476 -1.8704821
-7.9970312 3.4875102 -1.8698471
-8.0762501 3.292536 -1.8692431
-8.2860155 2.6976252 -1.8676258
-8.3465424 2.496347 -1.8671522
-8.5776758 1.4724481 -1.8652843
-8.6951361 0.21973327 -1.8641644
-8.6878119 -0.40954161 -1.8640698
-8.6755857 -0.61899292 -1.864107
-8.6364651 -1.03677 -1.8642858
-8.5778713 -1.4523255 -1.864602
-8.5413084 -1.6589966 -1.8648117
-8.4999018 -1.8647768 -1.8650557
-8.4537306 -2.0695686 -1.8653337
-8.4027338 -2.2732549 -1.8656459
-8.221406 -2.8766341 -1.8667839
-8.0771093 -3.2714007 -1.8677093
-7.9143748 -3.6592016 -1.8687663
-7.6366014 -4.2260175 -1.870593
-7.5351171 -4.410574 -1.8712654
-7.4293551 -4.5927715 -1.8719686
-7.3192773 -4.7725024 -1.872703
-7.2049608 -4.9496851 -1.8734677
-6.8372264 -5.4648895 -1.8759403
-6.7065625 -5.6308646 -1.8768229
-6.5720115 -5.7938099 -1.8777337
-6.3581638 -5.8838725 -1.8566638
-5.7866015 -5.8978686 -1.7708535
-5.3800387 -6.0405469 -1.7336764
-5.2357225 -6.1720724 -1.734663
-5.0883203 -6.3002348 -1.7356726
-4.7843161 -6.5461578 -1.7377588
-3.9746289 -7.0969849 -1.7433392
-3.8048437 -7.1956286 -1.7445132
-3.6326561 -7.2902884 -1.7457052
-3.2814062 -7.4674082 -1.7481403
-3.1025391 -7.5497446 -1.7493823
-2.9216211 -7.6278644 -1.7506398
-2.7387695 -7.7017016 -1.7519118
-2.3676367 -7.8363705 -1.7544969
-1.7988867 -8.0051336 -1.7584677
-1.6064843 -8.0523605 -1.7598132
-1.4128906 -8.0949945 -1.7611681
-1.2181641 -8.1330147 -1.762532
-0.82580078 -8.1950703 -1.7652841
-0.43031248 -8.238308 -1.7680624
-0.23164062 -8.2528095 -1.7694596
-0.032558594 -8.262536 -1.7708611
0.36654297 -8.2676001 -1.7736737
0.56632811 -8.2629213 -1.7750833
1.7605468 -8.1333704 -1.7835333
1.9577539 -8.0948858 -1.7849325
2.1541212 -8.0516005 -1.786327
2.3495312 -8.0035133 -1.787716
2.5438476 -7.9506602 -1.7890983
2.9287889 -7.8307071 -1.7918402
3.119199 -7.7636685 -1.7931985
3.3080273 -7.6919532 -1.7945464
3.4952147 -7.6155944 -1.7958838
3.6806054 -7.5346298 -1.7972097
4.2249217 -7.2645087 -1.8011101
4.576797 -7.0621953 -1.8036381
4.7490625 -6.9545279 -1.8048778
5.0857224 -6.7264347 -1.8073044
6.254746 -5.880343 -1.839934
6.5563474 -5.8724561 -1.8864132
6.8735352 -5.8639774 -1.936401
7.1508203 -5.8085022 -1.9744818
7.2927146 -5.6373014 -1.9755218
7.6927147 -5.1028333 -1.9784664
7.8172069 -4.9180813 -1.9793872
8.3695507 -3.9499714 -1.9835067
8.5563869 -3.54425 -1.9849185
8.722949 -3.1294818 -1.9861892
8.8687105 -2.7066998 -1.9873157
9.0965424 -1.8413525 -1.9891232
9.1399221 -1.6216834 -1.9894803
9.2102728 -1.1793585 -1.9900793
9.2371874 -0.95697755 -1.9903207
9.2844725 -0.28664732 -1.9908099
9.2890816 -0.062618405 -1.9908947
9.2815237 0.3854492 -1.9909457
9.2516403 0.8325848 -1.9908392
9.1651173 1.4990069 -1.9903842
9.1252737 1.7194409 -1.9901544
8.9728708 2.373642 -1.9892322
8.8443747 2.8024876 -1.9884262
8.7721682 3.0143061 -1.9879665
8.6121283 3.4320695 -1.9869354
8.524375 3.6377521 -1.9863647
8.4316015 3.8411345 -1.9857577
8.2310543 4.2404666 -1.9844366
8.123457 4.4361796 -1.9837234
7.9415035 4.5888944 -1.9657555
6.9203711 4.945262 -1.8229561
6.6675587 5.2683196 -1.8212489
6.1163669 5.8740702 -1.8175039
5.9696093 6.0165787 -1.8165023
5.8194337 6.1553335 -1.8154758
5.6660156 6.2902689 -1.8144255
3.5004883 6.5313287 -1.5881723
3.1047461 6.5312099 -1.5498853
2.1870117 6.5309172 -1.4761093
2.013164 6.5308599 -1.4646918
1.6729101 6.530745 -1.4448667
1.3409765 6.5306301 -1.4288516
1.1775585 6.5305729 -1.4222091
1.0155468 6.5305142 -1.416448
0.37777343 6.5302811 -1.4019138
0.062265623 6.530159 -1.3996118
-0.093906246 6.4370575 -1.3797394
-0.24927734 6.4369965 -1.3806149
-0.40496093 6.4369354 -1.3822945
-0.88697267 6.5205131 -1.4103506
-1.5382812 6.5202398 -1.4357867
-1.7052929 6.5201664 -1.4444097
-2.22 6.5199394 -1.4761382
-2.7607031 6.5196939 -1.517413
-3.1395898 6.5195184 -1.5508462
-3.7427342 6.5192327 -1.6110955
-4.1730661 6.5190239 -1.6589068
-4.5472264 6.7397919 -1.7425134
-4.70541 6.6238394 -1.7413805
-4.8606639 6.5042214 -1.740258
-5.0129685 6.3810391 -1.7391555
-5.1622071 6.254374 -1.7380739
-5.4512696 5.9908853 -1.7359747
-5.7272067 5.7143927 -1.7339648
-5.8600974 5.5714655 -1.7329947
-5.9895115 5.4255338 -1.7320482
-6.3562303 4.9705157 -1.729357
-6.4710546 4.8133979 -1.7285107
-6.5821872 4.6537018 -1.72769
-6.8251562 4.5826602 -1.7619379
-7.7824802 3.9598858 -1.8714697
-8.0400581 3.3832746 -1.8695195
-8.1167965 3.18736 -1.8689327
-8.2562695 2.7905889 -1.8678573
-8.4302931 2.1847053 -1.8664892
-8.5612888 1.5685321 -1.8654221
-8.6681442 0.73603696 -1.864475
-8.6923237 0.31709105 -1.8642071
-8.6968946 -0.10248046 -1.8640771
-8.6918163 -0.31222045 -1.8640641
-8.6472845 -0.93995911 -1.8642322
-8.6226559 -1.1483514 -1.8643571
-8.5588675 -1.5631616 -1.8647103
-8.4269924 -2.178843 -1.8654968
-8.0352926 -3.3760099 -1.8679796
-6.8965235 -5.3868341 -1.8755404
-6.7677145 -5.554193 -1.8764098
-6.6349411 -5.7185507 -1.8773074
-6.4982615 -5.8798285 -1.8782336
-6.1997461 -5.8878202 -1.8324713
-5.9145899 -5.894794 -1.7897061
-5.6421094 -5.9012942 -1.7498382
-5.4459372 -5.9783683 -1.7332263
-5.1571679 -6.2411613 -1.7352011
-5.0080857 -6.3674841 -1.7362227
-4.5429101 -6.7252922 -1.7394189
-3.8839648 -7.1503329 -1.7439659
-3.5394335 -7.3393435 -1.7463511
-3.3637109 -7.4277587 -1.7475692
-3.1858399 -7.5120354 -1.7488039
-3.0058594 -7.5921221 -1.750054
-2.8238866 -7.6679544 -1.7513193
-2.640039 -7.739491 -1.752599
-2.4544139 -7.8066807 -1.7538922
-1.695996 -8.031003 -1.7591871
-1.5029101 -8.0757694 -1.760538
-1.113418 -8.1514692 -1.7632664
-0.91718745 -8.1823359 -1.7646426
-0.72011715 -8.2085104 -1.7660263
-0.30244139 -7.6990619 -1.6513522
-0.12501954 -8.2586174 -1.7702099
0.074277341 -8.2657728 -1.7716135
0.27384764 -8.2681417 -1.77302
0.47359374 -8.2656927 -1.7744287
0.67335933 -8.2584219 -1.7758392
1.6687304 -8.1495991 -1.7828821
2.0630469 -8.0722914 -1.7856802
2.6475 -7.920383 -1.789836
2.8399413 -7.8602352 -1.791207
3.0309961 -7.7953649 -1.7925689
3.4085741 -7.6516161 -1.7952646
3.7791405 -7.4893699 -1.7979151
3.9615819 -7.4014096 -1.7992218
4.1419334 -7.3089457 -1.8005148
4.3200779 -7.2120337 -1.8017933
4.6693945 -7.0050468 -1.8043045
4.8402929 -6.895081 -1.805535
5.008574 -6.7808757 -1.806748
5.3367577 -6.5400019 -1.8091177
5.4964452 -6.4134684 -1.8102731
5.6530857 -6.282959 -1.8114079
5.8065624 -6.1485596 -1.8125212
5.9567575 -6.010325 -1.8136123
6.119668 -5.8838177 -1.819461
6.7242575 -5.8679905 -1.9127406
7.5023828 -5.3675013 -1.9770629
7.6333785 -5.1875196 -1.9780285
8.1122065 -4.4359074 -1.9815792
8.2201557 -4.2406745 -1.9823859
8.3233004 -4.0427361 -1.9831592
8.7640619 -3.0169823 -1.9865054
8.8367577 -2.8054976 -1.9870672
8.9042187 -2.5922101 -1.9875925
9.0231056 -2.1607909 -1.9885309
9.0745306 -1.9429302 -1.9889444
9.1609564 -1.5035717 -1.989656
9.2253513 -1.0603174 -1.9902133
9.2492971 -0.83756953 -1.9904339
9.2676172 -0.61429441 -1.9906149
9.2804298 -0.39059448 -1.9907573
9.2876167 -0.16662842 -1.99086
9.289238 0.057434689 -1.9909238
9.2852736 0.28149292 -1.9909478
9.2757225 0.50536132 -1.9909326
9.2135744 1.1745672 -1.9906503
9.181777 1.3963305 -1.9904776
9.1445112 1.6172302 -1.9902663
8.999629 2.2732067 -1.9893975
8.940527 2.4891546 -1.9890311
8.8760738 2.7035351 -1.9886267
8.731328 3.1270075 -1.9877048
8.3798046 3.9491022 -1.9854177
8.279355 4.1487017 -1.9847559
8.0638084 4.5398917 -1.983327
6.8541598 5.0330582 -1.8225098
6.7276173 5.1944733 -1.8216553
6.5971875 5.3526492 -1.8207724
6.0381641 5.9508805 -1.8169703
5.8895898 6.0913944 -1.8159555
5.7376561 6.228106 -1.814916
5.4241796 6.4898734 -1.812767
5.2628317 6.6147842 -1.8116586
4.2379489 6.5315456 -1.6687019
4.0174413 6.5314822 -1.6434414
3.8033788 6.5314202 -1.6198652
3.5952148 6.5313568 -1.5978688
3.392539 6.5312982 -1.5773709
3.1948826 6.5312371 -1.5582854
3.0018554 6.5311785 -1.5405416
2.8130467 6.5311184 -1.5240741
2.2686913 6.5309439 -1.4817647
2.0935547 6.5308867 -1.4698634
1.9210937 6.5308294 -1.4589938
1.5832617 6.5307145 -1.440212
0.76906246 6.5304241 -1.4092772
0.60978514 6.5303655 -1.4056811
0.29314452 6.5302482 -1.4009768
0.13542968 6.5301871 -1.3998556
-0.17710938 6.4370255 -1.3801086
-0.48855469 6.4369011 -1.3835272
-0.97296876 6.5204778 -1.4129443
-1.4614258 6.5202713 -1.432099
-1.795625 6.5201287 -1.4494216
-2.3144336 6.5198979 -1.4827789
-3.2440429 6.5194693 -1.5606796
-3.4425976 6.5193768 -1.5800805
-3.646328 6.519279 -1.6009158
-3.8555663 6.5191765 -1.6232626
-4.6322265 6.6779852 -1.7418683
-4.7889647 6.5601935 -1.7407767
-5.0933204 6.3136039 -1.7385736
-5.2408786 6.1851068 -1.7375032
-5.3853126 6.0532293 -1.7364541
-5.5264845 5.9180741 -1.7354274
-5.6643357 5.7797003 -1.7344232
-6.057363 5.3461332 -1.7315513
-6.3016405 5.0425491 -1.7297584
-6.4182029 4.8866682 -1.7289003
-7.0095701 4.5761456 -1.7941171
-7.5407615 4.4195328 -1.8732809
-7.7390037 4.0475016 -1.8717967
-8.0817385 3.2785308 -1.8692013
-8.2255659 2.88323 -1.8680952
-8.4061518 2.2792139 -1.8666813
-8.4568357 2.0753284 -1.8662765
-8.5027342 1.8703753 -1.8659053
-8.5438471 1.664433 -1.8655674
-8.6115427 1.250064 -1.8649938
-8.6765623 0.62391537 -1.8643897
-8.6884565 0.41442993 -1.8642569
-8.6954689 0.2047174 -1.8641586
-8.6975975 -0.0050756834 -1.8640949
-8.6947651 -0.21486999 -1.864066
-8.6870699 -0.42452574 -1.8640712
-8.6570702 -0.84304017 -1.8641856
-8.60748 -1.2597553 -1.8644383
-8.538496 -1.6737548 -1.8648281
-8.4502144 -2.084187 -1.8653551
-8.3989258 -2.2877789 -1.8656694
-8.3428516 -2.4901757 -1.8660176
-8.2820501 -2.6912265 -1.8663995
-7.7268553 -4.0526347 -1.8699969
-7.6294723 -4.239296 -1.87064
-7.3112302 -4.7852759 -1.8727566
-7.1966405 -4.9622545 -1.8735235
-6.9549217 -5.308147 -1.8751471
-6.6970506 -5.6426282 -1.8768873
-6.5622067 -5.8053513 -1.8778002
-5.7671289 -5.8983331 -1.7680032
-5.3698435 -6.0500708 -1.7337462
-5.2253122 -6.1813512 -1.7347344
-5.0776563 -6.3092737 -1.7357457
-4.7732224 -6.5546966 -1.737835
-3.9625585 -7.1041703 -1.7434229
-3.6202147 -7.2969165 -1.7457913
-3.4455664 -7.3872252 -1.7470016
-3.2686522 -7.4734373 -1.748229
-2.9085937 -7.6332846 -1.7507303
-2.7256446 -7.7068224 -1.7520032
-2.5408008 -7.7760305 -1.7532901
-2.3542187 -7.8408689 -1.7545904
-2.1660352 -7.9012814 -1.7559032
-1.9763086 -7.957231 -1.7572278
-1.7851562 -8.008666 -1.7585635
-1.3990039 -8.097868 -1.7612653
-0.41609374 -8.2394991 -1.7681624
-0.21740234 -8.253664 -1.7695597
0.78035152 -8.2525425 -1.7765946
0.97998047 -8.2378578 -1.7780055
1.1793164 -8.2183352 -1.7794156
1.3783203 -8.1939754 -1.7808242
1.5767969 -8.164794 -1.7822305
1.7746484 -8.1307783 -1.7836332
1.9718359 -8.0919514 -1.7850326
2.5577147 -7.9466958 -1.7891968
4.058496 -7.3524213 -1.7999164
4.7612891 -6.9466639 -1.8049657
4.9308004 -6.8344159 -1.8061872
5.0976171 -6.7179642 -1.8073905
5.2615819 -6.5973754 -1.8085744
5.4226756 -6.4727106 -1.809739
5.580781 -6.3440318 -1.8108839
5.8874607 -6.074964 -1.8131087
6.896914 -5.8633471 -1.9401211
7.3027344 -5.6249132 -1.9755954
7.4400582 -5.449913 -1.9766046
7.5731053 -5.2714853 -1.9775839
7.7017574 -5.0897236 -1.9785333
7.8259177 -4.9047503 -1.9794515
8.1706247 -4.3316507 -1.9820156
8.4721289 -3.7337863 -1.9842803
8.5626955 -3.5295742 -1.9849664
8.6481838 -3.323096 -1.9856173
8.7284956 -3.1145065 -1.9862323
8.9381638 -2.477253 -1.9878582
9.0513277 -2.0442336 -1.9887573
9.099824 -1.8256683 -1.9891497
9.1428127 -1.6059363 -1.9895041
9.1803322 -1.3851532 -1.9898202
9.2123823 -1.163487 -1.9900976
9.2388477 -0.94104248 -1.9903359
9.2598238 -0.71800476 -1.9905359
9.2751951 -0.49447387 -1.9906963
9.2891598 -0.046586912 -1.990899
9.2808199 0.40146545 -1.9909445
9.2501364 0.84853756 -1.9908322
9.2264452 1.0713562 -1.9907172
9.1971874 1.2934839 -1.9905624
8.9066792 2.6042304 -1.9888192
8.8394136 2.8176928 -1.9883944
8.6889839 3.2391386 -1.9874325
8.326582 4.0563655 -1.9850674
8.2235155 4.2545633 -1.9843868
8.1155663 4.4500847 -1.9836712
7.9115624 4.5898175 -1.9603013
7.5092578 4.6020966 -1.8876089
7.1524024 4.6242695 -1.8253949
6.9116211 4.9570303 -1.8228972
6.7868748 5.1199369 -1.8220556
6.5256834 5.4360137 -1.8202877
5.9589648 6.0266252 -1.8164297
5.8085938 6.1651154 -1.8154016
5.6549411 6.2997684 -1.8143497
5.4980469 6.4305301 -1.8132739
5.1750584 6.6798344 -1.8110055
4.7504883 6.4473639 -1.716387
4.5206056 6.4557891 -1.6891036
4.1189842 6.5315118 -1.6549531
3.6911523 6.5313859 -1.6078906
3.485996 6.5313249 -1.5867072
2.1744921 6.5309124 -1.4752579
2.0008202 6.5308561 -1.4639143
1.6608789 6.5307412 -1.4442297
1.3292187 6.5306268 -1.4283469
1.165918 6.5305681 -1.4217672
1.0040039 6.5305109 -1.4160687
0.84332031 6.5304523 -1.4112331
0.20863281 6.5302153 -1.4002734
-0.26041016 6.4369926 -1.3807076
-0.41611326 6.4369302 -1.3824459
-0.5731445 6.4461331 -1.3869888
-0.89841795 6.5205097 -1.4106829
-1.0592577 6.5204434 -1.4157858
-1.3849413 6.5203056 -1.4286108
-1.8866016 6.5200872 -1.454713
-2.2325585 6.5199356 -1.4770083
-2.5901172 6.5197721 -1.5035489
-2.7739649 6.5196881 -1.5185229
-2.9616406 6.5196013 -1.5347
-3.1534765 6.5195107 -1.5521387
-3.3498046 6.5194192 -1.5709012
-3.9701562 6.5191226 -1.6358895
-4.5586133 6.7316008 -1.742427
-4.7166014 6.6154079 -1.7412997
-5.3186717 6.1148639 -1.7369385
-5.9986134 5.4149871 -1.7319815
-6.2462301 5.114018 -1.7301657
-6.3645701 4.959362 -1.7292953
-6.849453 4.5818071 -1.7661563
-7.2007422 4.5693326 -1.8277823
-7.5956054 4.3207622 -1.8728714
-7.6945505 4.1346512 -1.8721304
-7.8791795 3.7559552 -1.8707404
-7.9647069 3.563571 -1.8700927
-8.4339256 2.1701317 -1.8664602
-8.4820309 1.9656494 -1.8660734
-8.5638475 1.5537329 -1.8654007
-8.6693354 0.72108155 -1.8644632
-8.692812 0.30209532 -1.8642001
-8.6966791 -0.11749694 -1.8640751
-8.6912498 -0.32722107 -1.8640646
-8.6809759 -0.53678161 -1.8640884
-8.6657619 -0.74603146 -1.8641467
-8.6207228 -1.1632262 -1.8643674
-8.5908985 -1.3709533 -1.8645293
-8.516758 -1.7840862 -1.8649557
-8.4724417 -1.9892709 -1.8652205
-8.3694525 -2.3963864 -1.8658518
-8.3108587 -2.5980654 -1.8662182
-8.2475195 -2.7983806 -1.866618
-8.1795111 -2.9971895 -1.867051
-8.0296288 -3.3899298 -1.8680165
-7.947793 -3.583652 -1.8685483
-7.8614058 -3.7754469 -1.8691128
-7.7705665 -3.9652462 -1.8697091
-7.4713669 -4.5215149 -1.8716891
-7.0124998 -5.2288537 -1.8747597
-6.8874607 -5.3988976 -1.8756014
-6.476953 -5.8808813 -1.8749957
-5.8946872 -5.8952756 -1.7867599
-5.623086 -5.901742 -1.7470906
-5.4358397 -5.9879942 -1.7332952
-5.1465821 -6.2503085 -1.7352736
-4.9972653 -6.3763962 -1.736297
-4.6896677 -6.6180191 -1.7384094
-4.5314841 -6.733429 -1.7394977
-4.3705468 -6.8451319 -1.7406063
-4.0406055 -7.0571623 -1.7428832
-3.8718164 -7.1573672 -1.7440499
-3.3510742 -7.4339271 -1.7476569
-2.992871 -7.597702 -1.7501444
-2.8107812 -7.6732211 -1.7514105
-2.2536132 -7.8737864 -1.7552923
-1.8740624 -7.9853454 -1.7579422
-1.2947265 -8.1186361 -1.7619957
-0.7059961 -8.2102022 -1.7661252
0.088554688 -8.2661037 -1.771714
0.48787108 -8.2653294 -1.7745296
0.8873437 -8.2452755 -1.7773508
1.2860156 -8.2058878 -1.7801706
1.8803905 -8.1105757 -1.7843835
2.0771289 -8.0691719 -1.7857802
2.2729492 -8.0229597 -1.7871716
2.4676757 -7.9719858 -1.7885562
2.661289 -7.9162359 -1.7899344
3.0446289 -7.7905564 -1.7926663
3.6079881 -7.5669684 -1.7966903
3.792285 -7.4832268 -1.7980092
4.1547656 -7.3021641 -1.800607
4.6817188 -6.9973145 -1.8043929
4.8524218 -6.8870549 -1.8056222
6.436152 -5.8756213 -1.8677592
7.0744138 -5.8585153 -1.9686114
7.2375584 -5.7049518 -1.9751173
7.6425781 -5.1745019 -1.9780962
7.7688279 -4.9910154 -1.9790289
8.0076561 -4.6146674 -1.9808007
8.1200781 -4.4220319 -1.9816382
8.2277145 -4.2266083 -1.9824423
8.4283981 -3.8277996 -1.9839501
8.5212698 -3.6246614 -1.984652
8.6091404 -3.4192152 -1.9853195
8.6918354 -3.2115936 -1.9859508
8.9088669 -2.5768878 -1.9876287
9.1235542 -1.7080779 -1.9893445
9.1636324 -1.4877758 -1.9896783
9.1982222 -1.2664948 -1.989974
9.2272463 -1.0443829 -1.9902301
9.2811327 -0.37458006 -1.9907659
9.2879095 -0.15060058 -1.9908661
9.2891598 0.073465571 -1.9909267
9.2592382 0.74491882 -1.9908721
9.2381439 0.96800107 -1.9907755
9.2114649 1.1904583 -1.9906393
9.1792965 1.4121826 -1.9904639
9.09834 1.8527942 -1.9899957
9.0496874 2.0713983 -1.9897037
8.9361134 2.5045421 -1.9890035
8.8712893 2.7188103 -1.9885964
8.7257814 3.1420124 -1.9876693
8.4686518 3.7615545 -1.9860003
8.3727541 3.9634635 -1.9853714
8.1662693 4.3596501 -1.9840075
8.0557423 4.5536833 -1.9832736
7.3056836 4.6082315 -1.8512427
6.8452539 5.0447125 -1.8224496
6.5876951 5.3638358 -1.8207079
6.4531641 5.518404 -1.8197955
6.173027 5.817111 -1.8178899
6.0276561 5.9610615 -1.8168986
5.8788085 6.1013017 -1.8158817
5.57125 6.3703227 -1.8137759
5.2511911 6.6235638 -1.8115785
4.8628712 6.4473944 -1.7307909
4.6231055 6.4473271 -1.7003313
4.2219529 6.5315409 -1.6668371
4.001914 6.5314775 -1.6417001
3.7882812 6.5314155 -1.6182406
3.5805469 6.531353 -1.596354
2.988203 6.5311737 -1.5393221
2.4339452 6.5309978 -1.4937725
2.2560546 6.5309405 -1.4808774
2.0811327 6.5308828 -1.469052
1.9088476 6.5308256 -1.4582545
1.0790039 6.5305376 -1.4186056
0.75763673 6.5304217 -1.4089925
0.59841794 6.5303617 -1.4054559
0.43986326 6.5303044 -1.4027503
0.28183594 6.5302448 -1.4008682
0.12416016 6.5301824 -1.3998057
-0.34376952 6.4369597 -1.381539
-0.49972656 6.4368973 -1.3837103
-0.65720701 6.4460993 -1.3886937
-0.98447263 6.520474 -1.4133096
-1.3088086 6.5203376 -1.4253165
-1.4732422 6.5202665 -1.4326545
-1.6394726 6.520196 -1.4409115
-1.8077344 6.5201225 -1.4501114
-1.9782617 6.5200467 -1.460286
-2.151289 6.5199714 -1.4714651
-3.2580664 6.5194635 -1.5620222
-3.4569921 6.5193691 -1.5815231
-3.6610937 6.5192719 -1.602463
-3.8707812 6.5191717 -1.6249207
-4.6435547 6.669661 -1.7417822
-4.8000584 6.5516253 -1.7406964
-4.9535155 6.4298358 -1.7395861
-5.3955078 6.0436649 -1.7363801
-5.5364451 5.9082828 -1.7353549
-5.6740818 5.7696795 -1.7343524
-5.9390817 5.4832001 -1.7324172
-6.3100977 5.0314884 -1.7296963
-6.5390429 4.7167158 -1.728009
-6.6965818 4.5889444 -1.7398852
-7.3992186 4.5622063 -1.8630358
-7.5481443 4.4063749 -1.8732257
-7.7457809 4.0340338 -1.8717457
-7.8379102 3.8445904 -1.8710519
-8.0086327 3.4597223 -1.8697588
-8.0871878 3.2645049 -1.8691595
-8.1611128 3.0675488 -1.8685925
-8.4099417 2.2646654 -1.8666513
-8.4603119 2.060703 -1.8662487
-8.5058594 1.8556775 -1.8658798
-8.6135931 1.2351861 -1.8649758
-8.6398239 1.0269427 -1.8647426
-8.6611128 0.81814939 -1.8645436
-8.677578 0.60893917 -1.8643789
-8.6891212 0.39943177 -1.8642488
-8.6975584 -0.020085448 -1.8640918
-8.6863861 -0.43951598 -1.8640728
-8.6556244 -0.85798216 -1.8641924
-8.6053705 -1.2746136 -1.8644497
-8.5356836 -1.688504 -1.8648447
-8.4467382 -2.098789 -1.8653762
-8.3386326 -2.5046051 -1.8660438
-8.2775192 -2.7055614 -1.8664281
-8.2116795 -2.9050915 -1.8668456
-8.0660744 -3.2993901 -1.8677807
-7.9020896 -3.6866522 -1.8688465
-7.8132811 -3.8773999 -1.8694284
-7.4138474 -4.6186447 -1.872072
-7.06916 -5.1489606 -1.8743788
-6.9459958 -5.3203125 -1.8752072
-6.8187499 -5.4888272 -1.876065
-6.3154492 -5.8849421 -1.8501137
-6.0249805 -5.8921146 -1.8061384
-5.3595896 -6.0595727 -1.7338161
-4.7621093 -6.5632067 -1.7379113
-4.6052732 -6.6803012 -1.7389898
-4.4455857 -6.7937436 -1.7400894
-4.2831836 -6.90343 -1.7412088
-3.9504688 -7.1113443 -1.7435061
-3.6078124 -7.3035092 -1.7458774
-3.2558985 -7.4794455 -1.7483174
-1.9626757 -7.9610515 -1.7573229
-1.5788672 -8.058732 -1.7600064
-1.3850976 -8.1007147 -1.7613627
-1.1902343 -8.1380672 -1.762728
-0.99439448 -8.1707716 -1.764101
-0.40189451 -8.2406778 -1.768262
-0.0040234374 -8.2635365 -1.771062
0.99423826 -8.2366219 -1.7781063
1.1935351 -8.216754 -1.7795162
1.5909765 -8.1625175 -1.7823309
1.788789 -8.1281624 -1.7837335
1.9858984 -8.0889854 -1.7851324
2.1821289 -8.0450087 -1.7865262
2.3773828 -7.9962473 -1.7879139
2.5715234 -7.9427123 -1.7892953
2.764492 -7.8844213 -1.7906693
3.3349414 -7.6813097 -1.7947384
3.5218554 -7.6042886 -1.7960742
3.706953 -7.5226736 -1.7973983
4.4271679 -7.1510291 -1.8025625
4.7734766 -6.9387665 -1.8050537
4.9427929 -6.8262291 -1.8062735
5.7466602 -6.2018108 -1.8120866
6.6006832 -5.8712816 -1.8933375
6.920332 -5.8627129 -1.9438598
7.1715231 -5.7842374 -1.9746331
7.4497461 -5.4372568 -1.9766755
7.7107811 -5.0766101 -1.9785998
7.9539061 -4.7030935 -1.9804009
8.0684767 -4.5118241 -1.9812533
8.3835545 -3.9212704 -1.9836123
8.4787693 -3.7192705 -1.9843307
8.6540823 -3.3082421 -1.9856622
8.8088284 -2.8887777 -1.9868509
8.8783588 -2.6761639 -1.9873908
8.9425974 -2.4618683 -1.9878933
9.0014648 -2.2459912 -1.9883587
9.0549994 -2.0286214 -1.9887866
9.1030855 -1.8099817 -1.9891766
9.1457033 -1.5901769 -1.9895282
9.2144728 -1.1475775 -1.9901159
9.2405663 -0.92510557 -1.9903518
9.2610931 -0.70202941 -1.9905484
9.2854681 -0.25458983 -1.9908242
9.2892771 -0.030557862 -1.9909036
9.2245312 1.0872521 -1.990707
9.1191015 1.7508825 -1.990118
9.0213671 2.1880071 -1.9895312
8.8343554 2.8329151 -1.9883624
8.7614059 3.0444586 -1.9878976
8.6832418 3.2540655 -1.9873953
8.5113869 3.6670048 -1.9862798
8.4178905 3.8700383 -1.9856677
8.319375 4.0706172 -1.9850198
8.2159567 4.2686577 -1.9843369
8.1076565 4.4639654 -1.9836187
7.8817382 4.5907316 -1.9548815
7.4816208 4.6029301 -1.8826593
7.0237694 4.8029971 -1.823652
6.3795505 5.5998025 -1.8192953
6.2393556 5.7490473 -1.8183416
6.0955663 5.8946905 -1.8173621
5.9483399 6.0366583 -1.816357
5.7977147 6.1748662 -1.8153274
5.6437888 6.3092704 -1.8142734
5.4866991 6.4397321 -1.8131961
5.3265624 6.5662088 -1.8120965
5.1632614 6.6884856 -1.8109289
3.8866992 6.5314431 -1.6289285
3.6762695 6.5313821 -1.6063246
3.0771484 6.5312004 -1.5473534
2.8867188 6.5311418 -1.5303949
2.3382616 6.5309672 -1.4867283
1.9884961 6.5308514 -1.4631411
1.8175585 6.5307951 -1.4528803
1.6489062 6.5307364 -1.443598
1.4822656 6.5306802 -1.4352605
1.3174804 6.530623 -1.4278473
0.99250001 6.5305071 -1.4156957
0.83185548 6.5304484 -1.4109188
0.51339841 6.5303302 -1.4039031
0.35517576 6.5302715 -1.4016399
0.19734375 6.5302105 -1.4001983
-0.11611328 6.4370489 -1.3798159
-0.90992182 6.5205045 -1.411019
-1.0708008 6.5204372 -1.4161835
-1.2329882 6.5203691 -1.4222158
-1.3966796 6.5202994 -1.4291346
1.3526952 6.5304985 -1.5872089
0.86623043 6.5303264 -1.5677893
0.54742187 6.5302091 -1.5595981
0.38904297 6.5301495 -1.5568897
0.23115234 6.5300908 -1.5550927
-0.083984375 6.5299687 -1.5542188
-0.70769531 6.4459453 -1.5433111
-1.0361524 6.5203166 -1.5712645
-1.1980468 6.520247 -1.5777546
-1.5263867 6.5201077 -1.5936981
-1.6932422 6.5200348 -1.6031996
-2.0335157 6.5198832 -1.6254107
-2.2074022 6.519805 -1.6381918
-2.38416 6.5197244 -1.6521451
-3.0236523 6.7176371 -1.7532595
-3.3398046 6.5555105 -1.7509927
-3.4947264 6.4689298 -1.7498803
-3.6474218 6.3787479 -1.7487826
-3.79791 6.2850199 -1.7476999
-3.9460156 6.1877995 -1.7466333
-4.0916405 6.0871587 -1.7455828
-4.3752928 5.8758354 -1.7435338
-4.6483202 5.6515765 -1.7415566
-4.7806249 5.5347528 -1.7405968
-4.9100976 5.4149089 -1.739656
-5.0366015 5.2920966 -1.7387357
-5.2805662 5.0378714 -1.7369562
-5.8419137 4.5845828 -1.7673707
-6.1271873 4.5740213 -1.8197583
-6.4297848 4.5626178 -1.8763958
-6.5514059 4.4152641 -1.8802552
-6.6533203 4.2542415 -1.8794992
-6.8455663 3.9254265 -1.8780674
-6.9357419 3.757807 -1.8773924
-7.0219531 3.5881805 -1.8767452
-7.1041012 3.4166303 -1.8761261
-7.391582 2.7131391 -1.8739355
-7.6116209 1.9865717 -1.872215
-7.6558204 1.8020532 -1.8718603
-7.6957812 1.616585 -1.8715357
-7.7624607 1.2431836 -1.8709787
-7.789238 1.0554528 -1.8707461
-7.8520508 0.30001098 -1.8701273
-7.8568749 -0.07901977 -1.8700051
-7.8526168 -0.26850891 -1.8699911
-7.8439059 -0.45784849 -1.8700083
-7.8132811 -0.83566707 -1.8701364
-7.7649217 -1.2116729 -1.8703897
-7.7341599 -1.3987457 -1.870563
-7.6990037 -1.5850695 -1.8707675
-7.659492 -1.7705328 -1.871003
-7.6156445 -1.9550506 -1.8712692
-7.5150194 -2.3208358 -1.8718934
-7.458281 -2.5019064 -1.8722515
-7.3320704 -2.859915 -1.8730578
-7.1891599 -3.2117813 -1.8739834
-7.1115427 -3.3851721 -1.8744905
-7.0298047 -3.5567381 -1.8750268
-6.6630859 -4.2229438 -1.8774573
-6.3474607 -4.6989508 -1.8795718
-5.6180468 -5.579957 -1.8845092
-5.3476171 -5.8501267 -1.8863531
-4.8833399 -5.8891082 -1.8207705
-4.4299021 -5.8996844 -1.7558656
-4.2516208 -5.9562106 -1.7416519
-3.2033985 -6.613399 -1.7488891
-3.0448632 -6.6929517 -1.7499883
-2.884414 -6.7687535 -1.751102
-2.0557811 -7.0899148 -1.7568694
-1.8854296 -7.1422634 -1.7580584
-1.366836 -7.2748652 -1.7616836
-1.0158398 -7.3425622 -1.7641428
-0.66144532 -7.393414 -1.7666293
-0.48330078 -7.4124689 -1.7678812
-0.30455077 -7.4272437 -1.7691379
-0.12541015 -7.4377322 -1.7703984
0.59345704 -7.4364462 -1.7754669
0.77318358 -7.4252768 -1.7767367
1.1319922 -7.3898864 -1.7792747
1.3108398 -7.3656769 -1.7805412
1.4891796 -7.3371172 -1.7818054
2.0200782 -7.2254906 -1.7855743
2.5425391 -7.0752234 -1.7892927
2.7142968 -7.0166321 -1.7905176
2.884707 -6.9538488 -1.7917334
3.2210546 -6.8157644 -1.7941369
3.7126951 -6.5779138 -1.7976587
3.8727343 -6.4905925 -1.7988074
4.1865039 -6.3041625 -1.8010629
4.7867966 -5.8867679 -1.8057449
5.2672849 -5.8745322 -1.8778167
5.944941 -5.7355552 -1.9659966
6.0846481 -5.5933938 -1.9670149
6.2209764 -5.4477477 -1.9680099
6.3536911 -5.2987218 -1.9689802
6.4827538 -5.1463909 -1.9699255
7.0704098 -4.3385029 -1.9742569
7.2770896 -3.995573 -1.9757938
7.5548825 -3.4625912 -1.9778762
7.7179098 -3.0961423 -1.979111
7.9280076 -2.5320537 -1.9807239
7.9886913 -2.3406432 -1.9811963
8.2516212 -1.1651922 -1.9833233
8.3000584 -0.76604855 -1.9837579
8.3285542 -0.36492553 -1.9840521
8.3353319 -0.16394043 -1.9841467
8.3370895 0.037169188 -1.9842058
8.3338861 0.23825499 -1.9842303
8.2942772 0.84016293 -1.9840908
8.2711134 1.0399182 -1.983974
8.1290817 1.8311816 -1.983157
8.0288086 2.2204027 -1.9825408
7.6143942 3.3506963 -1.9798819
7.5291991 3.532387 -1.9793237
7.1446676 4.2358842 -1.9767762
6.9269333 4.5721512 -1.9753195
5.9335546 4.7972651 -1.8159643
5.8135157 4.9367814 -1.8151504
5.6901169 5.0732255 -1.8143122
5.4335938 5.3365922 -1.812565
5.3006248 5.4633646 -1.8116567
5.0257812 5.706707 -1.8097757
4.7395506 5.9359927 -1.8078111
4.4427342 6.1507034 -1.8057684
3.6593945 6.6206694 -1.8003548
2.8263671 6.5309772 -1.6936413
2.2812696 6.5308075 -1.6463885
2.1059375 6.5307498 -1.6330886
1.9333007 6.5306926 -1.620939
1.7631249 6.5306377 -1.6098976
1.2648828 6.5304666 -1.5830952
0.94076169 6.5303531 -1.570227
0.78048825 6.5302944 -1.5652292
0.62113279 6.5302362 -1.5611688
0.30443358 6.5301189 -1.5558139
0.14669922 6.5300579 -1.554504
-0.32148436 6.4368362 -1.5338345
-0.47738281 6.4367728 -1.5361162
-1.2853906 6.5202117 -1.5816339
-1.4495898 6.5201406 -1.5896379
-1.6155468 6.5200677 -1.5986578
-1.783496 6.5199943 -1.6087232
-2.1263475 6.5198417 -1.6321157
-2.3017187 6.5197611 -1.6455197
-2.9491405 6.7531118 -1.7537891
-3.5768554 6.4210539 -1.7492901
-4.1685939 6.0318451 -1.7450274
-4.7195506 5.5893741 -1.74104
-5.5717969 4.6998563 -1.7348242
-5.9926953 4.5790238 -1.7949356
-6.8943748 3.8358722 -1.8777022
-6.9824219 3.6671746 -1.8770422
-7.0664649 3.4965069 -1.8764101
-7.1464648 3.3239715 -1.875806
-7.2940817 2.9736633 -1.8746835
-7.36166 2.7960882 -1.8741658
-7.5390038 2.2548234 -1.8727896
-7.5895896 2.0718803 -1.8723904
-7.6777539 1.7028027 -1.8716826
-7.7153516 1.5168616 -1.8713744
-7.7485352 1.3301159 -1.8710971
-7.8017187 0.95464051 -1.8706344
-7.8217187 0.76610535 -1.8704494
-7.8372655 0.57716733 -1.870296
-7.8483982 0.38793579 -1.8701736
-7.8550973 0.19850464 -1.8700824
-7.8551364 -0.18055114 -1.8699937
-7.837461 -0.55919373 -1.8700302
-7.8219528 -0.74810177 -1.8700955
-7.715879 -1.49867 -1.8706686
-7.6783786 -1.6845459 -1.8708899
-7.5903907 -2.0534787 -1.8714242
-7.5399022 -2.2363498 -1.8717376
-7.485117 -2.4180105 -1.8720818
-7.4261131 -2.5983701 -1.8724557
-7.2954102 -2.9548078 -1.8732944
-7.0682616 -3.4773228 -1.8747741
-6.9843554 -3.6478713 -1.8753259
-6.8964844 -3.8164742 -1.8759063
-6.8046093 -3.9830034 -1.8765152
-6.6091795 -4.3095255 -1.877817
-6.5057421 -4.4693394 -1.8785092
-6.3985353 -4.6267319 -1.8792285
-6.1728907 -4.9339132 -1.8807478
-6.0546875 -5.0835328 -1.8815464
-5.9328709 -5.230391 -1.8823708
-5.5469141 -5.6535554 -1.8849939
-5.4115429 -5.7885332 -1.8859167
-4.9934959 -5.8864417 -1.8371234
-4.7586913 -5.8920822 -1.8025237
-4.5323439 -5.8973546 -1.7701672
-4.3169532 -5.9067054 -1.7412027
-3.8851953 -6.213975 -1.7441752
-3.736367 -6.3095951 -1.7452022
-3.431875 -6.4902682 -1.7473071
-3.2763085 -6.5752125 -1.748384
-3.1187499 -6.6564775 -1.7494761
-2.7976563 -6.8078094 -1.7517047
-2.6342773 -6.8777618 -1.75284
-1.9646094 -7.1184635 -1.7575054
-1.2732031 -7.2946429 -1.7623395
-0.38759765 -7.4209142 -1.7685537
-0.20863281 -7.4333997 -1.7698125
-0.029296875 -7.4415679 -1.7710751
0.1503125 -7.4454279 -1.7723405
