# .PCD v0.7 - Point Cloud Data file format
VERSION 0.7
FIELDS x y z
SIZE 4 4 4
TYPE F F F
COUNT 1 1 1
WIDTH 1490
HEIGHT 1
VIEWPOINT 0 0 0 1 0 0 0
POINTS 1490
DATA ascii
-6.028203 6.4356914 -0.47208643
-6.3263278 6.4355655 -0.48313606
4.9296484 -21.565159 -1.6846106
6.0371289 -21.563932 -1.7052996
7.1747851 -21.562666 -1.7305715
7.7554102 -21.557375 -1.7446624
8.3476362 -21.556505 -1.7603778
10.195253 -21.553806 -1.8157411
10.836543 -21.548986 -1.8368304
13.029765 -20.670723 -1.8607726
13.551972 -20.391733 -1.8645462
14.067968 -20.099085 -1.8682787
14.60084 -19.824169 -1.8749255
18.474512 -19.61714 -2.0520873
19.46752 -18.769464 -2.0593364
20.418886 -17.869047 -2.0663021
21.76078 -16.423986 -2.0761678
22.594316 -15.40103 -2.0823252
24.101992 -13.223526 -2.0935385
24.770899 -12.074687 -2.0985563
24.31918 -7.7587976 -1.943949
24.518887 -7.1757317 -1.9455029
24.703182 -6.5871434 -1.9469488
24.871952 -5.9935117 -1.9482855
27.746542 -2.5525301 -2.1219039
27.851191 -1.2120904 -2.1229589
27.876854 -0.54008299 -2.1232975
27.884531 0.13246886 -2.1235087
27.846191 1.4770544 -2.1235492
27.800253 2.1480932 -2.1233795
27.736444 2.8176019 -2.1230822
27.654961 3.4850652 -2.1226587
26.406132 4.630794 -2.0415916
25.003496 5.6397491 -1.9519274
23.587149 6.5302691 -1.8637949
19.844023 6.5394597 -1.5911187
18.341913 6.538969 -1.4828964
17.030449 6.5385427 -1.3892159
15.874179 6.5381656 -1.3073858
14.655566 6.4539776 -1.219492
13.897167 6.5246158 -1.1691436
13.067676 6.5243435 -1.1122769
12.314668 6.524097 -1.0612754
11.627304 6.523869 -1.0153066
10.996699 6.5236602 -0.97370011
10.41539 6.5234671 -0.93589294
9.3858395 6.5292301 -0.87069166
8.9250975 6.5336819 -0.8423267
7.6894727 6.533267 -0.76839393
7.3237305 6.533144 -0.74737936
5.7501755 6.5326066 -0.66274214
5.2130466 6.5324197 -0.63644797
4.4226952 6.4483585 -0.59545976
3.4055078 6.5323334 -0.56099361
3.2075195 6.5322623 -0.55418217
3.0141797 6.5321927 -0.54784566
2.8250976 6.5321245 -0.54196626
2.2800195 6.5319266 -0.52685386
2.1046679 6.5318623 -0.52260113
1.9320507 6.5317974 -0.51871568
1.2636328 6.5315495 -0.50661546
1.1008984 6.5314875 -0.50440311
0.93951172 6.5314264 -0.50250268
0.46121094 6.5312457 -0.49860695
0.30312499 6.5311832 -0.49789962
0.14537109 6.5311222 -0.49748304
-0.47874999 6.4378276 -0.49160889
-0.79240233 6.4377041 -0.49394491
-0.95191401 6.446907 -0.4962697
-2.481914 6.5208063 -0.5313279
-2.8490624 6.5206547 -0.54189199
-3.0383594 6.5205755 -0.54781902
-3.8425779 6.5202384 -0.576343
-4.2790036 6.5200553 -0.59389633
-4.9887891 6.5197525 -0.62516975
-5.2427735 6.5196428 -0.63710278
-5.7113476 6.4399114 -0.65549165
-5.9908981 6.435534 -0.66956544
-6.2872458 6.4354057 -0.6851396
-6.6881247 6.523273 -0.71146405
-7.0189648 6.523129 -0.72970426
-8.1250782 6.522646 -0.79345781
-8.5388279 6.5224638 -0.81825733
-9.4505463 6.5220609 -0.87442887
-9.9556055 6.5218363 -0.9063397
-10.954648 6.4436026 -0.96783674
-12.403857 6.5122223 -1.0668585
-13.165322 6.5118828 -1.1185129
-14.935976 6.5110879 -1.2407937
-17.172411 6.5196953 -1.3988044
-20.622997 5.6268802 -1.6279117
-20.740614 5.1248407 -1.6269594
-20.846992 4.6206355 -1.6260868
-23.075174 1.6965008 -1.7619866
-23.104912 1.1392187 -1.7616458
-23.122343 0.58152711 -1.7613921
-23.127451 0.023653563 -1.7612262
-23.100809 -1.091657 -1.7611556
-23.024921 -2.2047751 -1.7614355
-22.968554 -2.7598877 -1.7617065
-22.899981 -3.3137462 -1.7620646
-22.726143 -4.4166684 -1.7630424
-20.331512 -6.5701737 -1.6271425
-19.841475 -8.0384626 -1.6302807
-19.46034 -8.9996252 -1.6327636
-20.37788 -11.279304 -1.7736932
-20.107206 -11.771804 -1.7743378
-19.825361 -12.258285 -1.775054
-9.2832031 -7.7954931 -0.92314267
-17.557899 -15.481347 -1.7826184
-16.818964 -16.337276 -1.7855941
-15.38749 -18.141705 -1.8115689
-14.544307 -18.927206 -1.8177676
-14.106943 -19.304501 -1.8207856
-13.660341 -19.672407 -1.8238714
-13.204638 -20.030735 -1.8270242
-11.115156 -19.849657 -1.732466
-9.9420118 -19.955193 -1.6978073
-9.0027342 -20.490149 -1.704353
-8.5226173 -20.741995 -1.7077038
-7.043047 -21.43298 -1.71805
-6.523066 -21.593264 -1.7177819
-5.9583006 -21.592037 -1.705754
-5.4010935 -21.59083 -1.6948706
-1.6490039 -21.57704 -1.6479434
-1.1265038 -21.579679 -1.6455946
0.43613279 -21.576523 -1.6434497
1.4790429 -21.57254 -1.6466671
2.0026562 -21.570875 -1.6497484
3.5896873 -21.565844 -1.6648965
4.1262498 -21.564144 -1.6719656
5.2157226 -21.564844 -1.6895776
6.3304687 -21.563606 -1.7114362
7.4755664 -21.557785 -1.7375937
8.0628319 -21.556923 -1.7526927
8.6607027 -21.556049 -1.7690994
11.17039 -21.533838 -1.8473678
11.711171 -21.302937 -1.8512619
12.247089 -21.058098 -1.8551248
13.302714 -20.526972 -1.8627446
14.978437 -19.810862 -1.8913287
15.738261 -19.804106 -1.9263744
7.6797652 -7.9519835 -0.84186977
19.719629 -18.539761 -2.0611806
20.65959 -17.625929 -2.068068
21.553867 -16.661909 -2.0746431
21.982929 -16.161804 -2.0778065
22.399471 -15.650031 -2.0808835
23.193535 -14.592765 -2.0867686
23.57037 -14.047935 -2.0895712
23.933613 -13.492712 -2.0922801
25.528534 -10.575602 -2.1042855
23.996288 -8.6100683 -1.941458
24.218319 -8.0358629 -1.9431683
24.616875 -6.8695378 -1.9462701
24.793066 -6.2782702 -1.9476589
27.255878 -5.518507 -2.1177292
27.518456 -4.2019868 -2.1199002
27.623592 -3.5385406 -2.1208014
27.710976 -2.8722911 -2.121577
27.881386 0.48310608 -2.1235678
27.769218 2.4973493 -2.1232402
27.69623 3.1658685 -2.1228776
27.605331 3.8320744 -2.1223869
27.496992 4.4954939 -2.1217723
24.924414 5.9522476 -1.9514385
24.760567 6.5482111 -1.9504136
22.482538 6.5299101 -1.7828592
20.378925 6.4558454 -1.6279325
19.034628 6.539196 -1.5326953
16.410156 6.5383391 -1.3452191
11.291972 6.5237579 -0.99310982
10.016309 6.4502606 -0.90724903
9.4885349 6.4393706 -0.8732574
9.1448822 6.5337567 -0.85589415
7.1408396 6.5330815 -0.73703915
6.1774411 6.532753 -0.68468589
5.6059179 6.5325565 -0.65553224
4.5330858 6.4483976 -0.60025579
4.3044138 6.4483171 -0.59040749
4.136445 6.5325918 -0.58881676
3.9189453 6.5325165 -0.58011866
3.3016796 6.5322967 -0.55738157
2.7281053 6.5320892 -0.53907418
2.014375 6.5318289 -0.52053028
1.6740625 6.5317035 -0.51348156
1.5071484 6.5316401 -0.51046884
0.53705078 6.5312738 -0.49905035
0.37873045 6.5312138 -0.49820238
0.22083984 6.5311527 -0.49764556
0.063222654 6.5310917 -0.49738112
-0.094316401 6.5310307 -0.4974044
-0.25195312 6.5309687 -0.49771726
-0.40992185 6.5309062 -0.49832159
-0.71705079 6.4377346 -0.49327907
-1.0349023 6.4468756 -0.49723005
-1.2088672 6.5213223 -0.50507313
-1.3723242 6.5212579 -0.50748497
-2.0450585 6.5209856 -0.52043509
-2.2191601 6.5209136 -0.52455044
-2.3961327 6.5208416 -0.52904034
-2.9472461 6.5206132 -0.54492533
-3.535625 6.5203681 -0.56484246
-3.9538672 6.5201931 -0.58068883
-4.1721287 6.5201006 -0.58947271
-4.6298437 6.5199051 -0.60895526
-5.6487694 6.5194683 -0.65691
-6.5355077 6.5233393 -0.70319432
-6.8584957 6.5232 -0.72080481
-7.1983395 6.5230522 -0.73976409
-8.7650385 6.5223637 -0.83200783
-9.2210741 6.522161 -0.86011243
-10.233848 6.5217142 -0.92413503
-10.799697 6.5214629 -0.96074063
-11.251143 6.4289484 -0.98680723
-12.063633 6.5123749 -1.0439917
-12.791855 6.5120487 -1.0930983
-13.592402 6.5116911 -1.1477473
-15.463428 6.5108523 -1.2777072
-19.272987 6.5187492 -1.5493728
-20.428701 6.3647919 -1.6294632
-20.562773 5.8663931 -1.6283951
-20.685694 5.3654585 -1.6274056
-21.825117 4.5502801 -1.6977859
-22.876015 3.628366 -1.7638507
-23.056591 1.963037 -1.7621808
-23.092207 1.4060407 -1.761798
-23.125254 -0.26716858 -1.761174
-23.11161 -0.82481384 -1.7611411
-22.859375 -3.6019042 -1.7622857
-22.772167 -4.1533718 -1.7627767
-22.672812 -4.7029285 -1.7633544
-20.253456 -6.8273954 -1.627637
-20.095341 -7.3184404 -1.6286455
-17.688047 -7.9334068 -1.4762779
-19.353895 -9.2475977 -1.6334618
-20.503544 -11.041569 -1.7734176
-20.238125 -11.53678 -1.7740176
-19.376083 -12.986639 -1.7763172
-18.418633 -14.378751 -1.7794293
-9.4149218 -7.7225013 -0.9273122
-9.1395311 -7.8729072 -0.91862553
-17.369081 -15.707434 -1.7833593
-16.999414 -16.135262 -1.7848492
-15.576318 -17.94026 -1.8092954
-15.173691 -18.352592 -1.8134316
-14.750312 -18.743351 -1.8163475
-14.317411 -19.124958 -1.8193328
-13.875234 -19.497484 -1.8223861
-13.423886 -19.860388 -1.8255068
-12.06455 -19.849636 -1.7689152
-10.790673 -19.851723 -1.7206695
-10.184824 -19.864582 -1.6999882
-9.2300978 -20.365852 -1.7027673
-8.2696676 -20.869104 -1.7094706
-4.5658789 -21.587786 -1.6803415
-4.0241208 -21.585789 -1.6721404
-3.4873242 -21.583811 -1.664987
-2.9548047 -21.58185 -1.6588519
-0.67822266 -7.7027674 -0.58885801
-1.3765429 -21.580187 -1.6467342
-0.85455078 -21.579132 -1.6446013
0.18693359 -21.577026 -1.6432168
0.70761716 -21.575974 -1.6439559
1.7517382 -21.571674 -1.6481546
2.2764843 -21.570009 -1.6517428
2.8037889 -21.568336 -1.6563118
3.3343749 -21.566652 -1.6618774
4.4078517 -21.563253 -1.6760602
4.9529881 -21.565134 -1.6850058
6.0610156 -21.563906 -1.7057883
7.1994529 -21.562639 -1.7311636
7.7804489 -21.557339 -1.7453074
8.3731441 -21.556469 -1.7610791
8.9769726 -21.555586 -1.7781811
9.593008 -21.554684 -1.7966769
13.574101 -20.379534 -1.8647064
16.145721 -19.8004 -1.9456124
17.788574 -19.78492 -2.0261204
18.496035 -19.599636 -2.0522442
19.488281 -18.750807 -2.0594881
19.968925 -18.306513 -2.0630047
20.897226 -17.379402 -2.0698128
22.611563 -15.378733 -2.0824525
23.00832 -14.849832 -2.0853934
23.391699 -14.310045 -2.0882416
23.761347 -13.759823 -2.0909946
25.095957 -11.461291 -2.1010075
25.67293 -10.259068 -2.1053846
23.884766 -8.8826132 -1.9406027
24.113886 -8.3114815 -1.9423627
24.710722 -6.5618963 -1.9470084
24.878809 -5.9680567 -1.9483401
27.147987 -5.8237824 -2.114435
27.461971 -4.5184317 -2.1194255
27.575449 -3.856497 -2.1203854
27.749609 -2.5240173 -2.1219323
27.852695 -1.1834936 -2.1229761
27.877539 -0.5114392 -2.1233091
27.884453 0.16111755 -2.1235147
27.797871 2.1766577 -2.123369
27.733299 2.8460894 -2.1230664
27.651054 3.5134709 -2.1226375
27.551073 4.1782832 -2.1220825
24.840977 6.2635283 -1.9509186
23.492968 6.5302386 -1.8568859
21.46957 6.5295806 -1.708912
16.978125 6.5385261 -1.385498
15.827831 6.5381498 -1.3041198
13.034062 6.5243325 -1.1099881
12.284081 6.524086 -1.0592166
9.371953 6.5338321 -0.87002397
8.905879 6.5336761 -0.84114498
8.0596485 6.5333915 -0.79009289
7.6734762 6.5332608 -0.76746356
6.6345701 6.5329094 -0.70906347
6.3219528 6.5328021 -0.69229507
6.023613 6.5327005 -0.67668653
5.2020507 6.5324173 -0.63592511
4.9493165 6.5323296 -0.62411076
4.6456637 6.4489861 -0.60526413
4.4129295 6.4483547 -0.59503853
4.1881442 6.448277 -0.58553427
4.0222459 6.5325527 -0.58420753
3.8080077 6.5324774 -0.57581615
3.5997655 6.532403 -0.56798977
3.3969727 6.532331 -0.56069404
3.1991796 6.5322599 -0.55390221
1.7546679 6.531734 -0.51504213
1.5867773 6.5316706 -0.51186913
1.4208593 6.5316081 -0.50903016
1.2566797 6.5315471 -0.50651497
0.93265623 6.531425 -0.50242805
0.45447263 6.5312419 -0.49857187
0.29638672 6.5311809 -0.49787575
0.13865234 6.5311198 -0.49747154
-0.1765039 6.5309978 -0.49753189
-0.33429688 6.5309367 -0.49799591
-0.48541015 6.4378252 -0.49164581
-0.79914063 6.4377017 -0.49400797
-0.95869136 6.4469047 -0.49634448
-1.9626563 6.5210199 -0.51859379
-2.3110156 6.5208759 -0.52684271
-2.6715038 6.5207267 -0.53662699
-2.8570311 6.5206509 -0.54213578
-3.4388475 6.5204096 -0.56136858
-5.253828 6.5196381 -0.63763034
-5.5183396 6.5195246 -0.65045172
-5.7231836 6.4399066 -0.656093
-8.5570507 6.5224543 -0.81936073
-8.9989452 6.5222602 -0.8463617
-9.4713087 6.5220513 -0.87573415
-10.523339 6.521585 -0.94279385
-10.955712 6.42908 -0.96734923
-11.737597 6.5125198 -1.0222181
-13.199424 6.511867 -1.1208405
-14.978007 6.5110698 -1.2437274
-18.564844 6.5190692 -1.4983983
-20.360586 6.6024323 -1.6300023
-20.49999 6.1052766 -1.6288965
-20.628271 5.6055169 -1.6278692
-20.74539 5.1033635 -1.6269206
-20.85125 4.5990543 -1.6260514
-22.981405 2.7851427 -1.7629058
-23.076708 1.6727362 -1.7619703
-23.105888 1.115437 -1.7616333
-23.12285 0.55773067 -1.7613831
-23.12742 -0.00014465331 -1.7612208
-22.965878 -2.7835 -1.7617202
-22.498339 -5.5348949 -1.7643999
-21.762245 -5.913949 -1.7173615
-20.467079 -6.0957518 -1.6262902
-20.325283 -6.5912595 -1.627182
-20.172392 -7.0837908 -1.6281531
-19.833778 -8.0591145 -1.6303306
-19.648153 -8.5414972 -1.6315365
-20.87582 -10.299238 -1.7727002
-19.216465 -13.232889 -1.7767987
-18.577675 -14.160684 -1.7788779
-18.242764 -14.614311 -1.780054
-9.2715425 -7.8019505 -0.9227792
-17.542627 -15.499914 -1.7826775
-17.177616 -15.931438 -1.7841247
-16.802782 -16.355171 -1.7856616
-16.418339 -16.77092 -1.7872876
-15.757187 -17.730812 -1.8063984
-14.95418 -18.557428 -1.8149431
-11.088476 -19.849829 -1.7314894
-10.470547 -19.85371 -1.7092941
-9.9223242 -19.96701 -1.6979443
-9.4558983 -20.239204 -1.7011933
-7.5213671 -21.223179 -1.7147021
-7.0215816 -21.442068 -1.7182003
-5.9343944 -21.591988 -1.7052652
-4.2828126 -21.586742 -1.6759323
-1.1042578 -21.579636 -1.6455014
-0.062207028 -21.577532 -1.6431975
0.979375 -21.575424 -1.6447234
2.5510156 -21.569138 -1.6540022
3.6124609 -21.565771 -1.6651789
4.6915622 -21.565424 -1.6806827
5.7933202 -21.564203 -1.700407
6.3545704 -21.56358 -1.7119503
6.9238672 -21.562946 -1.724653
7.5004296 -21.557749 -1.7382115
8.6865034 -21.556011 -1.7698256
9.9194136 -21.554209 -1.8068849
11.193535 -21.524273 -1.8475344
12.800234 -20.788115 -1.8591156
13.325019 -20.515059 -1.8629059
13.843769 -20.228363 -1.8666563
14.356093 -19.928074 -1.8703647
16.561327 -19.796564 -1.9655437
19.740156 -18.520844 -2.0613306
20.215214 -18.069775 -2.0648088
20.67914 -17.605877 -2.0682116
21.572479 -16.640844 -2.07478
22.000957 -16.140209 -2.0779395
22.416992 -15.627949 -2.081013
23.209864 -14.569731 -2.08689
23.948593 -13.468884 -2.0923922
24.630136 -12.328362 -2.0974975
25.540468 -10.549776 -2.1043761
24.006094 -8.5857229 -1.9415334
24.433672 -7.4306431 -1.9448385
24.800215 -6.2529302 -1.9477155
25.775331 -5.8413982 -2.0126479
27.262148 -5.4905682 -2.1177802
27.401464 -4.8340292 -2.1189225
27.523241 -4.1737766 -2.1199405
27.627636 -3.5101955 -2.1208365
27.714334 -2.8438447 -2.1216075
27.783281 -2.1752183 -2.1222527
27.766445 2.5259125 -2.1232274
27.692656 3.194334 -2.1228588
27.601093 3.86044 -2.1223636
27.491913 4.5236578 -2.1217427
24.917715 5.9777322 -1.9513969
24.753202 6.5735159 -1.9503672
22.396387 6.529882 -1.7765611
20.273476 6.4454021 -1.620028
14.286133 6.5247455 -1.1960244
13.419179 6.5244598 -1.1362941
12.634356 6.5242009 -1.0828502
9.1250191 6.5337491 -0.8546623
7.4807224 6.5331964 -0.75634438
7.1260934 6.5330768 -0.73621237
6.469707 6.5328531 -0.70016968
5.5942578 6.5325518 -0.65495569
4.7597461 6.4490252 -0.61038405
4.2948632 6.4483132 -0.59000438
4.1270509 6.5325885 -0.58843464
3.0979297 6.5322232 -0.55055165
2.9070506 6.532155 -0.54447615
2.7202148 6.5320854 -0.53884333
2.5370898 6.5320206 -0.53363281
2.3574023 6.5319548 -0.52882665
2.0070117 6.5318265 -0.52036542
1.6668944 6.5317011 -0.51334614
1.5000585 6.5316372 -0.5103476
0.68923825 6.5313311 -0.50013715
-0.25871092 6.5309658 -0.49773735
-0.56689453 6.4377923 -0.49214971
-0.72375 6.4377313 -0.49333602
-1.0417383 6.4468732 -0.49731147
-2.0524218 6.5209818 -0.52060407
-2.2266405 6.5209122 -0.52473444
-2.4037499 6.5208392 -0.52924103
-2.5840235 6.5207648 -0.53413922
-2.7677734 6.520689 -0.53944564
-3.9630272 6.5201883 -0.58104992
-4.6399217 6.5199018 -0.60939986
-4.8809376 6.5197978 -0.6202172
-6.1563478 6.435462 -0.67821074
-6.5489841 6.523334 -0.70391852
-6.8726754 6.5231938 -0.72158498
-8.3552732 6.5225444 -0.80719769
-9.2412109 6.5221539 -0.8613618
-9.7308979 6.5219355 -0.89207953
-10.257129 6.5217032 -0.9256258
-10.824834 6.5214505 -0.96238065
-11.278056 6.4289374 -0.98859322
-12.824443 6.5120339 -1.0953091
-13.628379 6.5116754 -1.1502204
-15.507949 6.5108318 -1.2808332
-17.901718 6.5193682 -1.4508517
-20.290565 6.839644 -1.6306093
-20.434628 6.3436198 -1.6294161
-20.568262 5.8450627 -1.6283511
-20.690712 5.3440409 -1.6273649
-21.929678 4.5485258 -1.7055511
-22.795116 4.1572566 -1.7645483
-23.010956 2.4955156 -1.7626286
-23.058369 1.9393078 -1.7621626
-23.116259 0.82475096 -1.7614921
-23.084375 -1.4058282 -1.7611994
-22.855898 -3.6254683 -1.7623049
-22.66827 -4.7263541 -1.7633814
-22.556299 -5.2736969 -1.7640491
-22.432129 -5.8186884 -1.764804
-20.394541 -6.354403 -1.6267452
-20.246952 -6.8483877 -1.6276784
-20.08836 -7.3393044 -1.6286901
-19.738417 -8.3110428 -1.6309493
-17.680655 -7.9519482 -1.4763434
-19.345087 -9.2678356 -1.6335199
-20.747353 -10.562284 -1.7729298
-20.492441 -11.062799 -1.7734414
-19.949619 -12.046911 -1.7747308
-19.053984 -13.477286 -1.7773056
-18.404356 -14.39808 -1.7794795
-9.403183 -7.7290306 -0.92693305
-16.983418 -16.153345 -1.7849149
-16.257959 -17.030369 -1.7929995
-15.928691 -17.512341 -1.8027594
-15.155829 -18.369423 -1.8135546
-14.73208 -18.7598 -1.816473
-14.298799 -19.141132 -1.8194613
-13.856191 -19.513153 -1.8225176
-13.404433 -19.875652 -1.8256414
-12.036006 -19.848663 -1.7677243
-11.390049 -19.84787 -1.7426728
-10.764336 -19.851887 -1.719723
-9.6800385 -20.110199 -1.6996315
-9.2098627 -20.376989 -1.7029083
-7.7584567 -21.114521 -1.7130439
-6.7586327 -21.551777 -1.7200419
-6.2035937 -21.592571 -1.7108572
-5.0899024 -21.590153 -1.6892321
-4.5426559 -21.587702 -1.6799688
-4.0011134 -21.585705 -1.6718136
-2.9321485 -21.581768 -1.6586138
-2.4033983 -21.579819 -1.653525
-0.83232421 -21.579086 -1.6445345
0.20910156 -21.576982 -1.6432295
0.72984374 -21.57593 -1.6440076
2.8263671 -21.568264 -1.6565313
3.3571093 -21.566582 -1.6621369
3.8917382 -21.564888 -1.6687634
4.4315233 -21.565712 -1.6766076
7.224082 -21.562613 -1.7317483
8.3986521 -21.556433 -1.7617804
9.0029688 -21.55555 -1.778939
10.249531 -21.553728 -1.8175143
10.892051 -21.548796 -1.8387244
11.475957 -21.405338 -1.8495678
12.54705 -20.913937 -1.8572884
13.07457 -20.647457 -1.8610965
13.59625 -20.367306 -1.8648663
14.11166 -20.073524 -1.8685946
15.403476 -19.80711 -1.9107958
16.985586 -19.792589 -1.9862008
17.825136 -19.784565 -2.0279615
7.7295117 -7.7886167 -0.83562934
19.509003 -18.732119 -2.0596397
20.458456 -17.829468 -2.0665925
20.916542 -17.359013 -2.0699549
22.628769 -15.356416 -2.0825803
23.02496 -14.827019 -2.0855169
23.776796 -13.736129 -2.09111
24.798143 -12.024886 -2.0987613
25.108944 -11.436007 -2.1011052
25.404551 -10.838614 -2.1033437
25.684549 -10.233081 -2.105473
23.894804 -8.8584261 -1.9406796
24.535156 -7.1257329 -1.9456302
24.718164 -6.536716 -1.9470669
27.189335 -5.8033886 -2.1171904
27.336952 -5.1488318 -2.1183908
27.854061 -1.1547869 -2.1229928
27.884296 0.18981323 -2.1235204
27.872578 0.86234254 -2.1235938
27.843008 1.5343274 -2.1235399
27.795488 2.2052515 -2.123359
26.108828 4.6340313 -2.0193338
23.399549 6.5302081 -1.8500323
21.390547 6.5295563 -1.7031542
19.707441 6.5394144 -1.5812434
18.223242 6.5389309 -1.4743878
14.627265 6.4774661 -1.2182437
13.823125 6.5245929 -1.1640425
12.253593 6.5240765 -1.0571679
10.945273 6.5236444 -0.9703328
9.3513861 6.5338249 -0.86873966
8.8866987 6.5336699 -0.83996725
8.4515038 6.5335236 -0.81349725
8.042695 6.5333867 -0.78908956
7.293457 6.533134 -0.74565917
6.0111718 6.5326958 -0.67604536
4.6356053 6.4489822 -0.60481411
4.403203 6.4483514 -0.59462124
4.1787305 6.4482732 -0.58514601
4.0129881 6.5325503 -0.58383757
3.7990234 6.532475 -0.57547253
3.5910156 6.5323992 -0.56766742
3.1908398 6.5322576 -0.5536229
2.80916 6.5321183 -0.54148567
2.6242969 6.5320525 -0.53607523
2.4429882 6.5319853 -0.53107762
1.9174609 6.5317926 -0.51840073
1.5796679 6.5316677 -0.51174116
1.4138281 6.5316057 -0.50891584
0.92580074 6.5314212 -0.50235313
0.76556641 6.5313616 -0.50078279
0.60628903 6.5312991 -0.49951139
0.28964844 6.5311794 -0.49785224
0.13193358 6.5311174 -0.49745971
-0.49207029 6.4378228 -0.49168471
-0.64859372 6.4377604 -0.49273276
-0.80585933 6.4376993 -0.49407122
-0.9654687 6.4469023 -0.49642038
-1.1380664 6.5213518 -0.50412142
-1.3008398 6.521286 -0.50639439
-1.7995508 6.5210857 -0.51515746
-2.3185742 6.5208731 -0.52703553
-2.4973047 6.5208001 -0.53174371
-2.8650391 6.5206475 -0.54237974
-3.2486913 6.5204873 -0.55476713
-3.6512499 6.520319 -0.56908911
-4.2982421 6.5200467 -0.5947004
-4.7645311 6.5198479 -0.61494851
-5.010078 6.5197415 -0.62615585
-5.2648826 6.5196328 -0.63815743
-5.5298243 6.5195193 -0.65101713
-6.0156446 6.435524 -0.67085141
-6.3131638 6.4353948 -0.68651891
-7.398066 6.5229645 -0.75109905
-7.7678123 6.5228019 -0.77243567
-8.5753517 6.5224481 -0.8204667
-9.0184956 6.5222516 -0.84756732
-9.4921875 6.5220413 -0.87704229
-10.547548 6.521574 -0.94436049
-11.766113 6.5125065 -1.0241172
-15.020195 6.5110502 -1.2466749
-18.626055 6.519042 -1.5027981
-20.366747 6.5812774 -1.6299536
-20.633448 5.5841813 -1.6278274
-20.750116 5.081944 -1.626882
-20.859961 4.5785174 -1.6263629
-22.840576 3.8694537 -1.7641586
-22.918388 3.3161442 -1.7634771
-23.078222 1.6489794 -1.7619539
-23.106903 1.0916449 -1.7616206
-23.119101 -0.58172911 -1.7611444
-23.065664 -1.696043 -1.7612646
-22.963192 -2.8071685 -1.7617337
-22.811689 -3.9131212 -1.7625521
-22.611406 -5.0119767 -1.7637188
-22.493036 -5.5581369 -1.7644322
-21.677656 -5.914937 -1.7111686
-20.461269 -6.1169534 -1.6263266
-20.318954 -6.6123233 -1.6272219
-20.165653 -7.1047463 -1.6281961
-20.001387 -7.5939264 -1.6292486
-19.826122 -8.0797291 -1.6303802
-19.639931 -8.5619335 -1.6315902
-20.865419 -10.320759 -1.7727182
-20.083593 -11.813566 -1.7743967
-19.80085 -12.299526 -1.7751189
-19.203281 -13.252954 -1.7768393
-18.888641 -13.71995 -1.7778372
-18.228262 -14.633506 -1.7801062
-9.2598829 -7.8084178 -0.92241699
-17.527216 -15.518447 -1.7827379
-17.161787 -15.949656 -1.7841886
-16.786591 -16.373098 -1.7857291
-16.401768 -16.788601 -1.7873584
-16.09119 -17.285734 -1.7984407
-15.352861 -18.176603 -1.8118956
-14.936123 -18.574108 -1.8150674
-14.507353 -18.959768 -1.8180224
-14.069189 -19.336235 -1.8210464
-13.621816 -19.703371 -1.8241378
-13.1354 -20.0152 -1.823139
-11.061807 -19.85 -1.7305102
-10.444981 -19.85471 -1.7084517
-9.4358587 -20.250593 -1.7013329
-8.9620113 -20.512028 -1.7046371
-8.481328 -20.762991 -1.7079921
-7.5001755 -21.232775 -1.7148504
-7.0001364 -21.451202 -1.7183505
-5.9104686 -21.591932 -1.7047818
-5.3538866 -21.590727 -1.693992
-4.2596679 -21.586655 -1.6755837
-3.1864843 -21.582703 -1.6614032
-2.1288671 -21.578808 -1.6512661
-1.0819141 -21.579592 -1.6454152
-0.56068361 -21.578539 -1.6438223
0.48050779 -21.576433 -1.6435162
1.0016601 -21.575378 -1.6447977
2.5734961 -21.569067 -1.6541995
3.6352344 -21.565701 -1.6654577
4.1721873 -21.563999 -1.6726184
4.7148046 -21.565397 -1.6810589
5.8171091 -21.564177 -1.7008775
6.3787107 -21.563551 -1.7124664
6.9483204 -21.56292 -1.7252231
7.5252929 -21.557714 -1.7388303
9.3228712 -21.55508 -1.788439
9.9461908 -21.554169 -1.8077539
10.582011 -21.54985 -1.8282669
12.29248 -21.036612 -1.8554519
12.822754 -20.776703 -1.8592782
13.865762 -20.215786 -1.8668154
15.042246 -19.810299 -1.8942288
15.804317 -19.803509 -1.9294741
16.595781 -19.796242 -1.9672114
18.274511 -19.777514 -2.0506299
19.275391 -18.940397 -2.0579321
20.69869 -17.585802 -2.0683551
21.150742 -17.108868 -2.071676
21.590956 -16.619677 -2.0749161
23.22621 -14.546677 -2.0870113
23.601875 -14.001079 -2.0898061
23.963671 -13.444956 -2.0925047
24.311073 -12.879161 -2.0951035
25.26498 -11.125581 -2.1022859
23.780214 -9.1295357 -1.9398025
24.01576 -8.5613708 -1.9416076
24.236601 -7.9865475 -1.9433099
24.442108 -7.4058084 -1.9449043
24.807402 -6.2276464 -1.9477725
27.63166 -3.4818182 -2.1208718
27.868906 -0.80453426 -2.1231797
27.883633 -0.1321228 -2.1234407
27.763632 2.5544622 -2.123214
27.689159 3.2226837 -2.1228406
24.911036 6.0033026 -1.9513553
24.745897 6.5987835 -1.9503213
22.310644 6.5298553 -1.7702911
17.526171 6.5387053 -1.4245267
15.011171 6.4411945 -1.2439375
11.890488 6.5239553 -1.0328357
10.638613 6.5235419 -0.95034522
9.4466209 6.4393573 -0.87061477
7.8390622 6.5333185 -0.77711284
7.4651756 6.5331912 -0.75545317
7.1113868 6.5330706 -0.73538458
6.7757616 6.5329571 -0.71676677
6.4564061 6.5328484 -0.69945782
5.8611131 6.5326443 -0.6683585
5.5826364 6.532548 -0.65438104
5.0583787 6.5323663 -0.62916422
4.5132813 6.4483905 -0.59939033
4.2852736 6.4483109 -0.58959985
4.1176562 6.5325861 -0.58805275
3.9006445 6.5325103 -0.57940352
3.6898632 6.5324359 -0.57133478
3.484746 6.5323625 -0.56381255
3.2848241 6.5322905 -0.55680311
2.7123437 6.532083 -0.53861153
2.5293555 6.5320182 -0.53342009
2.1733398 6.5318866 -0.52422941
1.9996679 6.5318232 -0.52020109
1.8285351 6.5317593 -0.51653177
1.3280663 6.5315728 -0.50757164
1.1647656 6.5315118 -0.50523561
0.84214842 6.5313897 -0.50149697
0.049804688 6.5310855 -0.49737158
-0.26542968 6.5309634 -0.49775845
-0.42343748 6.5309014 -0.49838659
-0.57355469 6.4377909 -0.49219412
-0.73048824 6.4377298 -0.49339315
-0.88818359 6.4376664 -0.49488661
-1.0484961 6.4468694 -0.49739429
-1.2227343 6.5213175 -0.50526714
-1.3863477 6.5212517 -0.50770563
-1.5516211 6.5211859 -0.51046616
-1.718789 6.5211172 -0.5135572
-1.8881054 6.521049 -0.51698935
-2.5917773 6.520761 -0.53435767
-2.7756641 6.5206852 -0.53968126
-3.1552539 6.5205264 -0.55163354
-3.3516991 6.5204449 -0.55830663
-3.9722068 6.5201859 -0.58141309
-4.4167771 6.5199957 -0.59971344
-5.40166 6.5195756 -0.64475095
-5.8779492 6.4355826 -0.66373765
-6.1690817 6.4354572 -0.67888266
-7.2281442 6.5230389 -0.74144608
-7.5882225 6.5228815 -0.76201689
-8.3730078 6.5225358 -0.80826312
-9.7525587 6.5219269 -0.89344978
-10.280469 6.5216937 -0.92712712
-10.850068 6.5214396 -0.9640274
-11.305049 6.428925 -0.99037802
-12.123222 6.5123477 -1.0479867
-20.440565 6.3223429 -1.6293689
-20.695673 5.3225555 -1.6273246
-20.806484 4.8192596 -1.6264205
-22.882675 3.5812054 -1.7637924
-23.013241 2.4718578 -1.7626071
-23.060127 1.9155585 -1.7621447
-23.094696 1.3585205 -1.7617694
-23.116972 0.80095702 -1.7614814
-23.109911 -0.87238342 -1.7611421
-23.08293 -1.4295819 -1.761204
-23.04372 -1.9860864 -1.7613528
-22.764179 -4.2003393 -1.7628225
-22.66374 -4.7497568 -1.7634081
-22.426514 -5.8419223 -1.7648383
-20.240419 -6.8693571 -1.62772
-19.33625 -9.2880287 -1.6335778
-20.214941 -11.578732 -1.7740735
-19.937529 -12.067622 -1.7747619
-19.350136 -13.02704 -1.7763945
-19.040565 -13.497214 -1.777348
-18.390009 -14.417387 -1.7795303
-17.33795 -15.744246 -1.7834829
-16.587109 -16.590876 -1.7865673
-16.24452 -17.051374 -1.7934539
-15.913681 -17.532036 -1.8031008
-15.543564 -17.977173 -1.8097836
-12.007578 -19.847692 -1.7665374
-11.363066 -19.848043 -1.7416629
-8.2281246 -20.889631 -1.7097607
-7.2402735 -21.347992 -1.7166693
-6.7370505 -21.560616 -1.7201933
-4.5194335 -21.587614 -1.6795987
-3.9781444 -21.585619 -1.6714892
-1.331953 -21.580097 -1.6465151
-0.81003904 -21.579042 -1.6444647
-0.28914061 -21.57799 -1.6433724
0.23136719 -21.576935 -1.643242
0.75201172 -21.575884 -1.6440659
1.2735742 -21.574829 -1.6458471
1.7963672 -21.571533 -1.6484233
2.8488867 -21.568193 -1.6567471
3.3797851 -21.566511 -1.6624001
4.4546094 -21.565685 -1.6769611
6.6745896 -21.563223 -1.7189758
7.2487497 -21.562586 -1.7323446
7.830586 -21.557264 -1.7465979
8.4241791 -21.556396 -1.7624844
9.0290232 -21.55551 -1.7797058
9.6461716 -21.554607 -1.798323
10.276738 -21.553686 -1.8183911
10.919863 -21.548702 -1.8396707
11.499003 -21.395439 -1.8497338
12.036875 -21.156061 -1.853609
12.569648 -20.902828 -1.8574513
13.096952 -20.63579 -1.8612581
13.618398 -20.355019 -1.8650265
15.436093 -19.806816 -1.9123052
17.020624 -19.792257 -1.9879189
17.861641 -19.78421 -2.0298035
18.539141 -19.564535 -2.0525587
7.764277 -7.8075967 -0.83852172
19.529648 -18.713453 -2.0597906
20.009356 -18.268036 -2.0633008
21.815605 -16.359949 -2.0765722
22.237148 -15.852739 -2.0796835
22.64584 -15.33403 -2.0827067
23.041582 -14.804196 -2.0856404
23.423769 -14.263515 -2.0884802
23.792206 -13.712378 -2.0912249
24.146582 -13.151172 -2.0938721
24.81168 -11.999936 -2.0988631
25.121855 -11.410693 -2.1012032
25.416836 -10.812945 -2.1034369
23.904863 -8.8341351 -1.9407564
24.54332 -7.100667 -1.9456942
24.725664 -6.5114207 -1.9471259
27.196114 -5.7756295 -2.1172447
27.342852 -5.1208668 -2.1184392
27.584335 -3.7999296 -2.1204617
27.75539 -2.4670291 -2.1219866
27.814335 -1.7973498 -2.1225607
27.878788 -0.45407104 -2.1233313
27.87166 0.89102536 -2.1235938
27.793047 2.2338421 -2.1233482
27.727051 2.9031208 -2.1230352
27.541679 4.2348661 -2.1220288
25.962421 4.635623 -2.0083814
24.984531 5.7165742 -1.9518106
24.826914 6.3143573 -1.9508307
21.311758 6.5295291 -1.6974163
19.639608 6.5393925 -1.5763422
15.736073 6.5381207 -1.2976643
14.627265 6.4954376 -1.2187991
11.543672 6.5238419 -1.0097569
10.344277 6.5234442 -0.93130612
8.0258198 6.5333805 -0.78809094
7.6415234 6.5332499 -0.76561368
6.934238 6.5330105 -0.72550786
6.6073046 6.5328999 -0.70758533
6.2959571 6.5327935 -0.69092155
5.9987888 6.532691 -0.67540604
5.4419336 6.5324993 -0.6474669
4.6255274 6.4489789 -0.60436845
4.0037107 6.532547 -0.58346856
3.5822852 6.5323968 -0.56734723
3.3799219 6.5323248 -0.56009686
3.182539 6.5322537 -0.55334479
2.8011913 6.5321159 -0.54124624
2.2574413 6.531918 -0.52628928
2.0824413 6.5318537 -0.52208459
1.7402734 6.5317278 -0.51475871
1.5725585 6.5316644 -0.51161385
1.2427343 6.5315409 -0.50631469
0.75876951 6.5313592 -0.50072289
0.59951168 6.5312967 -0.4994638
0.44093749 6.5312371 -0.49850017
0.28292969 6.531177 -0.49783066
-0.032343749 6.531055 -0.49736056
-0.34775391 6.5309305 -0.49804974
-0.49875 6.4378204 -0.49172348
-0.97222656 6.4468999 -0.49649763
-1.1449609 6.5213494 -0.50421166
-1.3078125 6.5212836 -0.50649869
-1.8067774 6.5210834 -0.51530308
-2.1503124 6.5209427 -0.52288651
-2.3261328 6.5208697 -0.52722871
-2.5049999 6.5207977 -0.53195435
-2.6871874 6.5207219 -0.53708041
-3.455996 6.520401 -0.56197983
-3.6600585 6.5203166 -0.56941712
-3.869746 6.5202274 -0.57739472
-4.0854883 6.5201373 -0.58594513
-4.3078709 6.5200434 -0.59510428
-4.5374217 6.5199456 -0.60491186
-5.2759962 6.5196295 -0.63869077
-5.5413671 6.5195146 -0.65158641
-5.7469335 6.4398956 -0.6572966
6.2783985 -18.868715 -1.9656519
6.743125 -18.743483 -1.9689813
7.664824 -18.458294 -1.975593
8.1212502 -18.298382 -1.9788715
8.574316 -18.126955 -1.9821287
9.0237112 -17.944092 -1.9853628
9.4691992 -17.749886 -1.9885715
9.9103708 -17.544321 -1.9917521
10.347012 -17.327562 -1.9949036
10.778749 -17.099634 -1.9980226
11.626426 -16.610809 -2.0041561
12.041718 -16.350056 -2.0071659
12.450995 -16.078621 -2.0101354
14.02125 -14.888521 -2.0215635
14.762422 -14.23305 -2.0269794
15.471171 -13.539189 -2.0321741
15.812695 -13.178336 -2.0346832
17.666288 -10.832471 -2.0483925
16.995468 -8.7980299 -1.8916986
17.217968 -8.3929834 -1.893373
18.172207 -6.2844543 -1.9006399
18.376036 -5.8626895 -1.9066116
20.212305 -5.3896852 -2.0677397
20.347031 -4.9031305 -2.0688095
20.469101 -4.4130387 -2.0697906
20.674999 -3.4235888 -2.0714834
20.758692 -2.9249241 -2.0721936
20.887129 -1.9215006 -2.0733392
20.963339 -0.91232663 -2.0741153
20.958065 1.1116875 -2.0745487
20.923944 1.6167675 -2.074424
20.87664 2.1207464 -2.0742054
20.557364 4.1184916 -2.0724034
20.427773 4.6076541 -2.0699456
18.712149 4.6977057 -1.9070306
18.585684 5.1455302 -1.9062366
18.298243 6.0300007 -1.9044015
11.626855 6.5236077 -1.3178203
10.996269 6.5234089 -1.2638189
9.3840036 6.5279498 -1.1299345
8.4872656 6.5333271 -1.05871
7.6892185 6.5330691 -0.99734533
7.3235154 6.5329523 -0.97007149
6.0358787 6.5325308 -0.87915266
5.7500196 6.5324359 -0.86022091
5.4760547 6.5323443 -0.84256434
5.2129297 6.5322552 -0.8260904
4.959785 6.5321698 -0.81071156
4.6556249 6.4488335 -0.78619534
4.1974998 6.4481277 -0.76052028
4.0314255 6.5324054 -0.75876755
3.6084569 6.532259 -0.73765379
2.8250389 6.5319853 -0.70345885
2.1046484 6.5317278 -0.67832321
1.9320312 6.5316644 -0.67328095
1.5938672 6.5315409 -0.66456127
1.4278711 6.5314798 -0.66085774
1.1008788 6.5313578 -0.65470481
0.93947262 6.5312982 -0.65223581
0.61984372 6.5311761 -0.64848053
0.30310547 6.5310564 -0.64626265
0.14537109 6.5309954 -0.6457209
-0.0121875 6.5309329 -0.64555687
-0.16976562 6.5308719 -0.64576787
-0.47873047 6.4377017 -0.63809639
-0.79238278 6.4375772 -0.64112991
-0.95189452 6.4467793 -0.64414686
-1.1241992 6.5212274 -0.65410352
-1.6170897 6.5210271 -0.66409981
-1.9553125 6.5208879 -0.67291677
-2.1280077 6.5208182 -0.67800969
-2.3034375 6.5207438 -0.68358052
-2.6636329 6.5205927 -0.69623566
-3.0382812 6.5204349 -0.71105444
-3.231914 6.5203519 -0.71933925
-3.6335742 6.5201812 -0.73781544
-4.5074997 6.5198016 -0.78347945
-4.9886522 6.5195913 -0.81145126
-5.2426367 6.5194793 -0.82694089
-5.7111912 6.4397407 -0.850811
-5.9907422 6.4353619 -0.8690753
-6.2870898 6.4352288 -0.88928938
-7.0187693 6.5229425 -0.94713008
-7.3672266 6.5227823 -0.97263503
-7.7351952 6.5226164 -1.0001476
-8.1248236 6.5224404 -1.0298759
-8.5385351 6.5222516 -1.0620657
-9.4502144 6.5218353 -1.1349721
-9.9552345 6.5216031 -1.176388
-10.956699 6.4448123 -1.2564945
-11.573554 6.4370694 -1.3090429
-12.403339 6.5119476 -1.3847269
-13.164745 6.5115933 -1.451768
-14.004111 6.5112028 -1.526565
-15.726397 5.9706583 -1.6627645
-15.856162 5.5862079 -1.6617535
-15.977168 5.1991839 -1.6608042
-16.722481 4.5626459 -1.7133852
-17.779688 3.9407756 -1.8001145
-17.935966 3.0765276 -1.7988037
-18.130878 1.3329926 -1.7970136
-18.154989 0.89516354 -1.7967404
-18.152802 -0.85783142 -1.796348
-18.047705 -2.1685967 -1.7967892
-17.993017 -2.6036828 -1.7970763
-17.928545 -3.037513 -1.7974331
-17.854307 -3.4698575 -1.7978598
-17.770342 -3.9005663 -1.7983557
-17.67663 -4.3293967 -1.7989215
-17.337666 -5.6026964 -1.8010322
-16.866474 -5.9033823 -1.7663645
-15.713242 -5.9289193 -1.6600882
-15.574101 -6.3095922 -1.6609875
-15.426289 -6.6872687 -1.6619494
-15.269912 -7.0617251 -1.6629727
-14.931602 -7.800355 -1.6652033
-14.749804 -8.1641302 -1.6664096
-14.559628 -8.5239773 -1.6676763
-14.36122 -8.8797379 -1.6690027
-15.138115 -10.401478 -1.8155352
-14.645674 -11.13978 -1.8188602
-14.386611 -11.500897 -1.820616
-13.267051 -12.887104 -1.8282439
-12.658955 -13.542706 -1.8324095
-12.343213 -13.860466 -1.8345779
-11.689023 -14.475026 -1.8390805
-11.350879 -14.771474 -1.8414128
-11.005547 -15.060425 -1.8437979
-10.653144 -15.341719 -1.8462348
-10.293906 -15.615254 -1.8487223
-9.9278708 -15.880755 -1.8512598
-9.5552731 -16.138098 -1.853846
-9.1762304 -16.387114 -1.8564796
-8.7909956 -16.627636 -1.8591594
-8.0024996 -17.082548 -1.864653
-7.5995898 -17.296614 -1.8674644
-7.1911912 -17.501614 -1.8703169
-6.7774024 -17.69729 -1.8732098
-6.3585544 -17.883574 -1.876141
-5.9347262 -18.060223 -1.8791096
-5.5061913 -18.227219 -1.8821139
-5.0731249 -18.384363 -1.8851527
-4.6357813 -18.531525 -1.8882241
-3.7490234 -18.795403 -1.8944601
-1.9339062 -19.19791 -1.9072561
-1.4728124 -19.271845 -1.9105134
-0.54357421 -19.386911 -1.9170855
0.86406249 -19.476294 -1.9270608
1.3358788 -19.483606 -1.9304098
2.2818358 -19.464041 -1.9371321
3.2290235 -19.398632 -1.9438735
3.7023828 -19.348606 -1.9472467
4.1751561 -19.287043 -1.9506185
6.0552344 -18.924568 -1.9640539
7.9031639 -18.376345 -1.9773047
9.6997261 -17.644108 -1.9902333
11.425547 -16.731779 -2.0027013
11.843672 -16.476231 -2.0057302
12.255859 -16.209898 -2.008719
12.661817 -15.932922 -2.0116665
13.453828 -15.347568 -2.0174272
7.6588864 -7.9303703 -1.0897777
14.58793 -14.393487 -2.025703
14.950371 -14.055818 -2.0283554
15.650352 -13.352221 -2.0334899
17.531464 -11.030325 -2.047389
17.810429 -10.615023 -2.0494666
16.885429 -8.9897509 -1.8908724
17.329863 -8.1794443 -1.8942171
17.536602 -7.7654991 -1.8957815
17.732714 -7.3460503 -1.897272
18.255976 -6.0575061 -1.9012878
20.143574 -5.6212254 -2.0671978
20.28418 -5.1364946 -2.0683091
20.412304 -4.6480584 -2.0693326
20.527695 -4.1562486 -2.0702665
20.630331 -3.6613989 -2.0711107
20.861113 -2.1622891 -2.0730987
20.974569 -0.64870971 -2.0742562
20.98455 0.36360413 -2.0745628
20.969805 0.86963928 -2.0745757
20.941933 1.3751129 -2.0744956
20.779688 2.8845568 -2.0736949
20.500546 4.3759513 -2.0720596
18.515175 5.3775544 -1.9057901
18.371191 5.8197489 -1.9048707
16.409277 6.5379934 -1.7460071
15.096074 6.4408989 -1.6223376
13.453789 6.5241776 -1.47798
12.665742 6.5239325 -1.4082865
11.948261 6.5237079 -1.345621
11.291543 6.5235004 -1.289011
10.015957 6.4500251 -1.1775665
8.2699022 6.5332561 -1.0417622
7.871738 6.5331278 -1.0111629
7.4960351 6.5330071 -0.98286694
7.140625 6.5328913 -0.95665038
6.8034959 6.5327811 -0.93232971
6.4828711 6.5326762 -0.90972608
6.1772852 6.5325761 -0.8887009
5.8853126 6.5324798 -0.86911744
5.6057811 6.5323868 -0.85086197
4.7698827 6.4488711 -0.79286337
4.5329685 6.4482412 -0.77911437
3.9188476 6.5323663 -0.75297862
3.7075195 6.5322928 -0.7424435
3.3015819 6.5321527 -0.72346741
3.1060741 6.532084 -0.71495098
2.7280469 6.531951 -0.69970542
2.544785 6.5318851 -0.69292045
1.8430078 6.5316324 -0.67083508
1.6740234 6.5315704 -0.66648626
1.5071093 6.5315094 -0.66257668
1.0166016 6.5313263 -0.65336788
0.85578126 6.5312662 -0.65110642
0.6960156 6.5312052 -0.64923817
0.53705078 6.5311456 -0.6477558
0.37873045 6.5310831 -0.64665443
0.22083984 6.5310235 -0.64593369
-0.25195312 6.5308404 -0.64602667
-0.56021482 6.4376688 -0.6387406
-1.3723047 6.5211258 -0.65870428
-1.704414 6.5209918 -0.66622704
-1.8735352 6.5209222 -0.6706416
-2.9471679 6.520473 -0.70730078
-3.1386523 6.5203924 -0.71529704
-3.3346679 6.5203094 -0.72390378
-3.7417576 6.5201335 -0.74307495
-4.6297264 6.5197477 -0.79040617
-4.8703709 6.5196428 -0.80440503
-5.8574414 6.4396768 -0.86046833
-6.1435156 6.4352932 -0.87943166
-7.1981053 6.522862 -0.96018666
-8.7647657 6.5221477 -1.0799118
-9.2207613 6.5219402 -1.1163875
-9.7089453 6.5217156 -1.1561078
-10.233477 6.5214748 -1.1994833
-11.250712 6.4286942 -1.2808354
-12.063125 6.512105 -1.3550488
-15.518447 6.5339737 -1.6643722
-15.795146 5.7705669 -1.6622298
-18.028633 2.4152989 -1.7979916
-18.172743 0.22842468 -1.7964592
-18.161377 -0.64815122 -1.7963357
-18.110577 -1.5233648 -1.7964929
-17.960615 -2.8300197 -1.7972537
-17.811728 -3.6946228 -1.7981097
-17.623945 -4.5521593 -1.7992437
-17.397549 -5.4010143 -1.8006539
-16.235643 -5.9127936 -1.707953
-15.015654 -7.6248808 -1.6646472
-14.837871 -7.9904904 -1.6658245
-14.651729 -8.3522377 -1.6670623
-14.25454 -9.0635128 -1.6697173
-15.013066 -10.595938 -1.8163779
-14.76666 -10.964988 -1.8180418
-9.4006834 -7.7107925 -1.2018269
-12.807323 -13.388202 -1.8313918
-11.513652 -14.630494 -1.8402896
-11.171728 -14.923035 -1.8426497
-10.103887 -15.754648 -1.8500394
-9.3584766 -16.268934 -1.8552129
-7.387363 -17.404638 -1.8689464
-6.5596676 -17.795576 -1.8747331
-6.1382031 -17.976854 -1.877684
-5.711875 -18.148527 -1.8806716
-4.8456249 -18.462332 -1.8867501
-3.5154295 -18.857389 -1.8961043
-2.1536717 -19.158739 -1.9057047
-0.67820311 -7.7027435 -0.76433587
-1.2314453 -19.306055 -1.9122195
-0.29999998 -19.409672 -1.9188101
1.582168 -19.482887 -1.9321591
2.0552149 -19.472881 -1.9355205
2.5286913 -19.451441 -1.938888
3.4758399 -19.374016 -1.9456321
4.4213281 -19.25033 -1.9523753
5.8315625 -18.977741 -1.9624532
6.7628512 -18.737902 -1.9691228
7.2250195 -18.600588 -1.9724364
7.6843553 -18.451702 -1.975733
8.140625 -18.29129 -1.9790109
8.5935936 -18.119387 -1.9822674
9.4880857 -17.74132 -1.9887077
10.365566 -17.318073 -1.9950373
10.79705 -17.089699 -1.9981549
11.223398 -16.850281 -2.0012381
12.870976 -15.784302 -2.0131867
13.266796 -15.49146 -2.0160654
13.655703 -15.188264 -2.0188978
14.037402 -14.874969 -2.0216815
7.6570506 -7.7315216 -1.0755996
14.77789 -14.218664 -2.0270927
15.136093 -13.876008 -2.029716
16.796112 -12.026085 -2.0419352
17.951757 -10.395569 -2.0505216
17.005196 -8.7808933 -1.8917716
17.227245 -8.3755751 -1.893443
17.830723 -7.1252651 -1.8980193
18.010448 -6.6979828 -1.8993948
20.474043 -4.3920779 -2.0698309
20.582832 -3.898648 -2.0707181
20.761972 -2.9036145 -2.072222
20.982265 -0.3849414 -2.0743723
20.986952 0.12126403 -2.0745234
20.956913 1.13323 -2.0745456
20.922167 1.6382703 -2.0744166
20.874336 2.1421978 -2.0741942
20.813437 2.6446521 -2.0738788
20.652597 3.6437004 -2.072969
20.552832 4.1395979 -2.072376
20.33625 4.609014 -2.0611508
18.580019 5.1645498 -1.9062008
18.130487 6.4845791 -1.903316
15.827011 6.5378132 -1.6926653
14.624687 6.4583759 -1.5802864
13.033496 6.5240469 -1.4407067
10.970527 6.5234003 -1.2616292
9.7282028 6.4392219 -1.1531676
8.9055853 6.5334601 -1.0917739
7.6732421 6.5330644 -0.99613965
7.3083591 6.5329471 -0.96895438
6.9627147 6.5328326 -0.9437474
5.7380857 6.5324321 -0.8594411
5.4646091 6.5323405 -0.84183842
4.9491796 6.5321674 -0.81007797
4.6455274 6.4488297 -0.78561181
4.4128318 6.4482012 -0.7723406
3.8079295 6.5323272 -0.74739456
3.5996873 6.5322561 -0.73723549
3.1991014 6.5321159 -0.71894974
3.0059764 6.5320477 -0.71075362
2.8170507 6.5319829 -0.70314628
2.4506054 6.5318522 -0.68959266
2.0972459 6.531724 -0.67809904
1.7546289 6.5315995 -0.66851205
0.93261719 6.5312943 -0.65213966
0.7723828 6.5312347 -0.65008336
0.45445311 6.5311127 -0.64713347
-0.17648438 6.5308695 -0.64578491
-0.95867187 6.4467778 -0.64424378
-1.4581445 6.5210919 -0.66050065
-1.6242187 6.5210233 -0.66426933
-1.9626172 6.5208855 -0.67312294
-2.4895508 6.5206656 -0.68992072
-2.6714454 6.5205898 -0.69652861
-2.8569727 6.5205107 -0.70367897
-3.0464647 6.5204315 -0.71139562
-3.2402539 6.5203485 -0.71970636
-3.6423633 6.5201774 -0.73823792
-4.2885156 6.5198979 -0.77138168
-4.5174413 6.5197978 -0.78403634
-5.2536912 6.5194745 -0.82762593
-5.7230272 6.4397368 -0.85158783
-6.0031052 6.4353557 -0.86990845
-6.3000193 6.4352226 -0.89017767
-6.7017188 6.5230842 -0.92442906
-7.0332618 6.5229349 -0.9481802
-7.3825192 6.5227776 -0.97376484
-8.1419525 6.5224333 -1.0311984
-8.9986715 6.5220428 -1.0985434
-9.4709959 6.5218267 -1.1366628
-10.956679 6.429656 -1.255735
-11.737139 6.5122561 -1.3267893
-13.198848 6.511579 -1.4547898
-15.73208 5.9543071 -1.6627203
-15.861523 5.5697575 -1.6617116
-17.691084 4.352006 -1.8008395
-17.783447 3.9223955 -1.8000836
-17.938887 3.0580018 -1.7987787
-18.001904 2.6236749 -1.7982299
-18.055157 2.1881261 -1.7977504
-18.098555 1.7516088 -1.7973406
-18.169609 0.4382495 -1.7965302
-18.167685 -0.43840453 -1.79634
-18.151953 -0.87647521 -1.7963498
-18.090889 -1.751054 -1.7965798
-18.045567 -2.1871619 -1.7968001
-17.850937 -3.4882731 -1.7978793
-17.568632 -4.7743273 -1.7995849
-17.455214 -5.1987257 -1.8002914
-17.332235 -5.6206479 -1.8010665
-16.813223 -5.9041781 -1.7614267
-15.567978 -6.3257761 -1.6610273
-15.419833 -6.7033224 -1.6619916
-15.097783 -7.4485989 -1.6641051
-14.924023 -7.8159747 -1.6652534
-14.551367 -8.5392532 -1.6677316
-14.145605 -9.2460918 -1.6704485
-15.127969 -10.417459 -1.8156033
-14.885664 -10.788984 -1.8172376
-14.634814 -11.155256 -1.8189338
-9.2575588 -7.790184 -1.1959627
-13.254434 -12.90136 -1.82833
-12.645644 -13.556379 -1.8325008
-12.329579 -13.873857 -1.8346716
-12.005898 -14.184402 -1.8368979
-11.674775 -14.487849 -1.8391787
-11.336299 -14.78394 -1.8415133
-10.990644 -15.07258 -1.8439007
-10.278399 -15.626726 -1.8488299
-9.9120893 -15.891887 -1.8513694
-8.7744923 -16.637709 -1.8592744
-6.7596483 -17.705412 -1.8733341
-5.916543 -18.067553 -1.8792371
-4.1754489 -18.674196 -1.8914601
-3.2808983 -18.916592 -1.897756
-2.8284373 -19.022121 -1.9009448
-1.4530468 -19.274761 -1.9106532
-0.52365232 -19.388906 -1.9172266
1.3560156 -19.48366 -1.930553
3.2491796 -19.39674 -1.9440173
4.1952929 -19.284149 -1.9507623
7.4648633 -18.524397 -1.9741577
8.3772068 -18.203083 -1.9807113
8.8282423 -18.025253 -1.9839557
9.2754688 -17.835964 -1.9871757
11.019941 -16.966227 -1.9997663
11.861406 -16.465094 -2.0058587
12.678965 -15.920869 -2.0117912
13.078222 -15.63291 -2.0146935
13.855644 -15.026159 -2.0203555
7.6584959 -7.9136925 -1.0885658
14.603496 -14.379274 -2.0258167
14.965664 -14.041201 -2.0284674
15.319511 -13.693674 -2.0310609
15.664883 -13.336821 -2.033597
16.001484 -12.970869 -2.0360723
16.328983 -12.596057 -2.0384853
16.955879 -11.820753 -2.0431175
17.543573 -11.012771 -2.0474792
17.82209 -10.597126 -2.0495536
18.090195 -10.174105 -2.0515561
17.740839 -7.3280344 -1.8973337
18.262676 -6.0388837 -1.9013399
20.149784 -5.6006255 -2.0672467
20.532362 -4.1351886 -2.0703046
20.634491 -3.6402364 -2.0711451
20.723749 -3.1426668 -2.0718949
20.863554 -2.1408639 -2.0731206
20.913944 -1.6374017 -2.0735958
20.95121 -1.132702 -2.0739777
20.968906 0.89121884 -2.0745745
20.940468 1.3966626 -2.0744901
20.898907 1.9011688 -2.0743124
20.844219 2.4043701 -2.0740414
20.776524 2.905916 -2.0736775
18.642225 4.9506745 -1.906593
18.509258 5.3964934 -1.9057524
18.209044 6.2764654 -1.9038252
16.360273 6.5379791 -1.741506
12.633808 6.5239215 -1.4054834
11.919082 6.5236979 -1.3430914
11.264766 6.5234928 -1.2867208
10.662832 6.5233049 -1.2355783
9.9933395 6.4500175 -1.175687
9.467207 6.4391398 -1.131743
9.1247263 6.5335283 -1.109315
8.2524414 6.5332499 -1.040406
7.8552537 6.533123 -1.0099112
7.4804883 6.5330024 -0.98170596
7.1258788 6.532886 -0.95557708
6.1645703 6.5325713 -0.88783628
5.5941014 6.5323834 -0.85011244
5.0690036 6.5322075 -0.81728727
4.7596288 6.4488688 -0.79226255
4.2947655 6.4481606 -0.76580513
4.1269531 6.5324383 -0.76377022
3.4933007 6.5322185 -0.73221505
3.0978515 6.5320807 -0.71460241
2.7201562 6.5319486 -0.69940537
2.3573437 6.5318179 -0.68640423
1.8357617 6.5316291 -0.67063981
1.1716796 6.5313835 -0.65590596
0.84896481 6.5312638 -0.65101951
0.21412109 6.5310211 -0.64591175
0.056503907 6.5309601 -0.64558172
-0.10105468 6.530899 -0.64562958
-0.56689453 6.4376664 -0.63879883
-0.72373044 6.437603 -0.64033848
-0.88144529 6.4375405 -0.64226037
-1.0417187 6.4467435 -0.64549959
-1.3792969 6.5211234 -0.65884668
-1.8808007 6.5209198 -0.67084038
-2.0523827 6.5208478 -0.67573011
-2.4036913 6.5207024 -0.68694055
-2.9552343 6.5204692 -0.7076295
-3.146914 6.5203886 -0.71565133
-3.5442576 6.5202188 -0.73355925
-3.9629295 6.5200381 -0.75418717
-4.1814842 6.5199432 -0.76562345
-4.6398044 6.5197439 -0.79098457
-6.548789 6.5231524 -0.91366345
-7.5722265 6.5226908 -0.98788899
-7.9521093 6.5225186 -1.0166264
-8.3549995 6.5223355 -1.0477095
-8.7835741 6.5221405 -1.0814062
-9.2408981 6.5219316 -1.1180121
-9.730547 6.5217056 -1.1578813
-10.256738 6.5214639 -1.2014221
-11.277597 6.4286823 -1.2831451
-12.092852 6.5120916 -1.3576324
-12.823896 6.5117521 -1.4216523
-13.627753 6.5113773 -1.4929202
-14.516933 6.5109649 -1.5726657
-15.66705 6.1374431 -1.6632247
-15.800634 5.7541728 -1.6621867
-15.925468 5.3682389 -1.6612105
-16.148623 4.589107 -1.6594443
-17.595713 4.5446525 -1.7963545
-17.740429 4.1282926 -1.800437
-17.827705 3.6977215 -1.7997171
-18.030878 2.3967235 -1.7979712
-18.078993 1.9606488 -1.7975281
-18.145674 1.0861365 -1.7968512
-18.164238 0.64807129 -1.7966174
-18.172949 0.2097351 -1.7964535
-18.171728 -0.22862244 -1.7963601
-18.139833 -1.1047052 -1.7963825
-18.109062 -1.5420055 -1.7964993
-17.88788 -3.2815597 -1.7976651
-17.718672 -4.1426587 -1.7986664
-17.619511 -4.5703416 -1.7992709
-17.510723 -4.9958591 -1.7999444
-17.264326 -5.8395367 -1.8014978
-16.185907 -5.9135332 -1.7033606
-15.63582 -6.1439629 -1.6605879
-14.830078 -8.0059986 -1.6658764
-14.643583 -8.3675919 -1.6671166
-14.44875 -8.7251167 -1.668417
-14.755938 -10.980588 -1.8181143
-9.3889256 -7.7173181 -1.2013383
-13.684052 -12.400567 -1.8253958
-13.395439 -12.740746 -1.827366
-12.794179 -13.402028 -1.8314819
-12.481796 -13.722759 -1.8336258
-11.499208 -14.643111 -1.8403893
-10.451386 -15.496948 -1.8476315
-10.088301 -15.765969 -1.8501474
-8.5710354 -16.759466 -1.8606908
-8.1764059 -16.986391 -1.8634405
-7.7759376 -17.204401 -1.8662336
-7.3699217 -17.413355 -1.8690683
-6.1201367 -17.984377 -1.8778106
-5.6936326 -18.155605 -1.8807995
-5.2624998 -18.317078 -1.8838235
-4.826992 -18.468569 -1.8868809
-4.3873048 -18.61006 -1.8899705
-3.9436717 -18.741364 -1.8930905
-2.5912499 -19.072945 -1.9026171
-0.67050779 -7.7060556 -0.76459503
1.13 -19.481806 -1.9289483
2.0754101 -19.472195 -1.9356641
3.0225389 -19.416811 -1.942403
3.4960351 -19.371847 -1.945776
3.969121 -19.315319 -1.9491488
4.9128513 -19.167475 -1.9558849
5.3829684 -19.076101 -1.959245
7.244668 -18.594458 -1.9725776
8.1599998 -18.284199 -1.9791501
8.6128321 -18.111794 -1.9824058
9.0618744 -17.927982 -1.9856374
10.384024 -17.308546 -1.9951708
10.815351 -17.079676 -1.998287
11.241445 -16.83983 -2.0013688
11.66205 -16.588989 -2.0044141
