# .PCD v0.7 - Point Cloud Data file format
VERSION 0.7
FIELDS x y z
SIZE 4 4 4
TYPE F F F
COUNT 1 1 1
WIDTH 1502
HEIGHT 1
VIEWPOINT 0 0 0 1 0 0 0
POINTS 1502
DATA ascii
6.3057032 0.6687628 -1.9699268
6.2874413 0.82065123 -1.9698335
6.265449 0.97203553 -1.9697134
6.1402731 1.5706372 -1.9689698
6.0080857 2.0097234 -1.9681393
5.9568944 2.153723 -1.9678117
5.9021091 2.2963891 -1.9674586
5.8438668 2.437639 -1.9670806
5.7821875 2.5773809 -1.9666781
5.7170897 2.7155309 -1.966251
5.5017381 3.1196043 -1.9648259
5.4234376 3.2505615 -1.9643039
4.4750195 4.4377184 -1.9578899
4.3649802 4.5426378 -1.9571378
4.0053711 4.5927343 -1.8931787
3.4796875 4.6268234 -1.7985084
3.3657422 4.7073631 -1.7977233
3.2496092 4.7850523 -1.7969222
3.0122654 4.9317236 -1.7952819
2.6439648 5.1293478 -1.7927297
2.518203 5.1891098 -1.7918566
2.2627149 5.2992749 -1.79008
1.8707422 5.4407153 -1.7873477
1.7380078 5.4814172 -1.7864208
1.6044531 5.518867 -1.7854873
1.4700586 5.5530419 -1.7845471
1.1992383 5.6115136 -1.7826505
1.0629101 5.6357884 -1.7816943
0.92615235 5.6567383 -1.7807345
0.78898436 5.674365 -1.7797707
0.65152341 5.6886544 -1.7788043
0.5138281 5.6996102 -1.7778356
0.23802733 5.7115149 -1.7758929
0.10011718 5.712461 -1.77492
-0.037695311 5.710084 -1.7739474
-0.17533202 5.7043824 -1.7729751
-0.44978514 5.6830554 -1.771034
-0.85818356 5.6264367 -1.7681397
-0.99312496 5.6010609 -1.767182
-1.2607617 5.5406675 -1.7652798
-1.5249609 5.4675708 -1.763399
-1.6555078 5.4263258 -1.7624686
-1.7850195 5.3819847 -1.7615446
-2.0404296 5.2841415 -1.7597201
-2.7730272 4.9197922 -1.7544671
-2.8895702 4.849144 -1.7536285
-3.1168945 4.6997252 -1.7519902
-3.2280273 4.6210399 -1.7511878
-3.9018943 4.5739136 -1.8677435
-4.075254 4.550034 -1.8975984
-4.1821094 4.4485731 -1.8968209
-4.2865233 4.3446422 -1.8960603
-4.4875779 4.129631 -1.8945919
-4.584199 4.018661 -1.8938844
-4.7692575 3.7901452 -1.8925258
-5.1823435 3.1835089 -1.8894705
-5.2560935 3.0566723 -1.8889205
-5.3268356 2.9281597 -1.8883917
-5.3944921 2.7980437 -1.8878841
-5.5785937 2.3988354 -1.8864926
-5.6335545 2.2630548 -1.8860732
-5.7790232 1.8486291 -1.8849504
-5.8594918 1.5671948 -1.8843173
-5.9266014 1.2823718 -1.8837777
-5.9550586 1.1388806 -1.8835434
-5.9801168 0.99477416 -1.8833331
-6.0017967 0.85013241 -1.8831466
-6.0200391 0.7050311 -1.8829839
-6.0348434 0.55955994 -1.8828458
-6.0586329 0.12165039 -1.8825761
-6.0572653 -0.17072754 -1.8825175
-6.0293555 -0.60835999 -1.8826126
-6.0131836 -0.75367308 -1.8826928
-5.8446484 -1.614079 -1.8836817
-5.7615819 -1.8946368 -1.8842024
-5.7150974 -2.0333991 -1.884498
-5.6123242 -2.3075051 -1.8851589
-5.5561132 -2.4427025 -1.8855243
-5.4341016 -2.7090034 -1.8863229
-5.2995896 -2.9693573 -1.8872111
-5.2277536 -3.0971386 -1.8876883
-5.1528516 -3.2232068 -1.8881872
-5.0750194 -3.3474998 -1.8887075
-4.9942188 -3.4699481 -1.889249
-4.9105077 -3.5904956 -1.8898115
-4.7345896 -3.8255672 -1.8909978
-4.3499217 -4.2698779 -1.8936079
-4.0343165 -4.5784717 -1.8957626
-3.9242578 -4.6763248 -1.8965161
-3.8118749 -4.7715745 -1.8972868
-3.3400586 -5.1254296 -1.9005328
-3.0916991 -5.2853308 -1.9022475
-2.572871 -5.5691538 -1.9058415
-1.7394922 -5.8717389 -1.9024987
-1.4364063 -5.8754916 -1.8790499
-0.84826171 -5.8807297 -1.8458325
-0.70402342 -5.8815904 -1.8402343
-0.56054688 -5.8822765 -1.8356823
-0.41765624 -5.8827915 -1.8321637
-0.27525389 -5.8831363 -1.8296697
-0.13312499 -5.8833117 -1.8281931
0.15082031 -5.8831573 -1.8282772
0.72183591 -5.8808136 -1.8406601
0.86619139 -5.8797965 -1.8463461
1.0114453 -5.8786001 -1.8530957
1.3055273 -5.8756638 -1.8698654
1.4547266 -5.8739157 -1.8799322
1.6055468 -5.8719726 -1.8911605
2.0698438 -5.8649206 -1.9321514
2.2193553 -5.8356462 -1.9395858
2.3606055 -5.783421 -1.9405948
2.6395507 -5.668643 -1.942589
2.776953 -5.6061511 -1.943573
2.912832 -5.5402985 -1.9445468
3.0471485 -5.4711313 -1.9455105
3.1798241 -5.3986645 -1.9464632
3.6922264 -5.076756 -1.9501529
3.8153319 -4.9884768 -1.9510419
3.9363475 -4.8971753 -1.9519168
4.1716404 -4.7057104 -1.9536211
4.2857618 -4.6056561 -1.9544498
4.7171874 -4.1779742 -1.9575927
4.9168944 -3.9485211 -1.9590548
5.0124803 -3.8301289 -1.9597569
5.1052341 -3.7093844 -1.9604391
5.1949606 -3.5863521 -1.9611007
5.3653321 -3.3337452 -1.9623616
5.5232224 -3.0729034 -1.963536
5.7356248 -2.6675942 -1.9651288
5.799746 -2.5290799 -1.9656134
5.9714646 -2.1044323 -1.9669235
6.0216403 -1.9601529 -1.967311
6.0682812 -1.8146529 -1.967674
6.1508203 -1.5203345 -1.9683247
6.2471094 -1.0719714 -1.9691083
6.2718358 -0.92104614 -1.9693179
6.323535 -0.4651843 -1.9697887
6.3332419 -0.31251281 -1.9698927
6.3391991 -0.1596466 -1.9699703
6.3413672 -0.0066668699 -1.9700211
6.3343749 0.29921752 -1.9700432
6.312324 0.60438478 -1.9699584
6.2956443 0.75645447 -1.9698764
6.2751951 0.90806335 -1.9697675
6.2231445 1.209505 -1.9694704
6.1915426 1.3591577 -1.9692822
6.1563282 1.5079651 -1.9690683
6.1174021 1.6558386 -1.9688282
5.9789648 2.0929639 -1.9679533
5.9256835 2.2362115 -1.9676108
5.8689256 2.3780651 -1.9672436
5.6075778 2.9299548 -1.9655282
5.533906 3.0636296 -1.9650396
5.3767967 3.3252172 -1.9639922
5.2935352 3.4529822 -1.9634347
5.2071486 3.5786169 -1.9628546
5.1177344 3.7020581 -1.9622525
4.9300389 3.9420495 -1.9609841
4.8318357 4.0584607 -1.9603187
4.5208006 4.3925095 -1.9582021
4.2829099 4.5832553 -1.9487616
4.0862889 4.5900135 -1.9091516
3.8973436 4.5963197 -1.8721097
3.5436327 4.6130738 -1.8071285
3.4144335 4.6736388 -1.7980589
3.2992773 4.7525377 -1.7972649
3.0630467 4.9016833 -1.7956332
2.82041 5.0390077 -1.7939535
2.4450195 5.2221823 -1.7913481
2.1881249 5.3287082 -1.7895606
1.3921875 5.5712595 -1.7840021
1.1206445 5.6259227 -1.7820992
0.57208985 5.6953831 -1.7782458
0.43429688 5.7044139 -1.7772757
-0.25466797 5.6995835 -1.7724143
-0.80089843 5.6361976 -1.7685461
-0.93615234 5.6121888 -1.7675866
-1.0706836 5.5849524 -1.766631
-1.3373632 5.5208764 -1.7647349
-1.9868164 5.3058448 -1.7601032
-2.2381639 5.1985178 -1.7583053
-2.3616991 5.1404233 -1.7574202
-2.7232616 4.9488502 -1.754825
-2.955996 4.8071384 -1.7531503
-3.0694726 4.7322178 -1.7523322
-3.1811719 4.6546388 -1.7515261
-3.3096483 4.5999374 -1.76048
-4.5436521 4.0658751 -1.8941814
-4.638711 3.9536242 -1.8934847
-4.7310157 3.8391881 -1.892807
-4.8206053 3.7226439 -1.8921478
-4.9073243 3.6040502 -1.8915085
-5.072207 3.360985 -1.8902887
-5.2972655 2.9827228 -1.888613
-5.6638279 2.1841497 -1.8858411
-5.7137108 2.0464635 -1.8854573
-5.8035936 1.767821 -1.8847582
-5.943418 1.1996515 -1.8836398
-5.9699411 1.0557995 -1.8834192
-6.0127149 0.7664575 -1.8830501
-6.0418162 0.4754779 -1.8827771
-6.0512109 0.32955748 -1.8826768
-6.0571876 0.18347777 -1.8826007
-6.0587106 -0.10890441 -1.8825216
-6.054297 -0.25503173 -1.882519
-6.0464649 -0.40101683 -1.8825402
-6.0023241 -0.83732176 -1.88275
-5.9557223 -1.1260327 -1.8830115
-5.8220506 -1.695401 -1.883822
-5.7802343 -1.8356243 -1.8840845
-5.5802536 -2.3856719 -1.885367
-5.4609571 -2.6531582 -1.8861465
-5.3966017 -2.7847536 -1.8865697
-5.3291016 -2.9148238 -1.8870158
-5.2585154 -3.0432949 -1.8874838
-5.1083007 -3.2951477 -1.8884847
-4.9462891 -3.5397365 -1.8895708
-4.860918 -3.6591516 -1.8901452
-4.6817384 -3.8918424 -1.8913549
-4.5880079 -4.0050068 -1.8919898
-4.3926172 -4.2246017 -1.8933172
-4.2909765 -4.3309326 -1.8940095
-4.0801368 -4.5363035 -1.895449
-3.9711132 -4.6352506 -1.8961951
-3.8596873 -4.7316046 -1.8969587
-3.7459569 -4.8253202 -1.8977392
-3.6299999 -4.9163561 -1.8985361
-3.2692187 -5.1727538 -1.9010214
-3.1449022 -5.2524838 -1.90188
-3.0186913 -5.329267 -1.9027525
-2.8905468 -5.4030628 -1.9036392
-2.760664 -5.4738097 -1.9045389
-2.6290624 -5.5414677 -1.9054517
-2.2247264 -5.7255173 -1.9082612
-2.0869727 -5.7804246 -1.9092202
-1.8047071 -5.8708429 -1.9080764
-1.6513085 -5.8729033 -1.8952429
-1.2020313 -5.8779078 -1.8638394
-1.0552343 -5.8792009 -1.8556341
-0.76496094 -5.881247 -1.8424734
-0.47800779 -5.8825951 -1.8335261
0.23277344 -5.882987 -1.8290538
0.66103512 -5.8811917 -1.8385704
0.8050195 -5.8802476 -1.8438125
0.94988281 -5.8791285 -1.8501103
1.0958008 -5.8778296 -1.8574816
2.1591015 -5.8566937 -1.9391559
2.3010547 -5.8059349 -1.9401692
2.4416406 -5.7517114 -1.9411737
2.9905467 -5.5007944 -1.9451044
3.1239061 -5.4297199 -1.9460616
3.2555468 -5.3553739 -1.9470075
3.3854492 -5.2778101 -1.9479421
3.513418 -5.197063 -1.9488635
3.6395311 -5.1131716 -1.9497727
3.8854296 -4.9361682 -1.9515485
4.005156 -4.8431396 -1.9524149
4.1226368 -4.7471776 -1.9532659
4.460742 -4.4421954 -1.9557223
4.568418 -4.3350296 -1.9565066
4.6735153 -4.2252069 -1.9572735
4.775918 -4.1128058 -1.9580221
4.8755469 -3.9978848 -1.9587518
5.0663671 -3.7607458 -1.960153
5.1573243 -3.6386783 -1.9608232
5.3303123 -3.3878808 -1.9621021
5.4121876 -3.2593024 -1.9627093
5.4908786 -3.1287248 -1.963295
5.5663867 -2.9962142 -1.9638582
5.6385937 -2.8618367 -1.9643991
5.773047 -2.587873 -1.9654112
5.9491014 -2.1650851 -1.9667517
6.0008006 -2.0213332 -1.96715
6.093574 -1.7301782 -1.9678721
6.1345897 -1.5829211 -1.9681958
6.171875 -1.4346893 -1.9684933
6.2055469 -1.2855591 -1.9687655
6.2355466 -1.1356115 -1.9690121
6.3032227 -0.68190426 -1.969595
6.3296094 -0.37713256 -1.9698521
6.3371286 0.23455933 -1.9700474
6.3295507 0.38736206 -1.9700296
6.3182421 0.53992921 -1.9699854
6.2842774 0.8439917 -1.9698166
6.2354102 1.1459783 -1.9695421
6.2053709 1.2959491 -1.9693652
6.1716599 1.4451318 -1.969162
6.0486326 1.8869311 -1.968397
5.9486914 2.1757751 -1.967759
5.8933787 2.3182366 -1.967402
5.834609 2.4592535 -1.9670203
5.637754 2.8728673 -1.9657278
5.5654688 3.0073059 -1.9652493
5.4898825 3.1398973 -1.964747
5.4111133 3.2705462 -1.9642217
5.3291211 3.3991845 -1.963673
5.0647655 3.7722497 -1.9618951
4.5661325 4.3468299 -1.9585111
4.4582419 4.4540439 -1.9577752
4.3478122 4.5585475 -1.9570205
4.1685548 4.5872116 -1.9255825
3.9765038 4.5937061 -1.8874776
3.3479881 4.7195153 -1.7976009
3.2315624 4.7967615 -1.7967976
2.9936914 4.9425254 -1.7951535
2.6246679 5.138751 -1.7925957
2.2428515 5.3072324 -1.7899417
1.982246 5.4037509 -1.7881255
1.8503516 5.4471922 -1.7872055
1.4492968 5.5580077 -1.7844018
1.314121 5.5883899 -1.7834554
1.1782812 5.6154652 -1.7825034
1.0418946 5.6392283 -1.7815467
0.76785153 5.6767821 -1.7796222
0.63033199 5.6905613 -1.7786554
-0.19652343 5.7032113 -1.7728255
-1.1479882 5.5677757 -1.7660818
-1.28125 5.5354872 -1.7651342
-1.4136523 5.5000305 -1.7641919
-1.5451171 5.4614234 -1.7632555
-1.8048632 5.3748851 -1.761403
-2.0598829 5.2761083 -1.759581
-2.1854687 5.2222128 -1.7586825
-2.3096094 5.1653562 -1.7577934
-2.673125 4.9774046 -1.7551852
-3.5722852 4.586339 -1.8060104
-4.091836 4.5345716 -1.8974779
-4.4037695 4.2217283 -1.8952044
-4.6923242 3.8878648 -1.8930914
-4.7830663 3.7721961 -1.8924242
-4.9560742 3.5347192 -1.8911483
-5.2672071 3.0369904 -1.8888376
-5.4046092 2.7778821 -1.8878082
-5.5872459 2.3780181 -1.8864264
-5.6417379 2.2420361 -1.8860105
-5.693027 2.1048431 -1.8856169
-5.9836717 0.97253418 -1.8833029
-6.0048437 0.82782227 -1.8831198
-6.0225391 0.68265194 -1.882961
-6.0367966 0.53712583 -1.8828267
-6.0502148 -0.3392871 -1.8825282
-5.9902539 -0.92083067 -1.8828157
-5.9667382 -1.0651599 -1.8829479
-5.909492 -1.3519573 -1.8832852
-5.8757811 -1.4942999 -1.88349
-5.8387108 -1.6358068 -1.8837183
-5.7983203 -1.7764227 -1.8839706
-5.7076559 -2.0546649 -1.8845456
-5.6573825 -2.1921322 -1.8848681
-5.4241991 -2.7292705 -1.8863881
-5.2887301 -2.9891541 -1.8872833
-5.1410742 -3.2424572 -1.8882656
-5.0627732 -3.3664808 -1.8887895
-4.9815235 -3.4886389 -1.8893341
-4.8973632 -3.608876 -1.8898998
-4.7205663 -3.8433282 -1.8910925
-4.4348044 -4.1789212 -1.89303
-4.3342381 -4.2862492 -1.8937145
-4.017539 -4.5937109 -1.8958774
-3.6793163 -4.8781815 -1.8981969
-3.5620508 -4.967627 -1.8990034
-3.3211913 -5.1381497 -1.9006628
-2.5523632 -5.5790915 -1.9059838
-1.8670117 -5.8603272 -1.9107531
-1.4133593 -5.8757486 -1.8774399
-1.2645508 -5.877306 -1.8676422
-1.1171875 -5.8786755 -1.8589709
-0.97103512 -5.8798642 -1.8513964
-0.25333983 -5.8831735 -1.8293765
-0.11125 -5.8833232 -1.8280561
0.030703124 -5.8833051 -1.8277481
0.17267577 -5.8831177 -1.8284509
0.60039061 -5.8815384 -1.8366674
0.74400389 -5.8806682 -1.8414673
1.0339258 -5.8784008 -1.8542311
1.1805078 -5.876997 -1.8622317
1.3284374 -5.8754082 -1.8713404
1.6289258 -5.8716559 -1.8929945
2.3822656 -5.7750721 -1.9407495
2.522207 -5.7188597 -1.9417496
2.7979686 -5.5962305 -1.9437234
2.9336522 -5.5298667 -1.9446959
3.0676951 -5.4601841 -1.9456581
3.2000976 -5.3872142 -1.946609
3.3307421 -5.3110108 -1.9475483
3.4595311 -5.231607 -1.9484755
3.9547656 -4.8828492 -1.9520504
4.3031249 -4.5899982 -1.9545758
4.4144335 -4.4867091 -1.9553847
4.7329493 -4.160665 -1.9577078
4.8337498 -4.0467978 -1.9584455
5.0269728 -3.811687 -1.9598632
5.1192384 -3.6905887 -1.9605422
5.2085352 -3.5672088 -1.9612011
5.3779492 -3.3139496 -1.9624552
5.4580078 -3.1841986 -1.9630499
5.6084571 -2.9189034 -1.9641731
5.67875 -2.7834914 -1.9647006
5.7457223 -2.6463735 -1.9652047
5.8092771 -2.5076067 -1.9656857
5.9261913 -2.2254827 -1.9665759
5.9793944 -2.082293 -1.9669845
6.0751562 -1.7921423 -1.9677277
6.2511716 -1.0487708 -1.9691424
6.2957029 -0.74616516 -1.9695271
6.3124022 -0.594118 -1.96968
6.3252735 -0.44169617 -1.9698063
6.334414 -0.28898254 -1.9699064
6.3397851 -0.13609314 -1.96998
6.3234763 0.47542906 -1.9700072
6.271699 0.93135804 -1.9697481
6.2469726 1.0823206 -1.9696087
6.1505466 1.5308038 -1.969033
6.1110935 1.6785235 -1.968789
6.0679493 1.8252063 -1.9685187
6.0212302 1.970772 -1.9682231
5.9709959 2.1151099 -1.9679022
5.8598828 2.3997838 -1.9671849
5.7349415 2.6785321 -1.9663683
5.5964451 2.9506609 -1.9654547
5.4448047 3.2155242 -1.9644465
5.3641796 3.3450208 -1.9639081
5.2804294 3.4724693 -1.9633468
5.1935349 3.5977733 -1.9627631
5.1036911 3.7208641 -1.9621578
5.0108399 3.841682 -1.9615309
4.9150782 3.9601378 -1.9608828
4.7150779 4.1897092 -1.9595255
4.5041795 4.4090195 -1.9580886
4.394824 4.5146813 -1.9573419
4.0567775 4.5910144 -1.9032863
3.8688085 4.5972509 -1.866622
3.2809961 4.7644358 -1.7971389
3.0445507 4.9126806 -1.7955053
2.8014452 5.0490756 -1.7938219
2.6775584 5.1127415 -1.7929629
2.5521874 5.1733351 -1.7920926
2.1681445 5.3363891 -1.7894213
2.0377147 5.3844042 -1.7885126
1.2358007 5.6044188 -1.7829067
1.0996679 5.629581 -1.781952
0.825957 5.669951 -1.7800305
0.68853515 5.6851377 -1.7790647
0.41304687 5.7055039 -1.7771261
0.13722657 5.7125354 -1.7751819
-0.13833985 5.7062426 -1.7732366
-0.68603516 5.6539745 -1.7693608
-0.82175779 5.6327124 -1.7683984
-0.95693356 5.6082044 -1.7674391
-1.0913281 5.5804734 -1.7664845
-1.4896485 5.4781346 -1.7636508
-1.6205077 5.4377279 -1.762718
-2.0063672 5.2980065 -1.7599636
-2.2572851 5.1897607 -1.7581683
-2.380625 5.131218 -1.7572845
-2.5024414 5.0697727 -1.7564108
-2.8583984 4.8684225 -1.753853
-3.0865819 4.7204428 -1.7522088
-3.1985157 4.6424632 -1.7514012
-3.3330469 4.5963707 -1.7638425
-3.4996679 4.5889878 -1.7928958
-3.8524804 4.5758166 -1.8582721
-4.0387692 4.568573 -1.8943566
-4.3612108 4.2671485 -1.8955154
-4.5584569 4.0487375 -1.894073
-4.6530857 3.9361424 -1.8933792
-4.7450194 3.8213878 -1.892704
-5.1619725 3.2173419 -1.889622
-5.2365427 3.0909569 -1.8890666
-5.3081055 2.962893 -1.8885318
-5.4419336 2.701961 -1.8875271
-5.5041404 2.5692565 -1.8870573
-5.7671876 1.8861847 -1.8850427
-5.8855858 1.4634509 -1.8841091
-5.9183593 1.3208587 -1.8838447
-5.9737306 1.0335938 -1.8833872
-6.0312304 0.59872067 -1.8828806
-6.0434961 0.45302123 -1.8827599
-6.0523825 0.3070825 -1.8826632
-6.0577731 0.16096802 -1.8825912
-6.0597067 0.014780273 -1.8825434
-6.0582614 -0.13140441 -1.8825198
-6.044961 -0.42347839 -1.8825455
-5.9992185 -0.85962892 -1.8827667
-5.9770899 -1.0041821 -1.8828892
-5.951582 -1.1481683 -1.8830355
-5.8904099 -1.4341894 -1.8834007
-5.8548045 -1.5760565 -1.8836187
-5.8157811 -1.7170557 -1.8838611
-5.7735157 -1.8571292 -1.8841269
-5.72791 -1.9961755 -1.8844161
-5.5129881 -2.5406823 -1.8858056
-5.3863864 -2.8048842 -1.8866372
-5.318418 -2.93471 -1.8870864
-5.1733203 -3.189451 -1.8880508
-5.0962501 -3.3142364 -1.8885653
-4.93332 -3.5582581 -1.8896579
-4.8475194 -3.6773491 -1.8902355
-4.1705661 -4.4506335 -1.8948311
-4.0634961 -4.5517073 -1.8955626
-3.9541016 -4.6502595 -1.8963116
-3.8423047 -4.7462068 -1.8970779
-3.7282226 -4.8395152 -1.897861
-3.6119335 -4.9301267 -1.8986602
-3.4934375 -5.0179811 -1.8994757
-3.1256053 -5.264503 -1.9020132
-2.8706446 -5.4141541 -1.9037768
-2.7405078 -5.4844317 -1.9046786
-2.4751756 -5.6156592 -1.9065199
-2.3401172 -5.676527 -1.9074584
-1.9263867 -5.8397031 -1.9103391
-1.6278906 -5.8732028 -1.8933744
-1.3272852 -5.8766704 -1.8716488
-1.179336 -5.878118 -1.8625036
-0.88724607 -5.8804679 -1.8475189
-0.59908199 -5.8821087 -1.8368052
-0.45603514 -5.8826699 -1.8330085
0.11261719 -5.8832178 -1.8280303
0.25468749 -5.8829322 -1.8293182
0.39703125 -5.8824787 -1.8316242
0.68314451 -5.8810582 -1.8393089
0.9722656 -5.8789401 -1.8511738
1.5647656 -5.8725147 -1.8880221
1.7169336 -5.8704257 -1.9001193
1.8710742 -5.868134 -1.9134338
2.4631641 -5.7430601 -1.9413273
2.6023827 -5.6848731 -1.9423231
2.7401171 -5.6232944 -1.9433092
2.8764453 -5.5583496 -1.944286
3.1443553 -5.4184842 -1.9462085
3.2756834 -5.3436465 -1.9471524
3.405293 -5.2655821 -1.9480848
3.5329883 -5.1843505 -1.9490045
4.0233984 -4.8285499 -1.952547
4.2552929 -4.6328564 -1.9542285
4.3676171 -4.5307374 -1.9550445
4.5848241 -4.3182883 -1.9566263
4.6894531 -4.2080626 -1.9573901
4.8906641 -3.979964 -1.9588625
4.9870505 -3.8622134 -1.9595699
5.0805664 -3.7420959 -1.9602575
5.1710739 -3.6196759 -1.9609246
5.2586913 -3.4950185 -1.9615716
5.424531 -3.2393365 -1.962801
5.5027146 -3.1084411 -1.9633831
5.7177734 -2.7045794 -1.9649942
5.7828317 -2.5665009 -1.9654852
5.902617 -2.2856309 -1.9663957
5.957324 -2.1430306 -1.9668149
6.0560937 -1.8539056 -1.9675786
6.1773243 -1.4117786 -1.9685371
6.2104297 -1.2625195 -1.9688052
6.2655468 -0.96170956 -1.9692641
6.287539 -0.81035948 -1.9694544
6.3057809 -0.65848511 -1.9696184
6.3202929 -0.50621033 -1.9697562
6.3310156 -0.35361388 -1.9698675
6.3405857 0.10516235 -1.9700418
6.3161521 0.56340027 -1.9699759
6.300488 0.71559018 -1.969901
6.2810545 0.86732972 -1.9697992
6.2578907 1.0185333 -1.969671
6.2309961 1.1691235 -1.9695164
6.2004099 1.318977 -1.9693354
6.1661716 1.4680145 -1.9691285
6.128242 1.616159 -1.9688956
6.0866599 1.7632916 -1.9686363
6.0414453 1.9093347 -1.9683514
5.9926758 2.054209 -1.9680411
5.8845506 2.340039 -1.9673449
5.7624803 2.6200964 -1.9665487
5.6963282 2.7577496 -1.9661144
5.5540428 3.0278466 -1.9651735
5.3986912 3.2904913 -1.9641387
5.1420898 3.669071 -1.9624166
5.0504684 3.7908545 -1.9617987
4.4414258 4.4703159 -1.9576604
4.1383982 4.5882421 -1.9195467
3.4449804 4.651926 -1.7982693
3.3303709 4.7315965 -1.7974795
3.213496 4.8084006 -1.7966728
3.0951562 4.8823009 -1.7958554
2.9751172 4.953258 -1.795025
2.8534179 5.0212317 -1.7941824
2.7301562 5.0861816 -1.7933278
2.6053905 5.1480808 -1.7924621
2.3517382 5.2625766 -1.7906992
1.9620117 5.4106517 -1.7879844
1.8299804 5.4535971 -1.787063
1.5631444 5.5297375 -1.7851985
1.4285156 5.5629029 -1.7842566
1.0208398 5.6425953 -1.781399
0.74669921 5.6791196 -1.7794737
0.60917968 5.6923862 -1.7785068
-0.21765624 5.7019591 -1.7726759
-0.35498047 5.6919274 -1.771705
-0.49189451 5.6786008 -1.7707361
-0.62839842 5.6619859 -1.7697692
-0.76443356 5.6421056 -1.7688049
-0.8998242 5.6189637 -1.7678442
-1.0345508 5.5925965 -1.7668879
-1.1685547 5.5630102 -1.7659357
-1.3016992 5.5302343 -1.7649888
-1.4339648 5.4942908 -1.7640471
-1.6955469 5.4129977 -1.7621832
-1.8246875 5.3677135 -1.7612615
-1.9526367 5.3193698 -1.7603476
-2.2046485 5.2136488 -1.7585452
-2.3286133 5.1563368 -1.7576574
-2.4511328 5.0961132 -1.7567792
-3.4281054 4.5915647 -1.7801416
-3.7757616 4.5787439 -1.8437124
-3.9591014 4.5716944 -1.8787985
-4.2145309 4.416831 -1.8965847
-4.3181248 4.3121448 -1.8958297
-4.6134181 3.9840381 -1.8936703
-4.9689646 3.5160997 -1.8910531
-5.2053709 3.1446326 -1.8892989
-5.4146681 2.7576685 -1.8877325
-5.4782224 2.6255658 -1.8872534
-5.5386329 2.4920435 -1.8867962
-5.5958395 2.3571587 -1.886361
-5.7481251 1.9451056 -1.885191
-5.792285 1.8055328 -1.8848469
-5.9631248 1.0945685 -1.8834763
-5.9871287 0.95027465 -1.8832732
-6.0387106 0.51468563 -1.8828082
-6.0490427 0.36883849 -1.8827013
-6.0558786 0.22279358 -1.882619
-6.0593162 0.076622315 -1.8825607
-6.0592771 -0.069572754 -1.8825271
-6.0558395 -0.21572326 -1.8825172
-6.0489063 -0.36176696 -1.882532
-5.9628124 -1.0873352 -1.8829706
-5.9353318 -1.2309686 -1.883131
-5.9044724 -1.37393 -1.8833154
-5.8702731 -1.5161468 -1.8835235
-5.7476172 -1.9374899 -1.8842911
-5.6493554 -2.2131989 -1.8849196
-5.538125 -2.4840722 -1.8856415
-5.4777341 -2.6175005 -1.8860363
-5.4141989 -2.7495029 -1.8864539
-5.3475389 -2.8799868 -1.8868937
-5.2777929 -3.0088828 -1.8873556
-5.205039 -3.1361501 -1.8878394
-5.1291795 -3.2616756 -1.8883451
-4.96875 -3.5072834 -1.8894198
-4.88416 -3.627219 -1.8899887
-4.7064843 -3.8610349 -1.8911877
-4.6135154 -3.9747725 -1.891817
-4.4194727 -4.1955991 -1.8931345
-4.318574 -4.3025599 -1.8938214
-4.2150974 -4.407125 -1.8945271
-3.8898828 -4.7059431 -1.8967516
-3.6614063 -4.892127 -1.89832
-3.5437889 -4.9811611 -1.899129
-3.424082 -5.0674 -1.8999536
-3.178535 -5.2313256 -1.9016476
-2.7957811 -5.4550772 -1.9042956
-2.6646483 -5.5235753 -1.9052048
-2.3974218 -5.6511731 -1.9070601
-2.1241796 -5.7659702 -1.9089609
-1.3902929 -5.8760009 -1.8758575
-0.94863278 -5.8800311 -1.8503276
-0.80378902 -5.8810129 -1.8439966
-0.65974605 -5.8818197 -1.8387213
-0.23148437 -5.8832083 -1.8291072
0.052578125 -5.8832865 -1.8277897
0.33675781 -5.8826914 -1.8305236
0.62244141 -5.8814163 -1.8373392
0.76623046 -5.8805199 -1.8422989
1.0564258 -5.8781967 -1.8553919
1.6522851 -5.8713336 -1.8948544
1.8056054 -5.8691287 -1.9076504
1.9609179 -5.866715 -1.9216876
2.4038866 -5.766644 -1.9409039
2.8189647 -5.5862265 -1.9438739
3.0881641 -5.4491687 -1.945805
3.3506639 -5.2990036 -1.9476916
3.6058006 -5.1360483 -1.9495295
3.9731445 -4.8684697 -1.9521831
4.3203907 -4.5742817 -1.9547013
4.7486525 -4.14329 -1.9578227
5.0413475 -3.7932005 -1.9599692
5.1331639 -3.6717482 -1.9606451
5.221992 -3.5480337 -1.9613005
5.4700193 -3.164052 -1.9631397
5.5463672 -3.0320544 -1.9637088
5.6194725 -2.8981795 -1.9642557
5.818789 -2.4860942 -1.9657577
5.9872851 -2.0601525 -1.9670454
6.081953 -1.7696021 -1.9677811
6.1238866 -1.622641 -1.9681108
6.1622262 -1.4746667 -1.9684156
6.2985544 -0.72279173 -1.9695525
6.3355274 -0.26546997 -1.9699198
6.3385153 0.19341552 -1.9700476
6.3075585 0.65124208 -1.9699359
6.2897067 0.8032043 -1.9698454
6.2681446 0.95464534 -1.9697285
6.2428317 1.1054993 -1.9695851
6.2138085 1.2556714 -1.9694154
6.1811132 1.4050647 -1.9692194
6.1046286 1.7011834 -1.9687486
6.0609961 1.8476983 -1.9684749
5.9629297 2.1372125 -1.9678506
5.9085741 2.2800317 -1.9675002
5.8507419 2.4214416 -1.9671255
5.7894335 2.5613823 -1.9667255
5.7247458 2.6997199 -1.9663013
5.6567187 2.8363903 -1.9658531
5.5105271 3.1043994 -1.9648843
5.2672458 3.4918957 -1.9632583
5.0896091 3.7396104 -1.9620628
4.9962692 3.8600609 -1.9614325
4.9000583 3.978169 -1.9607812
4.6992383 4.2069578 -1.9594177
4.5946875 4.3175254 -1.9587059
4.3777928 4.5306931 -1.9572254
4.2215233 4.5853882 -1.9362758
3.8403709 4.598175 -1.8611922
3.378828 4.6982298 -1.7978134
3.2630272 4.7762632 -1.7970151
2.6583397 5.1222644 -1.7928295
2.5327735 5.1823902 -1.7919576
1.8859375 5.4358239 -1.7874539
1.7533202 5.4769006 -1.7865279
1.6198633 5.5147228 -1.7855951
1.3505664 5.5805392 -1.7837106
0.94191402 5.6545005 -1.7808452
0.80480468 5.6725011 -1.779882
0.39183593 5.7065234 -1.7769767
-0.021875 5.710526 -1.7740593
-0.15947266 5.7052088 -1.7730871
-0.29691404 5.6965771 -1.7721157
-0.43400389 5.6846409 -1.7711456
-0.57070309 5.669415 -1.7701777
-0.97763669 5.6041441 -1.767292
-1.1119531 5.5759177 -1.7663379
-1.2454296 5.5444899 -1.7653887
-1.7701757 5.3872471 -1.7616506
-2.1517773 5.2369995 -1.7589234
-2.2763867 5.1809421 -1.7580316
-2.3994727 5.1219468 -1.7571495
-2.5210547 5.0600572 -1.7562774
-2.6411133 4.995316 -1.7554153
-2.7595313 4.9277439 -1.7545642
-2.8762305 4.8574157 -1.7537246
-2.9911523 4.7843518 -1.7528967
-3.1040819 4.7086105 -1.7520828
-3.5259373 4.5880322 -1.7976289
-3.7001758 4.5815954 -1.8295584
-3.8806834 4.5747328 -1.8636721
-4.0627537 4.5615516 -1.8976892
-4.1699219 4.4603891 -1.8969097
-4.2745895 4.3567395 -1.8961471
-4.3767381 4.2506604 -1.8954018
-4.4763083 4.1422496 -1.8946743
-4.5731835 4.0315466 -1.8939651
-4.7589064 3.8035362 -1.8926018
-4.8476367 3.6863537 -1.8919488
-4.9335155 3.5671191 -1.891315
-5.0965624 3.3228905 -1.890108
-5.3188477 2.9430218 -1.8884515
-5.3868551 2.8130939 -1.8879416
-5.5134764 2.5487049 -1.8869869
-5.6795506 2.141861 -1.8857205
-5.7284179 2.0038249 -1.8853436
-5.8552341 1.5834955 -1.8843511
-5.8908396 1.4415411 -1.8840671
-5.9231052 1.298833 -1.8838061
-6.0522461 -0.30001646 -1.8825228
-6.0310154 -0.59161437 -1.8826048
-5.9960155 -0.88190979 -1.8827841
-5.9733982 -1.0263946 -1.8829101
-5.9473438 -1.1702905 -1.8830602
-5.9179492 -1.3135461 -1.8832345
-5.8851757 -1.456076 -1.8834326
-5.7206249 -2.0174932 -1.8844627
-5.5627341 -2.427207 -1.8854809
-5.4414454 -2.6938481 -1.8862746
-5.3761325 -2.8249812 -1.8867048
-5.3076758 -2.9545593 -1.8871576
-5.0841208 -3.3333035 -1.8886466
-5.0036716 -3.4559686 -1.8891854
-4.8340235 -3.695518 -1.8903264
-4.7449999 -3.8122692 -1.8909272
-4.6531639 -3.9269159 -1.8915484
-4.4613867 -4.1496572 -1.8928493
-4.3615623 -4.257606 -1.8935287
-4.1542382 -4.4663558 -1.8949426
-3.5938084 -4.9438329 -1.8987849
-3.4749999 -5.0312548 -1.8996028
-2.5882225 -5.5616717 -1.9057351
-2.1824608 -5.742774 -1.9085553
-2.0442967 -5.7966704 -1.9095173
-1.6044922 -5.873497 -1.8915347
-1.4536133 -5.8752975 -1.8802704
-1.3043945 -5.876905 -1.8701675
-1.1566796 -5.878325 -1.8611948
-1.0102344 -5.8795629 -1.8533282
-0.5770117 -5.8822069 -1.8361526
-0.43404296 -5.8827415 -1.8325158
-0.0074804686 -5.8833261 -1.8277311
0.27658203 -5.882874 -1.8296069
0.4190039 -5.8823938 -1.832069
0.56183594 -5.8817425 -1.8355541
0.99470699 -5.8787475 -1.852265
1.140957 -5.8773923 -1.8599709
1.2884766 -5.8758531 -1.8687799
1.4374804 -5.8741264 -1.8787161
1.5880663 -5.8722062 -1.8898066
1.8949218 -5.8677621 -1.9155955
2.0516992 -5.8652258 -1.9303689
2.2028124 -5.841434 -1.9394679
2.3444335 -5.7896042 -1.9404793
2.4847264 -5.7343144 -1.9414816
2.7611914 -5.6135092 -1.9434602
3.1642382 -5.4071789 -1.9463513
3.4250586 -5.2532773 -1.9482272
3.5525 -5.1715565 -1.9491452
3.6779101 -5.0867162 -1.9500494
3.8012891 -4.9987922 -1.9509405
4.0416017 -4.8138952 -1.9526788
4.15834 -4.7170367 -1.9535247
4.6010547 -4.3014936 -1.9567448
4.8068943 -4.0776715 -1.9582489
5.0016403 -3.8438756 -1.9596771
5.0946679 -3.7234001 -1.9603612
5.1847653 -3.6006353 -1.9610256
5.2718749 -3.4756277 -1.9616691
5.3559179 -3.3485045 -1.9622917
5.4367967 -3.2193072 -1.9628921
5.5889454 -2.9550302 -1.964027
5.7280469 -2.6834178 -1.9650717
5.9112887 -2.2637753 -1.9664619
5.9654298 -2.1209645 -1.9668771
6.0160546 -1.9768029 -1.9672679
6.063086 -1.8314395 -1.9676334
6.1066208 -1.6849328 -1.9679745
6.1464257 -1.5373766 -1.9682896
6.2151756 -1.2394732 -1.9688441
6.2440429 -1.0892829 -1.9690826
6.2691989 -0.93843991 -1.9692953
6.3221679 -0.48274109 -1.9697748
6.3387303 -0.17722961 -1.9699628
6.3413281 -0.024265746 -1.9700168
6.3401561 0.1287207 -1.9700443
6.3351951 0.28163025 -1.9700449
6.3264647 0.43437254 -1.9700187
6.3139648 0.58684754 -1.9699661
6.2777343 0.89065307 -1.9697812
6.2539845 1.0417663 -1.969649
6.1605663 1.4909027 -1.9690944
6.1220312 1.6388879 -1.968857
5.9848633 2.0763965 -1.9679911
5.8756051 2.3618267 -1.9672869
5.8158007 2.5023875 -1.9668977
5.4659762 3.1803527 -1.9645877
5.3861718 3.3103893 -1.9640549
5.3032813 3.4383898 -1.9635
5.1281638 3.6879649 -1.9623228
4.9411325 3.9285119 -1.9610592
4.8432617 4.0451999 -1.9603962
4.7426367 4.1594152 -1.9597127
4.6392384 4.2710767 -1.9590094
4.306035 4.5824485 -1.9534895
3.7358398 4.6015453 -1.8413273
3.5620117 4.6104088 -1.8099526
3.4275196 4.6643896 -1.7981491
3.19541 4.8199692 -1.7965478
2.5859962 5.15734 -1.7923275
2.0729492 5.3717957 -1.7887582
1.6764257 5.4991236 -1.7859904
1.5424609 5.5350561 -1.785054
1.4077344 5.5677123 -1.784111
1.2723438 5.5970764 -1.7831628
1.1363281 5.6231384 -1.7822092
0.86283201 5.6652927 -1.7802898
0.7255078 5.6813793 -1.7793248
0.58792967 5.6941271 -1.7783571
0.17431641 5.7123666 -1.7754437
-0.10128906 5.7078648 -1.7734982
-0.23880859 5.7006321 -1.7725265
-0.64941406 5.6591392 -1.7696203
-0.78531247 5.6387534 -1.7686567
-0.92056638 5.6151209 -1.7676971
-1.0552148 5.5882516 -1.766741
-1.1891406 5.5581689 -1.7657893
-1.4542577 5.4884739 -1.7639025
-1.7154882 5.4062257 -1.762041
-2.0987108 5.2598252 -1.7593032
-2.4698045 5.086587 -1.7566448
-2.8270702 4.8874989 -1.7540785
-3.2921875 4.6025853 -1.7579864
-3.9880078 4.5705676 -1.8844082
-4.2306442 4.4008775 -1.8964676
-4.4344921 4.1883936 -1.89498
-4.7205467 3.8524742 -1.8928839
-4.9817381 3.4974425 -1.8909585
-5.0630469 3.3751683 -1.8903564
-5.3584766 2.868247 -1.8881545
-5.4246678 2.7374229 -1.8876572
-5.4877343 2.6051037 -1.8871814
-5.5476365 2.471369 -1.8867277
-5.7081246 2.0623541 -1.8855004
-5.83916 1.6432781 -1.8844784
-5.8762107 1.5017016 -1.8841842
-5.9098825 1.3592889 -1.8839135
-5.9401169 1.2161658 -1.8836666
-5.9670506 1.0723834 -1.8834432
-6.0273046 0.63788509 -1.8829172
-6.0366211 -0.53003049 -1.8825796
-6.00457 -0.82065368 -1.882738
-5.8994336 -1.3958832 -1.883346
-5.864707 -1.5379633 -1.8835577
-5.6924996 -2.0971315 -1.8846422
-5.6412301 -2.2342379 -1.8849722
-5.5290623 -2.5047009 -1.8857005
-5.468164 -2.6379125 -1.8860991
-5.4041405 -2.7697015 -1.8865204
-5.3370118 -2.8999443 -1.8869635
-4.8708787 -3.6455133 -1.8900782
-4.6923437 -3.8786821 -1.8912833
-4.5989451 -3.9920897 -1.8919158
-4.302793 -4.3188205 -1.8939289
-4.0925779 -4.5247583 -1.8953639
-3.75916 -4.8146777 -1.8976486
-3.1592968 -5.2434678 -1.9017805
-3.0332615 -5.32059 -1.9026517
-2.775703 -5.4658227 -1.9044348
-2.376621 -5.660471 -1.9072047
-2.2404492 -5.7189932 -1.9081516
-1.9640039 -5.8262763 -1.910077
-1.8224218 -5.8705931 -1.9096328
-1.6688671 -5.8726768 -1.8966585
-1.5172266 -5.8745594 -1.8848921
-1.3673632 -5.8762479 -1.8743008
-1.2190235 -5.8777471 -1.864853
-1.0720702 -5.8790612 -1.8565222
-0.92626953 -5.8801947 -1.849283
-0.78150392 -5.8811493 -1.8431143
-0.63763672 -5.8819284 -1.8380016
-0.4944531 -5.8825359 -1.8339294
-0.35183594 -5.8829718 -1.8308849
-0.20960937 -5.8832378 -1.828861
-0.067578122 -5.8833361 -1.8278525
0.21642578 -5.8830252 -1.8288729
0.50130856 -5.8820386 -1.8339547
0.78837889 -5.8803654 -1.843155
0.93318355 -5.8792663 -1.8493313
1.0789648 -5.8779874 -1.8565789
1.5241406 -5.8730426 -1.8849725
1.6757812 -5.8710084 -1.8967456
1.8293945 -5.8687706 -1.9097314
1.9851172 -5.8663249 -1.9239624
2.1427147 -5.8623133 -1.939039
2.9750781 -5.5087576 -1.9449933
3.1086524 -5.4380674 -1.9459521
3.370625 -5.2868919 -1.9478352
3.4988475 -5.2065086 -1.9487585
3.625078 -5.122982 -1.9496685
3.7493358 -5.036355 -1.9505653
3.8715038 -4.9466791 -1.951448
3.9914649 -4.854003 -1.9523158
4.1092381 -4.7583609 -1.9531689
4.224668 -4.6598434 -1.954006
4.3376365 -4.5584865 -1.9548266
4.5561719 -4.347497 -1.9564174
4.6615624 -4.2379847 -1.9571863
4.8642774 -4.0112228 -1.9586691
4.9614062 -3.8941295 -1.9593817
5.320703 -3.4025297 -1.9620306
5.4029493 -3.2742028 -1.9626406
5.4819531 -3.1438503 -1.9632285
5.6304688 -2.8774011 -1.9643381
5.699707 -2.7414651 -1.9648581
5.8281837 -2.4645486 -1.965829
6.2322655 -1.1529181 -1.968985
6.2590232 -1.0023242 -1.9692086
6.30125 -0.69939083 -1.969577
6.3167381 -0.54721802 -1.9697218
6.3284764 -0.39469969 -1.96984
6.3364649 -0.24192932 -1.969932
6.3406639 -0.088975824 -1.969997
6.3377342 0.21696533 -1.9700476
6.3306055 0.36979002 -1.9700329
6.3197069 0.52238953 -1.9699916
6.2866602 0.82656246 -1.9698292
6.2386131 1.1286731 -1.9695606
6.1757421 1.4279981 -1.9691867
6.0981641 1.7238214 -1.9687083
6.0539451 1.8701642 -1.9684304
5.8999023 2.301903 -1.9674443
5.779707 2.5827935 -1.9666618
5.6458983 2.857285 -1.9657818
5.4203124 3.2556293 -1.9642831
5.3386912 3.3845007 -1.9637372
5.2539845 3.5112853 -1.9631692
5.1662107 3.6359155 -1.9625791
4.9816208 3.8784044 -1.9613333
-0.071230464 -5.7320547 -1.9234515
0.067187496 -5.7350116 -1.924427
0.34404296 -5.7309136 -1.9263812
0.4824414 -5.7238488 -1.9273592
0.62072265 -5.7134433 -1.9283371
1.0338477 -5.6621747 -1.9312632
1.1707226 -5.6384225 -1.9322344
1.4427929 -5.5809636 -1.934167
1.5777539 -5.547286 -1.9351269
1.7119726 -5.5103292 -1.9360824
1.9776952 -5.4266419 -1.9379764
2.1090624 -5.3799567 -1.9389142
2.6226172 -5.161458 -1.9425879
2.7476366 -5.09904 -1.9434842
2.8711522 -5.0335641 -1.944371
3.3487303 -4.7418551 -1.9478076
3.5765624 -4.5786753 -1.9494529
3.9030664 -4.3132639 -1.9518179
4.109746 -4.1231518 -1.9533203
4.20959 -4.0243068 -1.9540476
4.3069725 -3.9230065 -1.9547583
4.4019337 -3.8193164 -1.9554522
4.4943357 -3.7132928 -1.9561288
4.9163475 -3.1504552 -1.9592367
4.992363 -3.0318007 -1.9598007
5.0654688 -2.9112885 -1.9603443
5.1355858 -2.7889843 -1.9608675
5.2667966 -2.5392971 -1.9618511
5.327754 -2.4120648 -1.962311
5.3855858 -2.283344 -1.9627489
5.4402733 -2.1532128 -1.9631648
5.4917188 -2.0217476 -1.9635584
5.5399218 -1.8890328 -1.9639294
5.5848827 -1.7551452 -1.9642777
5.6265626 -1.6201739 -1.9646032
5.7595897 -1.0710583 -1.9656695
5.8057032 -0.7921533 -1.9660596
5.8236132 -0.6519171 -1.9662185
5.838027 -0.51126832 -1.9663529
5.8489647 -0.37030089 -1.9664631
5.8564649 -0.22909911 -1.9665489
5.8609762 0.053658444 -1.9666464
5.8515625 0.33629942 -1.9666457
5.8416405 0.47736081 -1.9666089
5.8282809 0.61812621 -1.9665473
5.8114061 0.75851864 -1.9664607
5.7910938 0.89844543 -1.9663501
5.6755662 1.4517705 -1.965664
5.3450389 2.3825305 -1.9635489
5.2217774 2.6364887 -1.9627384
5.1554685 2.761076 -1.9622997
4.9386716 3.1243749 -1.9608548
4.695879 3.4704528 -1.9592226
4.6093946 3.5816553 -1.9586383
4.4284959 3.7974486 -1.9574125
4.334199 3.9018993 -1.9567716
4.2373829 4.0039706 -1.9561123
3.932539 4.2953467 -1.9540297
3.8263085 4.3873324 -1.9533018
2.4460156 4.7451901 -1.7912441
2.3297069 4.8006482 -1.7904364
2.0934961 4.9029331 -1.7887939
1.8528711 4.9935169 -1.7871176
1.4847461 5.1070762 -1.7845471
1.3604296 5.138905 -1.7836775
1.2354296 5.1676917 -1.7828023
1.1098633 5.193429 -1.7819226
0.85722655 5.2357068 -1.7801501
0.73029298 5.2522287 -1.7792585
0.60308594 5.2656689 -1.7783642
0.47564453 5.2760253 -1.7774676
0.34802735 5.2832947 -1.776569
0.22037108 5.2874742 -1.7756696
0.092695311 5.2885656 -1.7747691
-0.41646484 5.2621994 -1.7711712
-0.54302734 5.2479639 -1.7702749
-0.79472655 5.2104015 -1.7684906
-0.9197461 5.1871128 -1.7676033
-1.2905273 5.0993991 -1.7649673
-1.533496 5.0262766 -1.7632362
-1.653496 4.9854002 -1.76238
-1.8902148 4.8951392 -1.7606893
-2.0067968 4.8458176 -1.7598553
-2.2358203 4.738955 -1.7582147
-2.4594727 4.6213512 -1.7566096
-3.0382226 4.5808167 -1.8443798
-3.3585742 4.5688782 -1.9026587
-3.6757617 4.3088207 -1.9003603
-3.8763084 4.1233363 -1.8989024
-3.973242 4.0271239 -1.8981963
-4.0677538 3.9286706 -1.8975067
-4.3366795 3.6204565 -1.8955379
-4.4213085 3.5136254 -1.8949159
-4.5033593 3.4048533 -1.8943118
-4.5827732 3.2942047 -1.8937259
-4.659492 3.1817377 -1.8931583
-4.7335157 3.0675108 -1.8926097
-5.0017967 2.5943737 -1.890607
-5.0616989 2.4723625 -1.890156
-5.1187305 2.3489923 -1.889725
-5.1727929 2.2243433 -1.8893145
-5.2238865 2.0984728 -1.8889248
-5.2718945 1.9714532 -1.8885565
-5.3589845 1.7142584 -1.8878824
-5.3979297 1.5842217 -1.8875774
-5.4337301 1.4533148 -1.8872943
-5.4664063 1.3216271 -1.887033
-5.5225 1.0561553 -1.8865756
-5.5966406 0.51892757 -1.8859276
-5.6072068 0.38373169 -1.8858215
-5.6146092 0.24833983 -1.8857379
-5.6187692 0.1128186 -1.8856769
-5.6174998 -0.15833373 -1.8856229
-5.6120896 -0.29380491 -1.8856294
-5.5916014 -0.56419188 -1.8857111
-5.5766015 -0.69895262 -1.8857855
-5.4848046 -1.2333935 -1.8863086
-5.4200974 -1.4968292 -1.8867037
-5.3429489 -1.7569714 -1.8871875
-5.2997656 -1.8856295 -1.8874621
-5.1521287 -2.2650957 -1.8884155
-4.9778514 -2.6333573 -1.889559
-4.7777343 -2.9885473 -1.890888
-4.7054687 -3.1037316 -1.8913711
-4.5527539 -3.3288872 -1.8923962
-4.1253319 -3.8584642 -1.895288
-3.9370897 -4.0557041 -1.8965701
-3.7395117 -4.2439094 -1.8979199
-3.0953906 -4.7500238 -1.9023461
-2.8650584 -4.8978915 -1.9039364
-2.2598047 -5.2185612 -1.9081317
-2.1342382 -5.2739692 -1.9090044
-2.0072851 -5.3263845 -1.9098879
-1.7496679 -5.4220991 -1.911683
-1.6191602 -5.4653354 -1.9125936
-0.81619138 -5.6583185 -1.9182131
-0.54287106 -5.6967998 -1.9201324
-0.40546873 -5.7111073 -1.9210982
-0.26769531 -5.7221122 -1.9220676
0.56226563 -5.718255 -1.9279232
0.83826172 -5.690238 -1.9298769
1.1128906 -5.6488743 -1.931824
1.2494335 -5.6232014 -1.9327933
1.6553124 -5.5263629 -1.935679
2.0536132 -5.4000988 -1.9385182
2.5692968 -5.186934 -1.9422058
2.6949022 -5.1258183 -1.9431061
2.8191211 -5.0616341 -1.9439971
3.0626953 -4.9241896 -1.9457476
3.2995703 -4.7749085 -1.9474533
3.6408398 -4.5295229 -1.9499179
3.9636133 -4.2594724 -1.9522576
4.0667968 -4.1642122 -1.9530076
4.1676173 -4.0664191 -1.9537417
4.2660742 -3.9661498 -1.9544597
4.3620896 -3.8634689 -1.955161
4.455586 -3.7584236 -1.9558449
4.546504 -3.6510823 -1.9565111
4.7203708 -3.4297783 -1.9577893
4.8032618 -3.3159368 -1.9584005
5.0348825 -2.962492 -1.9601169
5.1062889 -2.8409393 -1.9606488
5.1746874 -2.7176268 -1.9611599
5.2400389 -2.5926516 -1.96165
5.4175196 -2.2084262 -1.9629916
5.5199413 -1.945318 -1.9637753
5.7743163 -0.99083799 -1.9657919
5.832324 -0.57081056 -1.9662991
5.8537107 -0.28885069 -1.9665154
5.8597069 0.13524231 -1.9666564
5.8547459 0.27656004 -1.9666543
5.8462892 0.41771787 -1.9666275
5.8189454 0.69918031 -1.9665002
5.8000975 0.83931458 -1.9663998
5.7778125 0.97893554 -1.966275
5.7229295 1.2562786 -1.9659525
5.690371 1.3938366 -1.965755
5.6544724 1.5305309 -1.9655334
5.6151757 1.666289 -1.9652879
5.52666 1.9346417 -1.9647259
5.3107615 2.4564264 -1.9633242
5.2488866 2.5832939 -1.9629173
5.0448046 2.9540746 -1.9615639
4.8939452 3.1923344 -1.9605552
4.814199 3.3085606 -1.9600196
4.3743749 3.8580029 -1.9570448
4.2786522 3.9610875 -1.9563934
4.1803708 4.0617638 -1.9557235
3.8715234 4.3487425 -1.9536117
3.7640624 4.4392028 -1.9528747
3.520371 4.5827966 -1.9389993
3.1884375 4.5934558 -1.8761767
2.8761523 4.6027341 -1.8211126
2.7307811 4.614099 -1.7990131
2.3790429 4.777534 -1.7907791
2.0245311 4.9302735 -1.7883137
1.6603124 5.0565758 -1.7857739
1.5371094 5.0927048 -1.7849132
1.2884179 5.1558847 -1.7831732
0.9108398 5.2277904 -1.7805265
0.78404295 5.245615 -1.7796361
0.52957028 5.2720251 -1.7778473
0.40203124 5.280592 -1.7769494
0.14667968 5.2884779 -1.7751501
0.01908203 5.2877927 -1.7742497
-0.23578124 5.2771945 -1.7724493
-0.61585939 5.238369 -1.7697591
-0.74167967 5.2193527 -1.768867
-0.99158204 5.1723084 -1.7670932
-1.2386719 5.1133728 -1.7653363
-1.4824023 5.0427122 -1.7636002
-1.602832 5.0030456 -1.7627416
-1.8405468 4.9151659 -1.7610443
-2.0734961 4.8161073 -1.759378
-2.1880662 4.7624574 -1.7585571
-2.300957 4.7061181 -1.7577474
-2.533457 4.6039577 -1.7632312
-2.6739647 4.5932236 -1.7833121
-3.1287889 4.5775709 -1.8604318
-3.5276756 4.4349585 -1.9014345
-4.0280075 3.9705908 -1.8977968
-4.1212111 3.8708642 -1.8971161
-4.2118554 3.7690015 -1.8964529
-4.3001366 3.6650438 -1.895806
-4.3858204 3.5590527 -1.8951768
-4.4689841 3.4511011 -1.8945651
-4.5495114 3.3412414 -1.8939716
-4.7025585 3.1160393 -1.8928394
-4.7750001 3.0008361 -1.8923016
-4.9755859 2.6455657 -1.8908038
-5.0367384 2.5241411 -1.8903441
-5.0949802 2.4013453 -1.8899047
-5.2026367 2.1518567 -1.8890872
-5.2983007 1.8976746 -1.8883532
-5.3818164 1.6393378 -1.8877038
-5.4838867 1.2453119 -1.8868921
-5.5116796 1.1125103 -1.8866651
-5.5760937 0.71079469 -1.8861172
-5.5912108 0.57603329 -1.8859791
-5.6031442 0.44095457 -1.8858637
-5.611836 0.30563048 -1.8857707
-5.6197267 0.034590453 -1.8856518
-5.6188278 -0.1009967 -1.8856268
-5.6074805 -0.37190306 -1.8856437
-5.4347849 -1.441364 -1.8866131
-5.3183985 -1.8313287 -1.8873434
-5.2255468 -2.0863853 -1.8879391
-5.1206641 -2.3368511 -1.8886206
-5.0637889 -2.4601984 -1.8889931
-4.8758202 -2.8218112 -1.8902349
-4.7363868 -3.0552187 -1.8911645
-4.2533984 -3.712888 -1.8944182
-4.1639061 -3.81564 -1.8950258
-3.9776757 -4.01473 -1.8962932
-3.6808593 -4.2964673 -1.8983215
-3.4719725 -4.4723825 -1.8997543
-3.254746 -4.6382866 -1.9012479
-3.029707 -4.7937937 -1.9027991
-2.9144139 -4.8675222 -1.9035953
-2.7973242 -4.9385095 -1.9044049
-2.4360352 -5.1346154 -1.9069079
-2.3125 -5.194232 -1.9077655
-1.4111524 -5.5271654 -1.9140466
-1.0092187 -5.6229978 -1.9168597
-0.87369138 -5.6485085 -1.9178098
-0.73757809 -5.6707654 -1.9187649
-0.32603514 -5.7178612 -1.9216571
-0.049882811 -5.7327294 -1.9236017
0.77998048 -5.6972771 -1.9294641
0.91765624 -5.6796708 -1.9304396
1.4635937 -5.575995 -1.934315
1.5984961 -5.5418096 -1.9352746
1.7325586 -5.5043492 -1.9362292
1.998125 -5.419663 -1.9381222
2.1291993 -5.372479 -1.9390578
2.2592578 -5.3220997 -1.9399872
2.3881249 -5.2685523 -1.9409088
2.5157616 -5.2118573 -1.9418222
2.6419725 -5.1520448 -1.9427264
2.7667382 -5.0891547 -1.9436212
2.8900194 -5.0232153 -1.9445062
3.0117383 -4.9542575 -1.9453809
3.1317577 -4.8823247 -1.9462445
3.2500391 -4.8074608 -1.9470962
3.3665624 -4.7296925 -1.9479364
3.5937696 -4.56565 -1.9495773
3.7043943 -4.479455 -1.9503778
3.8129492 -4.3905573 -1.9511642
4.1252341 -4.1080952 -1.953433
4.2247267 -4.0088725 -1.9541579
4.3217382 -3.9071956 -1.9548662
4.5083594 -3.6967721 -1.9562316
4.6844921 -3.477309 -1.9575251
4.8498044 -3.2493219 -1.9587444
4.9282422 -3.1323099 -1.959325
5.0037889 -3.0133605 -1.9598855
5.2127538 -2.6457143 -1.9614452
5.54707 -1.8684894 -1.9639846
5.5915427 -1.7344347 -1.9643295
5.6326561 -1.5993036 -1.9646509
5.6704493 -1.4631671 -1.9649493
5.7048826 -1.3261346 -1.9652241
5.7359958 -1.188277 -1.9654757
5.7636328 -1.0496662 -1.9657029
5.7878904 -0.91041565 -1.9659064
5.8260546 -0.63028198 -1.9662408
5.8607812 0.075422361 -1.9666502
5.8085155 0.78009278 -1.9664454
5.7876368 0.9199475 -1.9663306
5.6700583 1.472821 -1.9656298
5.5909958 1.7441632 -1.9651355
5.546504 1.8782605 -1.9648527
5.4987497 2.0112031 -1.9645468
5.3359766 2.402293 -1.9634895
5.2754297 2.5298193 -1.963092
5.145 2.7801044 -1.9622302
5.0024805 3.0235791 -1.9612815
4.926836 3.1425695 -1.9607754
4.8482618 3.2596393 -1.9602487
4.7668943 3.3747082 -1.9597012
4.5958591 3.5985899 -1.9585468
4.5063281 3.707263 -1.9579406
4.4141407 3.8136778 -1.957315
4.3194141 3.9177721 -1.9566711
4.1226172 4.1187305 -1.9553294
3.9163084 4.3096766 -1.9539186
3.7010741 4.4901719 -1.9524423
3.4224608 4.5860229 -1.9200174
3.0965819 4.5962672 -1.859538
2.9407032 4.6008787 -1.8321577
2.7901952 4.6065502 -1.8070773
2.6569726 4.6353602 -1.7927066
2.5434961 4.6960473 -1.7919202
2.0751367 4.9103222 -1.7886662
1.8341601 5.0000024 -1.7869869
1.712168 5.0403905 -1.7861358
1.5893164 5.0777893 -1.785278
1.4656054 5.1121778 -1.7844131
1.0904883 5.1971202 -1.7817868
0.96435547 5.2193189 -1.780902
0.8376953 5.2384472 -1.7800131
0.71072263 5.2544994 -1.779121
0.58345699 5.2674656 -1.7782263
0.32835937 5.2841368 -1.7764305
0.20070311 5.2878404 -1.7755309
-0.054550782 5.2859983 -1.7737297
-0.18195312 5.2804627 -1.7728299
-0.43599609 5.2602048 -1.7710328
-0.5624609 5.2455015 -1.7701373
-0.81402344 5.2070141 -1.7683537
-1.1866796 5.1268234 -1.7657062
-1.5520117 5.0201697 -1.7631042
-1.6718554 4.9788561 -1.7622491
-1.7906445 4.9346957 -1.7614007
-1.9082421 4.8877258 -1.7605603
-2.2533398 4.7302771 -1.7580889
-2.7586522 4.5904408 -1.7969676
-2.9083593 4.5853662 -1.8219268
-3.0622852 4.5799623 -1.8486029
-3.2207422 4.5742054 -1.8771026
-3.7925975 4.2029443 -1.8995117
-4.0820704 3.9133191 -1.8974022
-4.2631054 3.70927 -1.8960775
-4.3498631 3.6041393 -1.8954413
-4.5157619 3.3879395 -1.8942206
-4.7446876 3.0497723 -1.8925269
-4.815547 2.9336071 -1.892
-4.8836131 2.815819 -1.8914922
-5.0706639 2.4534521 -1.8900882
-5.1272459 2.3298852 -1.8896605
-5.18082 2.2050438 -1.8892535
-5.2314453 2.078985 -1.888867
-5.2790623 1.9517993 -1.8885015
-5.3236523 1.8235503 -1.888157
-5.4036326 1.5641198 -1.8875325
-5.4389648 1.4330975 -1.8872528
-5.5003319 1.1687677 -1.8867583
-5.5263085 1.0356091 -1.886544
-5.5490818 0.90190184 -1.8863522
-5.5687499 0.76770324 -1.8861823
-5.5984764 0.49812561 -1.8859097
-5.6085348 0.36290467 -1.8858074
-5.615449 0.22747619 -1.885727
-5.6191406 0.09194275 -1.8856695
-5.6168747 -0.17920592 -1.8856223
-5.6109567 -0.31465638 -1.8856326
-5.6018162 -0.4499304 -1.8856655
-5.5895309 -0.58496398 -1.885721
-5.5553122 -0.85397029 -1.8858997
-5.5334764 -0.98781246 -1.8860226
-5.5084372 -1.1210992 -1.8861681
-5.4802537 -1.2537677 -1.886336
-5.336504 -1.7768506 -1.8872284
-5.2928319 -1.9053476 -1.8875065
-5.2461915 -2.0327888 -1.8878061
-5.0881834 -2.4081779 -1.8888329
-4.9682031 -2.6519158 -1.8896228
-4.6940622 -3.1213238 -1.8914474
-4.5405273 -3.3459203 -1.8924783
-4.4597459 -3.455483 -1.8930228
-4.3764257 -3.5631249 -1.8935854
-4.2904882 -3.6688015 -1.8941669
-4.2020898 -3.772434 -1.8947664
-4.1111913 -3.8739631 -1.8953842
-4.0178514 -3.9733555 -1.8960196
-3.9222069 -4.0705237 -1.8966715
-3.8241992 -4.1654248 -1.897341
-3.7239063 -4.2580185 -1.8980267
-3.5168555 -4.435997 -1.899446
-3.410078 -4.5212979 -1.9001794
-3.301367 -4.6040545 -1.9009271
-2.8470507 -4.908824 -1.904061
-2.6092186 -5.0447989 -1.9057074
-2.4878516 -5.1085277 -1.9065487
-2.2405274 -5.2272906 -1.9082656
-2.1147265 -5.282238 -1.9091402
-1.8592578 -5.3831048 -1.910919
-1.7297655 -5.4289579 -1.9118218
-1.5989648 -5.4717197 -1.9127346
-1.3344336 -5.5478244 -1.914583
-1.2008008 -5.58113 -1.9155178
-0.93111324 -5.638114 -1.9174074
-0.65873045 -5.6821203 -1.9193186
-0.52171874 -5.6992173 -1.9202811
-0.10835937 -5.7306919 -1.9231896
0.029941406 -5.7345448 -1.9241644
0.16833983 -5.7350616 -1.9251405
0.3068164 -5.7322431 -1.9261181
0.44519532 -5.7260776 -1.9270959
0.58355469 -5.7165709 -1.928074
0.85945308 -5.6875253 -1.9300271
0.99695313 -5.6679997 -1.9310015
1.1339453 -5.6451378 -1.9319736
1.5415039 -5.5566697 -1.9348692
1.8095312 -5.4812469 -1.9367774
2.0738084 -5.3928308 -1.9386624
2.204375 -5.3438048 -1.9395946
2.3338087 -5.2915869 -1.9405199
2.4619141 -5.2362194 -1.9414365
2.5887303 -5.1777267 -1.9423449
2.8381054 -5.0514789 -1.9441333
2.9604688 -4.9837875 -1.9450125
3.2002537 -4.8394818 -1.9467376
3.6578906 -4.5162477 -1.9500412
3.8745897 -4.3380475 -1.9516113
4.1829491 -4.0511422 -1.9538534
4.2810154 -3.9504955 -1.9545687
4.8157616 -3.2982225 -1.958493
5.0460739 -2.943886 -1.9602002
5.2498436 -2.5732608 -1.9617237
5.3703122 -2.3181205 -1.962633
5.4258595 -2.1883521 -1.963055
5.5731053 -1.7912737 -1.9641862
5.6156836 -1.6565906 -1.9645178
5.7232423 -1.2466857 -1.9653721
5.8003125 -0.82980162 -1.9660128
5.8344922 -0.54914063 -1.9663192
5.846406 -0.40825561 -1.9664361
5.859746 -0.12578796 -1.966596
5.8611913 0.015609741 -1.966639
5.8536716 0.29831114 -1.9666519
5.8446679 0.43942991 -1.9666214
5.8322067 0.58029479 -1.9665661
5.8163085 0.72079098 -1.9664865
5.7968946 0.86084652 -1.9663821
5.6850195 1.4149456 -1.965722
5.6088281 1.6871014 -1.9652478
5.4696875 2.0873523 -1.9643594
5.3606639 2.3479095 -1.9636511
5.3014255 2.4760637 -1.9632629
4.9591794 3.0924695 -1.9609921
4.5445313 3.6615672 -1.9581994
4.4534569 3.7689464 -1.9575819
4.3598242 3.8740344 -1.9569458
3.7473242 4.4528942 -1.9527596
3.6374218 4.5402417 -1.9520048
3.4940429 4.5836706 -1.9338632
3.3262303 4.5891232 -1.9017442
3.1637304 4.5942163 -1.8716732
3.0060937 4.5989671 -1.84352
2.8528125 4.6033959 -1.8171675
2.7092967 4.616797 -1.7961276
2.5917187 4.6707153 -1.7922546
2.2439063 4.8393736 -1.7898402
2.1255662 4.8898511 -1.7890172
2.0060546 4.9374061 -1.7881849
1.8854492 4.9820204 -1.7873446
1.7638671 5.0236716 -1.7864966
1.6414062 5.0623388 -1.7856418
1.3939258 5.1306434 -1.7839121
1.2691406 5.1602478 -1.7830385
1.0177344 5.2103062 -1.7812767
0.89130855 5.230731 -1.7803893
0.63734376 5.2623582 -1.778605
0.25470704 5.2866516 -1.7759116
-0.25533202 5.2758741 -1.7723111
-0.38236326 5.2655101 -1.7714124
-0.76097655 5.2161536 -1.7687299
-1.1345117 5.1397448 -1.7660773
-1.257539 5.1083484 -1.765202
-1.5010351 5.0367894 -1.7634676
