# .PCD v0.7 - Point Cloud Data file format
VERSION 0.7
FIELDS x y z
SIZE 4 4 4
TYPE F F F
COUNT 1 1 1
WIDTH 1494
HEIGHT 1
VIEWPOINT 0 0 0 1 0 0 0
POINTS 1494
DATA ascii
-4.9868751 6.4374924 -0.80491394
-6.7657418 6.520504 -0.92879719
-7.1007419 6.5203576 -0.95290726
-7.4537888 6.5202012 -0.97888535
-7.8268356 6.5200353 -1.0069245
-11.243731 6.5227623 -1.2848818
-11.895508 6.5224667 -1.3409814
-12.607109 6.5221448 -1.403055
-15.481367 6.6376071 -1.6650031
-15.762959 5.8755054 -1.6628346
-15.890615 5.4902244 -1.6618421
-16.009462 5.1024327 -1.6609116
-17.886024 3.4009874 -1.7996505
-18.017891 2.5326812 -1.798516
-18.141924 1.2222766 -1.797334
-18.163555 0.78416073 -1.7970791
-18.175303 0.34572753 -1.7968941
-18.169209 -0.53132749 -1.7967329
-18.123613 -1.4071691 -1.7968515
-18.086035 -1.8441354 -1.7970153
-18.038643 -2.28019 -1.7972491
-17.837597 -3.5809679 -1.7983679
-17.548954 -4.8662367 -1.8001096
-17.433409 -5.2902732 -1.8008279
-17.308262 -5.7118182 -1.8016146
-15.681367 -6.0282531 -1.6606405
-15.539941 -6.4083118 -1.6615522
-15.389824 -6.7852912 -1.6625259
-15.231133 -7.1590443 -1.6635611
-15.063926 -7.5293517 -1.6646571
-14.102265 -9.3230505 -1.6710391
-14.834579 -10.870603 -1.8179046
-14.320214 -11.595591 -1.821373
-13.485937 -12.639907 -1.8270289
-13.191563 -12.975809 -1.8290323
-12.88914 -13.30525 -1.8310937
-12.578964 -13.62805 -1.8332119
-12.261093 -13.944062 -1.835386
-11.26248 -14.849433 -1.8422362
-10.915136 -15.136409 -1.8446254
-10.560742 -15.415709 -1.8470663
-10.199492 -15.687106 -1.8495574
-9.4571095 -16.205622 -1.8546859
-8.6893158 -16.690622 -1.860002
-8.2963085 -16.920174 -1.8627273
-7.8973632 -17.140812 -1.8654968
-7.082871 -17.554937 -1.8711597
-6.6675973 -17.748041 -1.8740509
-6.2472653 -17.931732 -1.8769802
-4.9578123 -18.424498 -1.8859832
-4.519238 -18.568893 -1.8890506
-4.0766406 -18.703135 -1.8921487
-3.6302342 -18.827093 -1.8952763
-3.1802928 -18.940664 -1.8984313
-2.7270117 -19.043732 -1.9016122
-2.2706053 -19.136185 -1.9048181
-0.88535154 -19.348783 -1.9145633
0.049140625 -19.435604 -1.9211508
0.51890624 -19.462275 -1.924466
0.9900195 -19.477716 -1.9277935
1.4621093 -19.481855 -1.9311306
1.9349999 -19.474581 -1.9344761
3.3556249 -19.383989 -1.9445421
3.8288476 -19.330746 -1.9479005
4.3015232 -19.265869 -1.9512579
4.7732224 -19.189426 -1.9546108
5.7127342 -19.00165 -1.9612975
6.1799021 -18.89032 -1.964627
6.645 -18.767359 -1.9679441
3.445703 -7.8702188 -0.84923881
3.6798046 -7.8816667 -0.85980523
8.9286718 -17.979292 -1.984275
9.3749409 -17.787327 -1.9874749
9.8169336 -17.583996 -1.9906476
11.114707 -16.906939 -1.9999815
11.536855 -16.659172 -2.0030239
11.9533 -16.400595 -2.0060289
12.363691 -16.131247 -2.0089934
12.767774 -15.851327 -2.0119154
13.555859 -15.260199 -2.0176258
13.939277 -14.949346 -2.0204091
14.315175 -14.628464 -2.0231416
14.683223 -14.297801 -2.025821
15.043496 -13.957502 -2.0284476
15.395292 -13.607724 -2.0310163
15.738535 -13.248696 -2.0335271
16.07291 -12.880676 -2.0359769
16.398184 -12.503838 -2.0383646
11.427402 -7.871901 -1.3714216
17.316757 -11.322761 -2.0451345
17.603125 -10.913021 -2.0472546
17.879141 -10.495638 -2.0493035
17.381445 -8.062685 -1.8939471
17.778242 -7.2263684 -1.8969474
17.960585 -6.8003259 -1.8983358
18.131914 -6.3694711 -1.8996475
20.175976 -5.4849577 -2.0667105
20.437578 -4.5099449 -2.0687866
20.549395 -4.0173168 -2.0696924
20.868242 -2.0212371 -2.0724115
20.915487 -1.5175629 -2.0728629
20.970684 -0.50706786 -2.073488
20.978573 -0.0010308838 -2.0736616
20.97332 0.50507385 -2.0737422
20.954882 1.010877 -2.0737298
20.750175 3.0238957 -2.072751
20.569805 4.0192075 -2.071707
18.860487 4.6397691 -1.9198821
18.60412 5.0556321 -1.9056454
18.321327 5.9415307 -1.9038525
18.16293 6.3783655 -1.9028342
17.249687 6.5292907 -1.8231292
15.860566 6.4450889 -1.6922631
14.099746 6.5387583 -1.5362908
12.483047 6.5382714 -1.3929132
11.782031 6.5380602 -1.331911
9.9806442 6.5246129 -1.1786572
9.0002346 6.5243115 -1.0988041
7.7514062 6.5239244 -1.0014555
7.3821678 6.5238094 -0.97380888
7.032578 6.5236998 -0.94818509
6.0837302 6.5233984 -0.88171172
5.4490428 6.4394102 -0.83381951
5.0087304 6.5337658 -0.81377244
4.0736914 6.5334582 -0.76105815
3.6482615 6.5333166 -0.73965687
3.2451756 6.5331812 -0.72105849
3.0509374 6.533114 -0.71271831
2.6750782 6.5329843 -0.69779831
2.4927733 6.5329223 -0.69116533
2.137871 6.5327988 -0.67943805
1.9646875 6.5327377 -0.67430496
1.7940234 6.5326781 -0.6696347
1.2945508 6.5324988 -0.65826696
0.96978515 6.5323801 -0.65277439
0.64968747 6.5322628 -0.64887238
0.48460937 6.448967 -0.63925022
0.32837889 6.4483604 -0.63821858
0.17255859 6.4483018 -0.63761616
0.016933594 6.4482446 -0.63738334
-0.45642576 6.5323973 -0.64727306
-0.61507809 6.5323362 -0.64854962
-0.7744531 6.5322742 -0.65020847
-0.93474609 6.5322118 -0.65225881
-1.0961523 6.5321484 -0.65470272
-1.2588671 6.5320849 -0.65754998
-1.4231055 6.5320201 -0.66080755
-1.5890429 6.5319543 -0.66448635
-1.7569727 6.5318871 -0.66859859
-2.0996094 6.5317492 -0.67817229
-2.2748437 6.5316782 -0.68366563
-2.4530663 6.5316062 -0.68965322
-2.6345313 6.5315318 -0.69615531
-2.8195508 6.5314574 -0.70319462
-3.0084569 6.5313778 -0.71079481
-3.2016211 6.5312986 -0.7189846
-3.8104491 6.5310421 -0.74740887
-4.0246677 6.5309534 -0.75829238
-4.6947656 6.511837 -0.79351068
-5.1306443 6.4374304 -0.81368864
-5.7327538 6.5209546 -0.8582381
-6.0176563 6.5208325 -0.87707716
-6.6276169 6.520565 -0.91901958
-6.95541 6.5204196 -0.942379
-7.3005271 6.5202694 -0.96753842
-8.0502729 6.5199375 -1.0239846
-8.4594135 6.5197558 -1.0557082
-8.8949804 6.5195618 -1.0901139
-11.609981 6.5225973 -1.3163122
-13.871172 6.5215707 -1.5150967
-15.416884 6.7990794 -1.6655231
-15.837099 5.655272 -1.6622589
-15.959736 5.2685361 -1.6613019
-16.491192 4.5747118 -1.6916589
-17.673447 4.4463892 -1.8013971
-17.927763 3.1530054 -1.7992978
-17.992998 2.7187488 -1.7987353
-18.048388 2.2832665 -1.7982424
-18.093935 1.8467779 -1.7978189
-18.129686 1.4094281 -1.7974643
-18.155499 0.97150695 -1.7971796
-18.177607 0.094652094 -1.7968191
-18.173857 -0.34387389 -1.7967438
-18.160166 -0.78218871 -1.7967385
-18.10331 -1.6574292 -1.7969368
-18.007099 -2.529367 -1.7974142
-17.697187 -4.2569346 -1.7992034
-17.5954 -4.6842346 -1.7998235
-15.863466 -5.9111571 -1.6733774
-15.601436 -6.2461972 -1.6611551
-15.455029 -6.6245251 -1.6621023
-15.300029 -6.9996734 -1.663111
-15.136445 -7.3714743 -1.6641812
-14.783896 -8.1042795 -1.6665033
-13.434882 -7.7920465 -1.5351865
-14.397871 -8.8214998 -1.669066
-14.192344 -9.1737909 -1.670437
-15.180654 -10.340123 -1.8155813
-14.433046 -11.442451 -1.8206108
-14.166777 -11.798982 -1.8224106
-13.892187 -12.149702 -1.8242706
-13.609336 -12.494433 -1.8261901
-13.318398 -12.832981 -1.8281687
-12.397949 -13.80979 -1.8344494
-12.075684 -14.121865 -1.8366555
-11.745937 -14.42681 -1.8389163
-11.064511 -15.014654 -1.8435977
-10.713125 -15.297244 -1.8460165
-4.8686914 -7.7193785 -0.9021225
-9.2398825 -16.347931 -1.8561889
-8.8555269 -16.589853 -1.8588502
-8.4650002 -16.823093 -1.8615572
-8.0686131 -17.047577 -1.8643075
-7.2588086 -17.469452 -1.8699354
-6.8457618 -17.666634 -1.8728104
-5.5764842 -18.201052 -1.8816606
-4.7072458 -18.50839 -1.8877349
-4.2663474 -18.646982 -1.8908204
-3.373086 -18.893398 -1.8970791
-1.0840234 -19.32449 -1.9131641
0.31791013 -19.452244 -1.9230472
0.78839844 -19.4725 -1.9263693
2.6795506 -19.440014 -1.9397488
3.1531835 -19.403244 -1.9431062
3.6266015 -19.354918 -1.9464649
4.0995312 -19.295044 -1.9498227
5.5124412 -19.045702 -1.9598712
6.9102149 -18.691769 -1.9698368
7.3714256 -18.550581 -1.9731311
7.8297653 -18.397861 -1.9764073
3.5498827 -7.8126569 -0.84823805
8.73666 -18.057896 -1.9828988
9.6284962 -17.672291 -1.9892949
10.068007 -17.462538 -1.992451
10.502773 -17.241575 -1.9955766
11.35707 -16.766439 -2.0017278
11.776035 -16.512459 -2.0047493
12.188984 -16.247698 -2.0077307
12.59582 -15.972297 -2.0106716
13.389766 -15.390046 -2.0164211
13.776211 -15.083483 -2.0192249
14.155449 -14.766878 -2.02198
14.526855 -14.440356 -2.024682
14.890547 -14.104152 -2.0273318
15.245917 -13.758398 -2.0299251
15.592852 -13.403331 -2.0324609
15.931035 -13.039128 -2.0349367
17.191231 -11.495538 -2.0442069
18.032421 -10.25343 -2.0504436
16.843809 -9.0469913 -1.8899163
17.291229 -8.238574 -1.8932681
17.499434 -7.8255186 -1.8948362
20.385878 -4.719553 -2.0683725
20.503164 -4.2283187 -2.0693161
20.607656 -3.7340136 -2.0701702
20.699375 -3.2369356 -2.0709345
20.844082 -2.2361212 -2.0721903
20.976797 -0.21743225 -2.0735986
20.964355 0.79470581 -2.0737462
20.938417 1.3001715 -2.0736806
20.899355 1.8047717 -2.0735219
20.847206 2.3081384 -2.0732703
20.703789 3.3097441 -2.0724895
20.612696 3.807307 -2.0719612
20.50873 4.3021693 -2.071341
18.658613 4.8643565 -1.9059865
18.527832 5.3107629 -1.9051657
18.232031 6.1921067 -1.9032792
18.067245 6.6264634 -1.9022151
14.489726 6.5388741 -1.571347
13.603906 6.5386095 -1.4919602
12.802832 6.5383692 -1.4209973
12.074081 6.5381479 -1.3572263
10.209121 6.5246825 -1.1976269
9.198554 6.5243726 -1.1147375
8.7434568 6.5242333 -1.0783502
8.3168354 6.5241013 -1.0448511
7.9157419 6.5239758 -1.0139434
7.5374804 6.5238585 -0.98536891
6.5181055 6.5235362 -0.9115451
5.9173436 6.5233469 -0.87057376
5.1166015 6.5338011 -0.82030547
4.8669138 6.5337195 -0.80531716
4.6260548 6.5336413 -0.79131711
4.3932614 6.5335641 -0.77824098
3.949414 6.5334167 -0.75462657
3.3296678 6.5332088 -0.72481489
2.9417186 6.5330758 -0.70821506
2.7541211 6.5330124 -0.70079845
2.5702929 6.532949 -0.69393629
1.6973242 6.5326428 -0.66716385
1.3647265 6.5325232 -0.65965325
1.2010156 6.5324655 -0.65652931
0.71779293 6.5322876 -0.64957541
0.23912109 6.4483285 -0.63782752
-0.072128907 6.4482117 -0.63741833
-0.23076171 6.5324817 -0.64611161
-0.38874999 6.532423 -0.64684457
-0.54716796 6.532362 -0.64795762
-0.86609375 6.5322385 -0.65133446
-1.0269922 6.5321751 -0.65360898
-1.189121 6.5321131 -0.65628284
-1.3526758 6.5320482 -0.65936321
-1.517871 6.5319824 -0.662862
-2.5565233 6.5315647 -0.69331014
-2.74 6.5314889 -0.70011717
-2.927207 6.5314121 -0.70747453
-3.3142383 6.5312524 -0.72394902
-3.5148437 6.531168 -0.73312873
-3.9323242 6.5309925 -0.75354671
-4.6067772 6.5307064 -0.7899797
-5.0229688 6.4374766 -0.80710018
-5.6145897 6.5210071 -0.85057598
-5.8943162 6.520885 -0.86886281
-6.492363 6.5206237 -0.90954137
-7.5065818 6.5201778 -0.98281813
-9.6412697 6.519227 -1.1504201
-10.036972 6.4395189 -1.1787565
-10.727988 6.522994 -1.2410578
-11.334765 6.5227208 -1.292672
-14.38334 6.5213375 -1.5610487
-15.502958 6.5827928 -1.6648376
-15.646826 6.202755 -1.6637317
-15.781972 5.8198009 -1.6626871
-15.908388 5.4341784 -1.6617035
-17.354296 4.5569568 -1.7735679
-17.72872 4.2008557 -1.8009491
-17.817696 3.7704175 -1.8002197
-17.896894 3.3382225 -1.799559
-17.96629 2.904552 -1.7989676
-18.075693 2.0334857 -1.7979913
-18.145674 1.1588147 -1.7972927
-18.176182 0.28213561 -1.796873
-18.176649 -0.15641785 -1.7967676
-18.14793 -1.0329651 -1.7967666
-18.030975 -2.3433022 -1.7972884
-17.972324 -2.7781234 -1.7976022
-17.737743 -4.0735927 -1.7989591
-17.640106 -4.5017905 -1.7995498
-17.532803 -4.9278345 -1.8002095
-17.41585 -5.3515129 -1.8009378
-16.357403 -5.903811 -1.7189622
-15.661426 -6.083519 -1.6607687
-15.367363 -6.8396673 -1.6626719
-14.483164 -8.6695509 -1.668498
-14.281308 -9.0236902 -1.669843
-15.280869 -10.179202 -1.8149103
-14.28166 -11.647258 -1.8216336
-13.731289 -12.347757 -1.8253622
-13.443769 -12.68897 -1.8273157
-12.844687 -13.352452 -1.8313971
-12.53336 -13.674271 -1.8335236
-12.214355 -13.989286 -1.8357059
-11.212578 -14.891481 -1.8425791
-10.864238 -15.177375 -1.8449758
-10.508808 -15.455536 -1.8474239
-9.7777338 -15.987964 -1.8524694
-9.4023438 -16.241919 -1.8550646
-8.6327534 -16.724443 -1.8603939
-8.2388086 -16.952684 -1.8631263
-7.8391209 -17.17205 -1.8659015
-7.0230079 -17.583488 -1.8715763
-6.6069922 -17.77527 -1.8744731
-6.1859374 -17.957539 -1.8774078
-5.7600584 -18.130188 -1.880379
-3.5652537 -18.844233 -1.8957318
-2.6610546 -19.057804 -1.9020754
-2.2042186 -19.148712 -1.9052844
-1.7445898 -19.228876 -1.9085157
-1.2823437 -19.298172 -1.911768
-0.81789058 -19.356543 -1.9150386
-0.35126951 -19.403927 -1.9183267
2.4770117 -19.452223 -1.9383138
3.4242382 -19.377026 -1.9450289
4.3699412 -19.255537 -1.9517441
4.8415036 -19.177389 -1.9550966
5.3117576 -19.087608 -1.9584424
6.2474413 -18.87324 -1.9651083
6.7122264 -18.748592 -1.9684237
7.1746092 -18.61237 -1.971725
7.6342382 -18.464556 -1.9750093
9.4392376 -17.758551 -1.9879364
9.8806057 -17.553593 -1.9911048
10.749434 -17.110081 -1.9973512
11.17623 -16.871695 -2.0004249
11.597578 -16.622387 -2.0034621
12.013124 -16.362244 -2.0064609
12.82584 -15.809897 -2.012336
13.611875 -15.215769 -2.0180321
13.994219 -14.903471 -2.020808
14.369473 -14.581094 -2.0235364
14.735995 -14.249086 -2.0262053
16.120625 -12.8266 -2.0363266
16.759024 -12.061863 -2.0410187
17.643789 -10.852966 -2.0475562
16.742989 -9.2165585 -1.889164
16.976015 -8.8180923 -1.8909045
17.411621 -8.0028286 -1.8941743
17.805351 -7.1649036 -1.8971533
18.31455 -5.8706045 -1.901055
20.331875 -4.9285684 -2.0679421
20.45455 -4.4387183 -2.0689235
20.564531 -3.9456851 -2.0698159
20.661777 -3.4497695 -2.0706191
20.92123 -1.4444586 -2.0729203
20.953516 -0.93944883 -2.073266
20.811464 2.5956202 -2.0730846
20.738808 3.096328 -2.0726874
20.653242 3.5948792 -2.0721984
20.443438 4.5840979 -2.070945
18.585155 5.1203675 -1.9055266
18.139101 6.4413095 -1.9026803
15.702812 6.4450426 -1.6778228
13.135761 6.5384679 -1.450388
12.3775 6.5382395 -1.3836807
10.887265 6.441102 -1.2504029
10.398535 6.4956298 -1.2119203
9.4026556 6.524436 -1.1312569
8.9343166 6.5242906 -1.0935328
8.4959564 6.5241566 -1.0588394
8.0843163 6.5240269 -1.0268592
6.6540036 6.5235791 -0.92109329
6.3404298 6.5234799 -0.89921468
5.6906638 6.450201 -0.8502416
5.4105272 6.4393978 -0.83136624
4.972578 6.5337534 -0.81160039
4.7279882 6.5336742 -0.79718572
4.4918361 6.5335975 -0.78372258
4.2633982 6.5335202 -0.77114743
3.8272069 6.5333762 -0.7484448
3.6183593 6.5333066 -0.73821896
3.415 6.5332384 -0.72868621
3.0231445 6.5331039 -0.71155959
2.8338475 6.5330396 -0.70390046
2.6484375 6.5329747 -0.69680405
2.1125977 6.5327902 -0.67866421
1.9398047 6.5327291 -0.6736002
1.7694726 6.5326681 -0.66899526
1.4351953 6.5325489 -0.66111577
0.94646484 6.5323715 -0.65243977
0.78607422 6.5323129 -0.65035027
0.62660158 6.5322556 -0.64864999
0.46191406 6.4489584 -0.63908529
0.30578125 6.4483519 -0.63810867
0.14999999 6.4482932 -0.63755834
-0.16333984 6.5325084 -0.64591241
-0.638125 6.5323267 -0.64876598
-1.1196485 6.5321383 -0.65509129
-1.2825586 6.5320764 -0.65799618
-1.4470313 6.5320106 -0.66131401
-1.7814844 6.5318775 -0.66923118
-2.8466601 6.531445 -0.70426041
-3.2299805 6.5312853 -0.72022206
-3.6320117 6.5311193 -0.73868465
-3.8411131 6.5310311 -0.74894035
-4.0562501 6.5309396 -0.75993264
-4.2778907 6.5308471 -0.77170879
-4.5066404 6.5307493 -0.7843188
-5.1749802 6.4466782 -0.81714094
-5.4985352 6.5210557 -0.84314001
-6.0599608 6.520813 -0.87991893
-6.6741209 6.5205441 -0.9222998
-7.0042968 6.5203991 -0.9459098
-7.3520899 6.5202451 -0.97134441
-8.9605074 6.5195312 -1.095342
-10.34166 6.4351254 -1.2039783
-12.399355 6.5222397 -1.3848507
-13.159785 6.5218945 -1.4517803
-15.438749 6.7443128 -1.6653274
-15.586376 6.3655872 -1.6641972
-15.725273 5.9838891 -1.6631262
-15.85543 5.5993896 -1.6621164
-15.976768 5.2122936 -1.6611682
-17.687704 4.3842821 -1.8012817
-17.864239 3.5232091 -1.7998331
-17.937822 3.0901599 -1.799212
-18.055605 2.2200792 -1.7981766
-18.099756 1.7834539 -1.7977629
-18.134003 1.3460009 -1.7974188
-18.172998 0.46963987 -1.796939
-18.177647 0.031097412 -1.7968042
-18.17247 -0.40740967 -1.7967385
-18.132481 -1.2835547 -1.7968175
-18.097666 -1.7207409 -1.7969619
-17.998594 -2.5923631 -1.7974595
-17.934355 -3.0264058 -1.7978128
-17.860312 -3.4589868 -1.7982355
-17.776524 -3.889899 -1.7987279
-17.467022 -5.1706986 -1.8006181
-17.34457 -5.5929346 -1.8013858
-16.879101 -5.8960199 -1.7673022
-15.719794 -5.9202971 -1.6603941
-15.580791 -6.3011842 -1.6612883
-15.433115 -6.67909 -1.6622446
-15.276835 -7.0537596 -1.6632622
-15.112021 -7.4250646 -1.6643414
-15.146338 -10.394441 -1.8158113
-14.904482 -10.766419 -1.8174348
-14.654003 -11.133166 -1.8191204
-14.39498 -11.494454 -1.8208679
-14.1275 -11.850141 -1.8226763
-13.851738 -12.200007 -1.8245449
-13.275547 -12.881516 -1.8284602
-12.351719 -13.855436 -1.8347659
-12.028378 -14.166465 -1.8369796
-11.697519 -14.470381 -1.8392483
-11.014004 -15.056098 -1.8439449
-9.563652 -16.134338 -1.8539492
-8.7992964 -16.62417 -1.8592398
-8.0106831 -17.079353 -1.8647101
-7.199316 -17.498617 -1.8703494
-6.7854881 -17.69441 -1.87323
-6.3665624 -17.880789 -1.8761486
-5.9427342 -18.057556 -1.8791043
-5.5141406 -18.224636 -1.8820957
-4.2021875 -18.666216 -1.8912697
-3.3077929 -18.909658 -1.8975369
-2.8554296 -19.015688 -1.9007108
-1.480332 -19.269863 -1.9103748
-1.0167383 -19.332928 -1.913638
-0.083359376 -19.42602 -1.920216
2.748203 -19.43539 -1.9402353
3.2218359 -19.396967 -1.9435931
3.6951756 -19.346956 -1.9469515
4.6399803 -19.212242 -1.9536632
5.1108594 -19.127422 -1.9570125
6.0480661 -18.92296 -1.9636873
6.9771872 -18.672026 -1.9703151
3.4489648 -8.0262537 -0.86351657
8.8017578 -18.031515 -1.9833653
9.692461 -17.642591 -1.9897538
10.131249 -17.43119 -1.9929057
11.836171 -16.474773 -2.0051835
12.248301 -16.208481 -2.0081594
13.446191 -15.34627 -2.0168302
14.209648 -14.720207 -2.0223739
15.296719 -13.70752 -2.0302963
15.642383 -13.351091 -2.0328233
16.307167 -12.611237 -2.0376961
11.350547 -7.9336405 -1.3688676
17.233965 -11.437156 -2.0445228
17.523262 -11.02963 -2.0466628
18.070625 -10.191781 -2.0507283
17.322012 -8.1790533 -1.8934994
17.528711 -7.7651877 -1.8950574
20.134941 -5.6215601 -2.0663884
20.621777 -3.6621926 -2.0702868
20.711639 -3.1647961 -2.0710378
20.852539 -2.1633127 -2.0722673
20.903456 -1.6600244 -2.0727446
20.941366 -1.1554865 -2.0731299
20.966055 -0.65005612 -2.073422
20.892597 1.877755 -2.0734911
20.492558 4.3736353 -2.0712435
18.64039 4.9292674 -1.9058727
18.507948 5.3751597 -1.9050399
18.208866 6.2553244 -1.9031302
18.041855 6.6887536 -1.9019904
15.325995 6.5391245 -1.6470544
13.482949 6.5385728 -1.4811929
11.973965 6.5381188 -1.3485316
11.315722 6.53792 -1.2917932
10.563184 6.4479895 -1.2232938
9.6129684 6.5245004 -1.148403
9.130703 6.5243516 -1.1092714
7.4844527 6.5238428 -0.9814114
6.7928514 6.5236239 -0.93094569
5.875957 6.5233326 -0.86782861
-5.8351169 -14.3179 -1.8807354
-5.4949217 -14.472711 -1.8831049
-5.1507225 -14.619662 -1.8855046
-3.7375586 -15.126751 -1.8953789
-3.3760936 -15.232851 -1.89791
-2.6445117 -15.419499 -1.9030393
-1.9028906 -15.571609 -1.9082478
-1.5287695 -15.634513 -1.9108784
-1.1527538 -15.688543 -1.9135244
-0.77503902 -15.733619 -1.9161848
-0.39582029 -15.769701 -1.9188578
-0.015273437 -15.796721 -1.9215423
0.36632812 -15.81466 -1.9242361
1.1318749 -15.822939 -1.9296474
3.0491016 -15.681401 -1.9432365
3.4313085 -15.625072 -1.9459523
4.1926365 -15.484364 -1.9513679
3.4304881 -7.9106078 -1.0488467
7.1619139 -14.549091 -1.972581
7.5206051 -14.390837 -1.975154
7.875742 -14.223572 -1.9777039
8.2270699 -14.047328 -1.9802295
8.5743361 -13.862228 -1.9827279
8.9173822 -13.668374 -1.9851986
9.9184761 -13.034995 -1.9924242
10.242011 -12.806948 -1.9947652
10.872676 -12.3262 -1.9993364
11.479863 -11.813457 -2.0037487
11.774121 -11.545393 -2.005892
12.061796 -11.269775 -2.0079901
12.616817 -10.696435 -2.0120482
11.365527 -7.8879948 -1.6828408
12.777539 -8.4186268 -1.8613107
12.987734 -8.1147175 -1.862868
13.190371 -7.8053274 -1.8643726
13.385273 -7.4906769 -1.865824
13.572227 -7.1709518 -1.8672203
13.751133 -6.8463616 -1.868561
14.084277 -6.1834106 -1.8710709
14.27957 -5.862484 -1.8776803
15.768437 -5.6012249 -2.0355184
16.265684 -4.0635037 -2.0393922
16.455 -3.27666 -2.0409141
16.603964 -2.4806509 -2.0421524
16.663183 -2.0798934 -2.0426645
16.804453 -0.059577025 -2.0441337
16.788359 0.75106627 -2.0442088
16.631952 2.3643975 -2.0434783
16.492069 3.1626263 -2.042675
16.406874 3.5586729 -2.0421648
16.311583 3.9523058 -2.0415826
16.206327 4.3432651 -2.0409293
14.701972 4.7111254 -1.8779742
14.445156 5.4100084 -1.8763211
13.994023 6.4303184 -1.8733687
13.826504 6.7619834 -1.8722436
12.589453 6.5380249 -1.7255993
11.879335 6.5378232 -1.6494045
9.544199 6.5242515 -1.4063058
9.0665236 6.5241113 -1.3587189
7.0818944 6.5235252 -1.1712363
6.4295702 6.5233274 -1.1141545
5.4876757 6.4392567 -1.0291358
5.2247458 6.4391747 -1.0086792
5.0449805 6.5336142 -1.0041105
4.7978711 6.5335374 -0.98601788
4.5593553 6.5334616 -0.96911961
4.1054296 6.5333152 -0.93859792
3.8887303 6.533247 -0.92483616
3.4733202 6.5331101 -0.90002441
2.5189257 6.532793 -0.85167897
2.3394921 6.5327306 -0.84406585
2.163125 6.5326719 -0.83707035
1.9895898 6.5326123 -0.83066922
1.6498437 6.5324926 -0.81956834
0.50726563 6.4488487 -0.78686535
0.35097656 6.4482422 -0.78552848
0.19509766 6.4481835 -0.78471947
0.039453123 6.4481258 -0.78436822
-0.11763672 6.5323973 -0.79473311
-1.0726563 6.5320263 -0.80520129
-1.2351562 6.5319614 -0.80863243
-1.7324804 6.5317636 -0.82199973
-2.074414 6.5316248 -0.83361793
-2.4269922 6.5314794 -0.84756905
-2.7924414 6.5313282 -0.86404198
-3.1732812 6.531167 -0.88326317
-3.3703516 6.5310826 -0.89399046
-3.5724022 6.5309973 -0.90551519
-3.7798436 6.5309067 -0.91788304
-3.9931445 6.5308166 -0.93114072
-4.212832 6.5307202 -0.94534683
-4.4394727 6.5306225 -0.96056038
-4.8460155 6.4373922 -0.98012859
-5.0938087 6.437284 -0.99853492
-5.97541 6.5206747 -1.0758506
-6.5812888 6.5204029 -1.1269305
-6.9066796 6.5202551 -1.1553715
-7.2491598 6.5200987 -1.1859977
-7.6105075 6.5199337 -1.2190189
-8.3983002 6.5195727 -1.2932708
-8.8298244 6.5193725 -1.3351104
-9.7839451 6.5189319 -1.4301095
-10.181973 6.4349594 -1.4651625
-10.894101 6.5226684 -1.5445447
-12.23543 6.545599 -1.6879328
-12.38166 6.2444468 -1.6868289
-12.895702 5.010664 -1.6829069
-13.00621 4.6957235 -1.6820523
-13.686563 4.5712585 -1.7552633
-14.436641 4.059165 -1.8241937
-14.524785 3.7082689 -1.8234887
-14.604785 3.355603 -1.8228408
-14.676738 3.0013244 -1.8222498
-14.740546 2.6456232 -1.8217157
-14.843691 1.9305859 -1.82082
-14.936973 0.85166013 -1.8199093
-14.95164 0.49103269 -1.8197216
-14.958066 0.13018127 -1.8195922
-14.95626 -0.23068908 -1.819521
-14.901523 -1.3117725 -1.8196564
-14.866865 -1.6710296 -1.8198179
-14.713847 -2.7429993 -1.8206503
-14.487695 -3.8027105 -1.8220028
-14.396211 -4.152391 -1.8225683
-14.296738 -4.5000086 -1.8231906
-13.950723 -5.5287976 -1.8253977
-13.819726 -5.866456 -1.8262454
-13.014238 -5.8989968 -1.7381064
-12.016445 -6.913363 -1.6863486
-11.853769 -7.2058592 -1.6874307
-11.684316 -7.4947515 -1.6885617
-10.961249 -10.488081 -1.8453814
-10.714766 -10.759245 -1.8470612
-9.9371681 -11.539034 -1.8523779
-9.1046877 -12.265171 -1.8580949
-8.5209179 -12.717526 -1.8621175
-4.8982029 -7.7063456 -1.1107169
-6.9684958 -13.729245 -1.8728589
-6.3134961 -14.083513 -1.8774077
-5.9792967 -14.249356 -1.8797324
-5.298418 -14.557853 -1.8844746
-4.6018357 -14.83457 -1.8893356
-4.2482224 -14.960837 -1.8918066
-3.5309765 -15.188518 -1.8968252
-3.1677928 -15.289748 -1.8993695
-2.8017969 -15.382475 -1.9019357
-2.433203 -15.466595 -1.9045223
-1.6889844 -15.608679 -1.9097515
-1.3137695 -15.666523 -1.9123913
-0.93673825 -15.715442 -1.9150457
-0.55812496 -15.755391 -1.9177134
0.5851953 -15.820768 -1.9257824
1.3513671 -15.818525 -1.9312004
2.8854883 -15.702602 -1.9420749
3.2680078 -15.650305 -1.9447917
3.649668 -15.58863 -1.9475046
5.1632032 -15.24838 -1.9582857
5.5370703 -15.139976 -1.9609544
6.2777929 -14.895389 -1.9662488
8.0773439 -14.123767 -1.9791527
8.7712698 -13.752337 -1.9841458
9.1117182 -13.553456 -1.9865992
9.4475384 -13.345962 -1.9890221
9.7784767 -13.129927 -1.9914125
10.739804 -12.431699 -1.9983722
11.048965 -12.182674 -2.0006161
11.352129 -11.925694 -2.0028195
12.223476 -11.108639 -2.009171
12.500527 -10.821435 -2.0111966
12.770449 -10.527053 -2.0131738
13.033164 -10.225701 -2.0151014
12.46457 -8.8426275 -1.8589993
12.898769 -8.2453308 -1.8622085
13.104668 -7.9382644 -1.8637359
13.302871 -7.6258469 -1.8652101
13.849902 -6.6584325 -1.869303
14.015859 -6.3266091 -1.8705539
15.849218 -5.3845606 -2.0361402
15.9825 -5.0031891 -2.0371714
16.106152 -4.6183381 -2.0381351
16.220039 -4.2303181 -2.0390308
16.417929 -3.4457161 -2.0406127
16.575527 -2.6514716 -2.0419118
16.63912 -2.2514358 -2.0424547
16.735449 -1.446853 -2.043323
16.768145 -1.0428735 -2.0436482
16.804062 0.17251587 -2.0441852
16.795313 0.57785153 -2.0442176
16.656523 2.1928399 -2.0436118
16.525391 2.9926257 -2.042871
16.141562 4.565764 -2.0405233
14.97416 4.6284728 -1.9065069
14.503086 5.2617712 -1.8766961
14.365058 5.6074424 -1.8758007
14.21832 5.9493079 -1.8748428
14.063007 6.2871571 -1.873823
12.913613 6.5381165 -1.7606906
12.175117 6.5379062 -1.6810229
11.500215 6.5377145 -1.6091502
10.719238 6.4408045 -1.5211846
8.8072653 6.5240369 -1.3332435
7.230195 6.5235691 -1.1845688
6.5636716 6.5233688 -1.1256671
5.9589453 6.5231857 -1.0747285
5.6033788 6.439292 -1.0383242
5.3358593 6.4392099 -1.0172478
4.9024024 6.5335703 -0.9936021
4.4264255 6.5334201 -0.95995313
4.2000194 6.5333471 -0.94477463
3.7674999 6.5332079 -0.91737676
2.2381835 6.5326977 -0.8399871
2.0634766 6.5326376 -0.83333433
1.5541601 6.5324583 -0.81679273
1.3885547 6.5323997 -0.81235909
1.062168 6.5322852 -0.80502701
0.90099609 6.5322251 -0.80210692
0.74089843 6.5321665 -0.79967153
0.5816797 6.5321078 -0.79771298
0.41773435 6.4488158 -0.78608114
-0.20791015 6.532362 -0.79500288
-0.36580077 6.5323009 -0.79583794
-0.52416015 6.5322409 -0.79713917
-0.84287107 6.5321178 -0.80115676
-1.4938085 6.5318604 -0.81505138
-1.6605663 6.5317931 -0.81980526
-2.0005078 6.5316539 -0.83094388
-2.7131054 6.5313611 -0.86029768
-3.0904491 6.5312009 -0.87890953
-3.2855077 6.5311193 -0.88931006
-3.4853711 6.531034 -0.90048778
-3.6904492 6.5309458 -0.91248912
-4.1181054 6.5307617 -0.93915284
-4.3416991 6.5306649 -0.95392913
-4.572578 6.5305653 -0.96974868
-4.9867578 6.4373312 -0.99050885
-6.1431642 6.5205994 -1.0897348
-7.8266015 6.519835 -1.2390918
-9.0897655 6.5192542 -1.3606665
-9.5687103 6.5190306 -1.4084039
-10.500078 6.4348121 -1.4980073
-12.170781 6.6733737 -1.6884198
-12.462226 6.0706458 -1.6862185
-12.597383 5.7647266 -1.6851919
-12.72537 5.4559875 -1.6842151
-12.84625 5.1445847 -1.6832877
-12.959863 4.8306713 -1.6824114
-13.260605 4.5815501 -1.7066031
-14.296445 4.5564733 -1.8252369
-14.571562 3.5066051 -1.8231109
-14.646973 3.1529961 -1.8224953
-14.773398 2.4414039 -1.8214358
-14.824413 2.0837934 -1.8209921
-14.867207 1.7251977 -1.820606
-14.901806 1.3657953 -1.8202777
-14.928203 1.005758 -1.8200071
-14.958017 -0.076419063 -1.8195443
-14.936787 -0.79780638 -1.8195267
-14.913818 -1.1579547 -1.8196052
-14.843329 -1.8762896 -1.8199365
-14.79582 -2.2341647 -1.8201891
-14.676289 -2.9463205 -1.8208685
-14.604336 -3.3002815 -1.8212948
-14.524375 -3.6526053 -1.8217782
-14.340215 -4.3516302 -1.8229177
-14.236211 -4.6980228 -1.8235724
-14.124218 -5.0420551 -1.8242843
-14.004355 -5.3835754 -1.8250525
-13.365371 -5.8927293 -1.7767923
-11.584277 -7.6584234 -1.6892309
-11.404297 -7.9413218 -1.6904376
-11.217753 -8.2202187 -1.6916918
-11.024629 -8.4949856 -1.6929934
-10.825117 -8.7654486 -1.6943411
-10.619199 -9.0314655 -1.6957349
-10.40707 -9.2928915 -1.6971742
-10.570762 -10.912 -1.8480438
-10.314219 -11.174417 -1.8497965
-10.051406 -11.431084 -1.8515952
-9.5074806 -11.926581 -1.8553259
-9.2265816 -12.16511 -1.8572564
-8.9398823 -12.397319 -1.8592294
-8.0465822 -13.054494 -1.865393
-7.4246287 -13.458379 -1.8696966
-7.1061716 -13.649675 -1.8719039
-6.782949 -13.833691 -1.8741463
-6.455039 -14.0103 -1.8764241
-6.1227145 -14.179382 -1.8787344
-5.1005859 -14.640287 -1.8858545
-4.7520118 -14.778112 -1.8882869
-4.3998632 -14.90785 -1.8907467
-3.3234179 -15.247507 -1.898279
-2.5910938 -15.431698 -1.9034142
-1.8488281 -15.581262 -1.9086279
-1.474375 -15.642898 -1.9112612
-0.72017574 -15.739411 -1.9165713
-0.34074217 -15.774176 -1.9192462
0.4216992 -15.816491 -1.9246273
0.80425781 -15.823896 -1.9273307
1.1874413 -15.822102 -1.9300406
1.5709765 -15.811064 -1.9327549
1.954707 -15.79075 -1.935473
2.3383594 -15.761098 -1.9381926
2.7216992 -15.722129 -1.9409121
3.1045313 -15.673808 -1.9436303
3.8676953 -15.549111 -1.9490554
4.2475781 -15.472717 -1.9517595
5.3774805 -15.187483 -1.9598149
7.9268746 -14.198558 -1.9780716
8.2776556 -14.021067 -1.980593
8.9667187 -13.639544 -1.985554
9.3045502 -13.435744 -1.98799
9.9656639 -13.002459 -1.9927657
10.288476 -12.773228 -1.9951016
10.605879 -12.535723 -1.9974008
10.917539 -12.290092 -1.9996618
11.52291 -11.775065 -2.0040624
12.382871 -10.945116 -2.0103362
12.921738 -10.355375 -2.0142837
12.367929 -8.9672985 -1.858287
12.808456 -8.3749495 -1.8615396
13.219082 -7.7600436 -1.8645861
13.945898 -6.4690356 -1.870026
14.416406 -5.8598723 -1.8929702
15.78916 -5.5465002 -2.0356777
15.92668 -5.166688 -2.0367386
16.054453 -4.7833033 -2.0377314
16.172577 -4.3966031 -2.0386565
16.280743 -4.0068641 -2.0395119
16.378944 -3.6143351 -2.0402977
16.613203 -2.422682 -2.0422316
16.670879 -2.021699 -2.0427327
16.718321 -1.6192852 -2.0431616
16.75543 -1.2157184 -2.0435181
16.798613 -0.40618652 -2.0440118
16.800312 0.4045819 -2.0442126
16.760508 1.2143945 -2.0441196
16.725039 1.6182421 -2.0439627
16.556816 2.8222637 -2.0430539
16.480331 3.2201476 -2.0426054
16.393633 3.6158557 -2.0420845
14.684882 4.7622132 -1.8778652
13.970312 6.4786534 -1.8732122
10.412128 6.4536157 -1.4901006
9.9802732 6.5243783 -1.4504138
8.5574799 6.523962 -1.3089483
7.751152 6.5237255 -1.2323635
7.3819528 6.5236144 -1.1983441
7.0323825 6.5235095 -1.1668124
6.7005272 6.5234103 -1.1375402
6.0835938 6.5232239 -1.0850151
5.730742 6.4500427 -1.0495321
5.4489255 6.4392443 -1.0260854
4.7627735 6.5335264 -0.98349637
4.5254493 6.5334506 -0.96676499
4.2959571 6.5333786 -0.95113736
3.8578515 6.533236 -0.92292053
3.0508592 6.5329709 -0.87705994
2.3137696 6.5327234 -0.84301579
2.1378124 6.5326633 -0.83610731
1.9646484 6.5326037 -0.82978904
1.2945312 6.5323668 -0.8100543
1.1314648 6.5323095 -0.80642617
0.80923826 6.5321922 -0.80065382
0.64964843 6.5321326 -0.79849279
0.48458984 6.4488401 -0.78665239
0.32835937 6.4482322 -0.78538269
0.17255859 6.448175 -0.78464055
0.016933594 6.4481177 -0.78435522
-0.14048828 6.5323887 -0.79478729
-0.45640624 6.5322666 -0.79652619
-0.77443355 6.5321436 -0.80013871
-0.93470699 6.5320826 -0.80266029
-1.0961132 6.5320177 -0.80566823
-1.2588476 6.5319543 -0.8091712
-1.4230664 6.5318885 -0.81318021
-1.756914 6.5317526 -0.82276732
-2.8194726 6.5313158 -0.8653391
-3.2015429 6.5311546 -0.88476968
-3.6021092 6.5309839 -0.90725487
-4.2452345 6.5307064 -0.947487
-4.4729295 6.5306077 -0.96285182
-4.696074 6.5136361 -0.97677439
-4.8813672 6.4373779 -0.98271465
-5.1305075 6.4372678 -1.001307
-6.3153319 6.5205221 -1.1041915
-8.4591799 6.5195446 -1.2991229
-8.8946877 6.5193429 -1.3414624
-9.8583784 6.5188961 -1.4376512
-10.261191 6.4349232 -1.4733168
-10.980976 6.5226278 -1.5536137
-12.10502 6.8006616 -1.6889386
-12.402285 6.2005444 -1.6866728
-12.540468 5.8958812 -1.6856246
-12.795468 5.2780261 -1.6836779
-13.836504 4.5676303 -1.7724342
-14.536855 3.6572669 -1.8233916
-14.615703 3.3043573 -1.8227518
-14.686484 2.9498699 -1.8221688
-14.849902 1.8786365 -1.8207639
-14.888007 1.5195618 -1.8204111
-14.939609 0.79942381 -1.8198785
-14.955312 -0.28297669 -1.8195155
-14.924667 -1.0040185 -1.8195645
-14.861162 -1.7230231 -1.8198462
-14.636093 -3.1491559 -1.8211055
-14.559531 -3.5022023 -1.8215648
-14.474921 -3.8535082 -1.8220812
-14.382285 -4.2028918 -1.822655
-14.28164 -4.550199 -1.8232856
-14.173085 -4.8952465 -1.8239727
-14.056602 -5.2378612 -1.8247168
-13.932187 -5.5779057 -1.8255174
-13.732402 -5.8861475 -1.8174157
-12.898613 -5.9010534 -1.7254132
-12.300038 -6.3617053 -1.6844717
-12.150117 -6.6604953 -1.6854624
-11.65916 -7.536303 -1.6887298
-11.298301 -8.1014919 -1.6911498
-11.107968 -8.3780308 -1.6924313
-10.707988 -8.918293 -1.6951337
-10.498515 -9.1817055 -1.6965533
-11.166777 -10.251953 -1.8439831
-10.925938 -10.527716 -1.8456217
-10.424706 -11.062901 -1.8490413
-9.8981638 -11.575391 -1.8526449
-9.3473635 -12.063916 -1.8564259
-8.4777536 -12.749281 -1.8624151
-4.8691797 -7.7201428 -1.1102717
-7.870625 -13.172963 -1.8666095
-7.5592184 -13.374418 -1.8687646
-5.9305468 -14.272746 -1.8800714
-5.5915036 -14.429768 -1.8824322
-4.9014649 -14.720173 -1.8872436
-4.5508399 -14.85338 -1.8896917
-3.8391795 -15.095248 -1.8946675
-3.4785547 -15.203701 -1.8971922
-3.1148827 -15.303722 -1.8997402
-2.7485156 -15.395207 -1.9023095
-2.0082421 -15.552243 -1.9075073
1.4069531 -15.816922 -1.9315935
1.7906445 -15.800573 -1.9343106
2.1743751 -15.774912 -1.93703
2.9409571 -15.695616 -1.9424689
4.0853319 -15.506526 -1.9506042
5.2175388 -15.233257 -1.9586734
5.5910349 -15.123501 -1.9613402
7.0599217 -14.592166 -1.9718498
7.41957 -14.436484 -1.974429
7.7757616 -14.271738 -1.9769857
8.4766407 -13.91545 -1.9820246
8.820859 -13.724041 -1.984503
9.1606836 -13.523913 -1.9869523
9.495801 -13.315183 -1.9893707
9.8260546 -13.097935 -1.9917562
10.151114 -12.872253 -1.9941071
10.47082 -12.638267 -1.9964224
11.093301 -12.145927 -2.0009384
11.395547 -11.887795 -2.0031354
12.264043 -11.067478 -2.0094674
12.540058 -10.779207 -2.0114861
12.809004 -10.483826 -2.0134563
12.497011 -8.8001261 -1.8592385
12.716758 -8.5035086 -1.8608614
12.929101 -8.2011719 -1.8624334
13.133886 -7.8933215 -1.8639529
13.331016 -7.5801477 -1.8654196
13.520156 -7.2618213 -1.8668311
13.701406 -6.9385686 -1.8681878
13.874434 -6.61062 -1.8694878
14.03918 -6.2781534 -1.8707299
15.7275 -5.707747 -2.0352042
16.123301 -4.562305 -2.0382695
16.338223 -3.7824669 -2.0399706
16.58539 -2.5935969 -2.041995
16.64748 -2.1933124 -2.0425272
16.699316 -1.791477 -2.0429871
16.74082 -1.3883667 -2.0433745
16.772032 -0.98426449 -2.0436895
16.793163 0.63658565 -2.0442162
16.586445 2.651535 -2.0432231
16.514257 3.0503016 -2.0428057
16.431953 3.4469762 -2.0423162
16.237051 4.2330565 -2.0411208
14.483632 5.3121009 -1.8765702
14.344316 5.6572275 -1.8756655
12.802265 6.5380836 -1.7486178
12.073574 6.5378771 -1.6701486
11.407089 6.5376878 -1.5993136
10.20875 6.5244431 -1.4737582
8.3165627 6.5238929 -1.2857617
7.5372653 6.5236621 -1.2125682
7.1795506 6.5235543 -1.1800026
6.8403711 6.5234532 -1.1497916
6.51791 6.5233545 -1.1217258
6.2106638 6.523263 -1.0956199
5.9172068 6.5231738 -1.0713097
4.6259375 6.5334826 -0.97377974
4.3931642 6.5334091 -0.95768911
3.9493358 6.5332651 -0.92862898
3.3295703 6.5330639 -0.89194447
3.1333787 6.532999 -0.88135594
2.9416602 6.5329342 -0.87151664
2.5702343 6.5328112 -0.8539471
2.2126954 6.5326891 -0.83898556
2.038379 6.532629 -0.8324191
1.6973046 6.5325098 -0.82100248
1.364707 6.5323911 -0.81175929
1.2010156 6.5323324 -0.80791533
0.87775391 6.5322165 -0.80172408
0.23912109 6.4482007 -0.78490233
0.083437495 6.4481421 -0.78442168
-0.072128907 6.4480834 -0.78439796
-0.70621091 6.5321703 -0.79920721
-0.8660742 6.5321078 -0.80152273
-1.0269727 6.5320458 -0.80432159
-1.1891016 6.531981 -0.80761206
-1.6849023 6.5317831 -0.82053709
-2.5564647 6.5314255 -0.85317695
-3.7206445 6.5309339 -0.91429818
-4.1500778 6.5307493 -0.94123447
-4.6066599 6.530549 -0.97213262
-4.7776365 6.4374242 -0.9751476
-5.6144528 6.5208359 -1.0467006
-6.4921875 6.5204415 -1.1192594
-6.8130665 6.5202975 -1.1471214
-7.150527 6.520144 -1.1771077
-7.5063477 6.5199828 -1.2094276
-7.8824606 6.5198092 -1.2443157
-8.2811909 6.5196261 -1.2820511
-8.7050781 6.5194297 -1.3229347
-9.1571484 6.5192208 -1.3673314
-9.6409369 6.5189977 -1.415669
-10.036582 6.4392834 -1.4505285
-11.334316 6.5224619 -1.590708
-12.192851 6.6301293 -1.6882534
-12.341054 6.3298755 -1.6871359
-12.482245 6.0264893 -1.6860669
-12.616386 5.7201648 -1.6850471
-14.311894 4.5063257 -1.8251797
-14.500683 3.8076439 -1.8236822
-14.583008 3.4554675 -1.8230182
-14.781308 2.3896422 -1.8213681
-14.872725 1.6731616 -1.8205547
-14.931337 0.95353818 -1.8199728
-14.94832 0.59300047 -1.8197689
-14.95708 0.2321637 -1.8196229
-14.933993 -0.85002196 -1.8195343
-14.87749 -1.5695539 -1.8197662
-14.836953 -1.9282131 -1.8199694
-14.788241 -2.2859397 -1.8202307
-14.666367 -2.9977112 -1.8209267
-14.593262 -3.3514419 -1.8213613
-14.51209 -3.7035174 -1.8218533
-14.422891 -4.0537486 -1.8224026
-14.220469 -4.7480173 -1.8236722
-14.107324 -5.0917039 -1.8243921
-13.857578 -5.7713046 -1.826
-13.244648 -5.8948874 -1.7634689
-12.361973 -6.2330017 -1.6840637
-11.73289 -7.4134731 -1.6882371
-10.588847 -9.0696373 -1.6959409
-10.785097 -10.68314 -1.8465813
-10.533984 -10.95038 -1.848295
-10.276543 -11.211967 -1.8500543
-10.012774 -11.467795 -1.8518597
-9.7429876 -11.717705 -1.8537092
-8.8978901 -12.430427 -1.8595186
-8.6047268 -12.655204 -1.8615392
-8.0021877 -13.084692 -1.8656999
-7.6930075 -13.289133 -1.8678384
-7.3787694 -13.486562 -1.8700143
-7.0596094 -13.676808 -1.8722268
-6.7356639 -13.859751 -1.8744748
-6.4071484 -14.035275 -1.8767565
-6.0741601 -14.203256 -1.8790721
-5.3956056 -14.516119 -1.8837973
-4.7011914 -14.797404 -1.8886417
-4.3484764 -14.92598 -1.8911058
-3.9924023 -15.046322 -1.8935956
-3.633086 -15.158349 -1.8961101
-3.2707226 -15.26198 -1.8986481
-2.9055274 -15.357145 -1.9012082
-2.1673241 -15.521581 -1.9063897
-1.7946484 -15.590755 -1.9090087
-0.66525388 -15.745009 -1.9169582
0.09517578 -15.802874 -1.9223219
0.47705078 -15.818126 -1.9250185
0.85978514 -15.824202 -1.9277232
1.2430078 -15.821069 -1.9304336
1.626582 -15.808699 -1.9331487
2.010293 -15.787021 -1.935867
2.3939452 -15.756043 -1.9385867
3.159961 -15.666052 -1.9440238
4.6806836 -15.373779 -1.9548446
5.0571485 -15.277328 -1.9575291
5.803906 -15.056501 -1.9628608
3.428828 -7.7577143 -1.0317281
3.7160351 -7.8872166 -1.0605675
7.9780078 -14.173398 -1.9784387
8.3281832 -13.99459 -1.9809562
9.0159569 -13.610561 -1.9859091
9.6854687 -13.191855 -1.9907403
10.334765 -12.739316 -1.9954368
10.962187 -12.25385 -1.9999861
11.267051 -11.999111 -2.0022008
12.694902 -10.610953 -2.0126204
12.40082 -8.9251604 -1.8585294
12.623692 -8.6310472 -1.8601736
12.839218 -8.3311291 -1.8617672
13.624902 -7.077374 -1.8676147
14.555644 -5.8572125 -1.9085479
15.581953 -5.8374887 -2.0240533
15.945762 -5.111341 -2.0368862
16.295605 -3.9501488 -2.0396302
16.555723 -2.7642093 -2.0417457
16.678398 -1.9634652 -2.0427992
16.804688 0.057929076 -2.0441628
16.782618 0.86842465 -2.0441954
16.380274 3.6730065 -2.0420032
16.282089 4.0658884 -2.0414007
16.173925 4.4560533 -2.0407264
14.667168 4.813231 -1.8777517
14.540449 5.1634202 -1.8769375
14.404942 5.5101123 -1.8760601
14.260683 5.853076 -1.8751197
14.107812 6.1920848 -1.8741177
13.946367 6.5269384 -1.8730541
12.376972 6.5379639 -1.7026969
11.685039 6.5377674 -1.6287371
8.0840626 6.5238242 -1.2636229
7.3301172 6.5235987 -1.1936257
6.0410743 6.5232105 -1.0814929
5.4103708 6.4392319 -1.0230597
5.1561913 6.4462438 -1.0041093
4.7278709 6.5335155 -0.98099953
3.6183007 6.5331578 -0.90844035
3.4149609 6.533092 -0.89670926
3.2166796 6.5330257 -0.88578862
3.0231054 6.5329623 -0.87563384
2.8337696 6.5328989 -0.86620849
2.6483788 6.5328369 -0.85747588
2.4665821 6.5327744 -0.84940803
2.2880664 6.5327148 -0.84197599
1.7694335 6.5325351 -0.82325542
1.6013281 6.5324755 -0.81814128
1.4351758 6.5324168 -0.81355882
1.2708007 6.5323582 -0.80949712
1.1079491 6.5323009 -0.80594176
0.62660158 6.532125 -0.79821885
0.46191406 6.4488316 -0.78645027
0.14999999 6.4481664 -0.78457057
-0.0055859373 6.4481077 -0.78435135
-0.32117188 6.5323191 -0.79555482
-0.63810545 6.532197 -0.79836226
-0.79759765 6.532135 -0.80047351
-0.95804685 6.5320725 -0.80306542
-1.282539 6.5319443 -0.80972052
-1.6132226 6.5318127 -0.81840694
-1.951875 6.5316749 -0.82923263
-2.1247852 6.5316038 -0.8354907
-2.3004491 6.5315318 -0.84233761
-2.8466015 6.5313048 -0.86664993
-3.0361133 6.5312252 -0.87610573
-3.4283788 6.5310583 -0.8972463
-3.631953 6.5309715 -0.90901244
-4.0561328 6.5307884 -0.93515998
-4.5065427 6.5305929 -0.96516788
-5.1748438 6.4465146 -1.0055566
-5.7731247 6.5207653 -1.0593879
-6.0598044 6.520637 -1.0828091
-6.3596678 6.5205016 -1.1079477
-7.0040817 6.5202112 -1.164014
-7.3518748 6.5200524 -1.1953123
-8.1077929 6.5197058 -1.2655499
-8.520566 6.519515 -1.3050455
-9.4299603 6.5190954 -1.3944883
-9.933691 6.5188622 -1.4452988
-10.341289 6.4348865 -1.4815758
-11.068848 6.5225878 -1.5628133
-12.127304 6.7575316 -1.6887466
-12.68996 5.543519 -1.6844858
-12.812812 5.2328467 -1.6835446
-13.989394 4.5639243 -1.789963
-14.36918 4.3071775 -1.8247284
-14.463027 3.9576769 -1.8239834
-14.548789 3.6062305 -1.8232951
-14.626484 3.2530823 -1.8226638
-14.81081 2.1849859 -1.8211117
-14.921572 1.1075549 -1.8200778
-14.94205 0.74717712 -1.819849
-14.954326 0.38646361 -1.8196783
-14.958369 0.025588378 -1.8195657
-14.954199 -0.33526 -1.8195111
-14.941777 -0.69591248 -1.8195152
-14.855283 -1.7749975 -1.8198755
-14.810059 -2.1331222 -1.820112
-14.75668 -2.4901769 -1.8204062
-14.695175 -2.845988 -1.8207583
-14.625507 -3.2003851 -1.8211684
-14.547773 -3.5532196 -1.821636
-14.461992 -3.9042621 -1.822161
-14.266425 -4.6003447 -1.8233817
-14.039042 -5.2872934 -1.8248293
-13.913574 -5.6269231 -1.8256375
-12.127831 -6.7035222 -1.6856097
-11.969999 -6.9984894 -1.6866571
-11.633965 -7.5777793 -1.6888983
-11.271132 -8.1418171 -1.6913327
-10.678027 -8.9567261 -1.6953365
-10.890469 -10.567213 -1.8458633
-10.64209 -10.836802 -1.8475567
-10.387363 -11.100821 -1.8492966
-10.126308 -11.359115 -1.8510822
-9.3065424 -12.098347 -1.8567065
-8.4344921 -12.780889 -1.8627137
-7.82582 -13.20256 -1.8669195
-6.2170897 -14.132365 -1.878078
-5.8816795 -14.295977 -1.8804115
-4.8508983 -14.73998 -1.8875965
-4.1451173 -14.995869 -1.8925275
-3.0620508 -15.317493 -1.9001106
-2.325918 -15.489358 -1.9052758
-1.5804101 -15.626367 -1.9105151
-0.82714844 -15.727951 -1.9158175
-0.44810545 -15.765265 -1.918489
-0.067792967 -15.793538 -1.9211715
0.69603515 -15.822743 -1.9265656
1.0790625 -15.823554 -1.9292736
1.4624804 -15.815127 -1.9319869
2.2299414 -15.770414 -1.9374238
4.5191989 -15.412148 -1.953694
5.2717185 -15.217923 -1.9590603
5.6449804 -15.106842 -1.9617255
6.0158787 -14.986494 -1.9643759
3.4319921 -7.9867473 -1.057422
3.5853515 -7.8181114 -1.0462444
7.1121874 -14.570191 -1.9722244
7.8270702 -14.247133 -1.9773544
8.1789064 -14.072122 -1.9798831
8.8703909 -13.695587 -1.9848598
9.5439453 -13.284225 -1.9897181
10.197773 -12.838872 -1.9944448
10.51668 -12.603688 -1.9967548
10.83 -12.36038 -1.9990268
11.438788 -11.849779 -2.0034499
12.304472 -11.026145 -2.0097628
13.10789 -10.137082 -2.0156505
12.959218 -8.1569262 -1.8626565
13.16293 -7.8482895 -1.8641686
13.898828 -6.562717 -1.8696712
14.062363 -6.2296209 -1.8709052
15.748535 -5.653173 -2.0353656
16.019335 -4.8920188 -2.0374579
16.251171 -4.1173282 -2.0392771
16.352207 -3.7255557 -2.0400827
16.443241 -3.3311958 -2.040818
16.524239 -2.9345126 -2.0414832
16.655605 -2.1352408 -2.042598
16.705957 -1.7331311 -2.0430477
16.745975 -1.3298626 -2.0434246
16.775723 -0.92564148 -2.0437291
16.804024 -0.11542663 -2.0441177
16.802616 0.28999695 -2.0442023
16.576641 2.7093995 -2.0431676
16.221348 4.2895908 -2.0410233
14.595703 5.0140977 -1.8772937
14.463964 5.3623133 -1.8764428
14.323437 5.7068968 -1.8755294
14.174218 6.0476193 -1.8745537
14.016425 6.3842602 -1.8735164
12.692558 6.538053 -1.7367382
11.973456 6.5378489 -1.6594481
11.315292 6.5376596 -1.5896331
10.561192 6.4467735 -1.5051119
9.6126556 6.524271 -1.4131864
9.1303902 6.5241294 -1.3650354
8.2569923 6.5238743 -1.2800655
7.859375 6.523757 -1.2424661
7.4842381 6.5236459 -1.2076976
7.1292968 6.5235386 -1.175487
-5.494082 -11.815735 -1.8837293
-3.4557617 -12.665961 -1.897944
-2.8472264 -12.84668 -1.9022049
-2.539336 -12.926273 -1.9043632
-2.2293165 -12.998598 -1.9065385
-1.9173046 -13.063592 -1.9087297
-1.6034179 -13.121199 -1.9109356
-1.2879101 -13.171332 -1.9131548
-0.97089839 -13.213969 -1.9153863
-0.65263671 -13.249028 -1.9176284
-0.012832031 -13.296313 -1.9221417
0.30828124 -13.308429 -1.9244092
0.62998044 -13.312833 -1.9266828
0.95208985 -13.30948 -1.9289613
1.2744336 -13.29834 -1.9312429
1.9188671 -13.252666 -1.9358103
2.240664 -13.218094 -1.9380935
3.8374412 -12.927724 -1.9494516
5.0883985 -12.555082 -1.9583839
3.4137304 -7.8719621 -1.2403847
6.0030079 -12.194891 -1.9649345
6.8915429 -11.766926 -1.9713168
7.7485743 -11.272954 -1.9774917
8.0264063 -11.093989 -1.9794979
8.8337107 -10.515451 -1.9853407
9.0629683 -8.8869076 -1.8349371
9.7067385 -8.2292862 -1.8396419
9.910449 -7.9992142 -1.841136
10.300781 -7.5236096 -1.8440067
10.487089 -7.2783413 -1.8453811
11.009024 -6.5145187 -1.8492495
11.170195 -6.2510943 -1.8504503
12.484375 -5.8442106 -1.9927251
12.896074 -5.2944856 -2.01528
13.263691 -4.3541183 -2.0180984
13.37039 -4.034533 -2.0189273
13.559394 -3.387419 -2.0204141
13.641582 -3.0603185 -2.0210714
13.715527 -2.7311509 -2.0216708
13.781094 -2.4001203 -2.0222116
13.838301 -2.0674562 -2.0226934
14.003086 -0.049645383 -2.0243282
13.969999 0.9631384 -2.0243301
13.941895 1.299793 -2.0242097
13.905175 1.6356061 -2.0240281
13.860097 1.9703509 -2.0237877
13.806464 2.3037915 -2.0234859
12.338418 4.6209779 -1.9046472
11.92627 4.7978024 -1.8583682
11.801894 5.0818944 -1.8575546
11.670429 5.3626218 -1.8566903
11.531992 5.6398263 -1.8557761
11.38668 5.9133167 -1.8548123
10.493515 6.4533958 -1.7808713
10.056523 6.5241613 -1.7329243
8.6195698 6.523767 -1.5627148
8.2005072 6.5236497 -1.5148438
7.8061523 6.5235386 -1.4706466
7.4339452 6.5234337 -1.4297638
7.0816793 6.523335 -1.3918829
6.7473826 6.5232382 -1.3567261
6.1262107 6.5230589 -1.2936524
5.7710743 6.4498839 -1.2511517
5.4875388 6.4390869 -1.2230178
5.2246094 6.4390097 -1.1987077
5.0448241 6.5334506 -1.1932782
4.7977343 6.5333762 -1.171778
4.3286328 6.5332322 -1.1329424
3.4732616 6.5329647 -1.0695882
3.2735937 6.5329003 -1.0563359
3.0786717 6.5328379 -1.0440093
2.888164 6.5327759 -1.0325605
2.7016797 6.5327148 -1.0219491
2.518867 6.5326548 -1.0121354
1.9895507 6.5324755 -0.98716599
1.8185155 6.5324183 -0.98024094
1.6498046 6.5323596 -0.97397423
1.483125 6.5323009 -0.96834892
1.3182617 6.5322437 -0.96334326
1.1549804 6.5321851 -0.95894438
0.67273438 6.5320115 -0.94926727
0.50726563 6.4487205 -0.93511117
0.35095704 6.4481139 -0.93352276
0.19509766 6.4480553 -0.9325617
-0.11763672 6.5322657 -0.94446129
-0.27539062 6.532207 -0.94513863
-0.43345702 6.532146 -0.9463678
-0.75128907 6.5320225 -0.95049846
-1.3991406 6.531765 -0.96565551
-1.5648242 6.5316978 -0.97094554
-2.0743749 6.5314889 -0.99067122
-2.2491992 6.5314159 -0.99860179
-3.173203 6.531024 -1.0496695
-3.3702734 6.5309386 -1.0624173
-3.572324 6.5308509 -1.0761126
-3.7797656 6.5307593 -1.0908086
-4.2127342 6.5305676 -1.1234469
-4.8458982 6.4372339 -1.164777
-5.6921873 6.5206285 -1.251261
-5.9752731 6.5204992 -1.278533
-6.9065037 6.5200672 -1.3730322
-8.3980465 6.5193624 -1.5369066
-9.6613283 6.7793198 -1.7061993
-10.106503 6.0510631 -1.7028708
-10.374374 5.549984 -1.7008603
-10.618437 5.0376525 -1.6990151
-10.731484 4.777595 -1.6981552
-11.747851 4.5646582 -1.8219845
-12.078203 4.0340805 -1.8408637
-12.249765 3.4442663 -1.8395135
-12.393808 2.8476067 -1.838356
-12.455488 2.5470903 -1.83785
-12.632382 1.3339666 -1.8363168
-12.659101 1.0286773 -1.8360568
-12.678808 0.72291076 -1.8358463
-12.696992 0.11050476 -1.8355752
-12.671543 -0.80796814 -1.8355414
-12.648984 -1.1134833 -1.8356298
-12.53918 -2.0259061 -1.8361938
-12.488632 -2.3281741 -1.836481
-12.366621 -2.929004 -1.8372036
-12.295293 -3.2272508 -1.8376386
-12.21707 -3.523849 -1.8381227
-12.040175 -4.111506 -1.8392367
-11.941563 -4.4022727 -1.8398663
-11.836249 -4.6908011 -1.8405436
-11.724257 -4.9769449 -1.841269
-11.480449 -5.5414453 -1.8428614
-11.348808 -5.8195105 -1.8437277
-10.258847 -5.9021735 -1.7109644
-10.051191 -6.1100841 -1.7004315
-8.9209375 -7.7471142 -1.7080419
-8.737812 -7.9658747 -1.7092859
-8.1577539 -8.596734 -1.7132406
-7.7462692 -8.9949818 -1.7160574
-7.7038083 -10.377993 -1.8684396
-7.4579687 -10.570388 -1.870133
-6.1611133 -11.445671 -1.8790991
-5.3335352 -11.897534 -1.8848455
-5.0502539 -12.03531 -1.8868165
-4.7634568 -12.166501 -1.8888137
-4.4733591 -12.291017 -1.8908361
-4.1800585 -12.408776 -1.8928827
-3.88375 -12.519671 -1.8949521
-3.5845506 -12.623636 -1.8970431
