# .PCD v0.7 - Point Cloud Data file format
VERSION 0.7
FIELDS x y z
SIZE 4 4 4
TYPE F F F
COUNT 1 1 1
WIDTH 1530
HEIGHT 1
VIEWPOINT 0 0 0 1 0 0 0
POINTS 1530
DATA ascii
5.7086034 16.672642 3.0562594
5.2645507 16.678432 3.0331457
4.3950534 16.689772 2.9931157
3.1281934 16.706301 2.9476597
2.7135887 16.711712 2.9362023
2.3019872 16.717087 2.9265313
1.8191112 28.185776 4.8983097
-22.317152 -6.201035 4.0169988
-22.759888 -6.9197612 4.1255488
-22.164745 -7.9257183 4.0823002
-6.3691745 -7.2523108 1.6739172
-6.2485547 -7.4711137 1.6891171
-6.0455418 -7.5934062 1.6832882
-5.4170065 -7.1514707 1.5558844
-5.075376 -7.8168378 1.6163278
-4.7984571 -7.7959399 1.5875976
-4.413003 -8.4900131 1.6594125
7.1124659 16.6542 2.722101
6.6444921 16.660303 2.6961026
6.185122 16.66629 2.6721377
5.7335792 16.672182 2.6501238
4.8511815 16.683693 2.611665
4.4190135 16.689333 2.5950987
3.9920506 16.694902 2.58023
2.1001611 18.33272 2.7736983
2.1264551 23.581705 3.5590539
1.6873975 25.607048 3.8574584
1.228545 29.464996 4.4328637
-14.572978 20.857849 3.8246722
-22.824287 -6.3088012 3.5594668
-22.704584 -8.084199 3.6227105
-21.811806 -8.3646259 3.5114496
-21.755497 -8.9509325 3.5361309
-20.525141 -9.0297537 3.3705904
-6.4628515 -6.9914017 1.431133
-6.1912303 -7.3823037 1.4482526
-5.3763766 -7.07797 1.3360498
-5.1376562 -7.4879217 1.365003
-4.7679396 -7.7229996 1.3642889
-4.6028366 -8.3295021 1.4304916
-4.3792138 -8.3972874 1.423566
-3.7205272 -8.5998697 1.408471
-8.8366547 -21.858257 3.5439525
-8.2282372 -21.856676 3.510474
-7.6308446 -21.855127 3.4796312
-7.04354 -21.853603 3.4513223
-5.8950925 -21.849167 3.4016914
-5.3328562 -21.848352 3.3805399
-4.7767234 -21.84539 3.3612604
-3.6798973 -21.8284 3.3274214
-2.0783057 -21.898672 3.3064783
-1.5499268 -21.950861 3.3077481
-1.0212451 -22.01181 3.312253
-0.49147949 -22.103359 3.3232737
0.042241208 -22.254185 3.3451333
0.58915037 -22.630156 3.4027932
1.2091454 -24.086609 3.6251259
10.896123 -8.7409868 2.0997293
11.918432 -8.2187128 2.1761694
12.101494 -7.5103397 2.1408701
12.120795 -7.1230946 2.1132529
13.175346 -7.3210058 2.2656488
28.062723 -9.117466 4.4352827
14.024487 16.564114 3.2624011
13.358871 16.572784 3.1996727
12.099824 16.58919 3.086416
11.50247 16.596975 3.0353322
10.924213 16.604509 2.9876211
10.36354 16.611816 2.9430785
9.2893801 16.625818 2.8627336
8.7734127 16.632544 2.8266098
8.2700043 16.639107 2.7929907
7.7781491 16.645517 2.7617514
6.8253856 16.657942 2.7059662
5.9082565 16.669905 2.6584563
5.0207419 16.681482 2.6185799
4.1574802 16.692743 2.5858138
2.4846778 16.714575 2.5400515
1.9143164 25.414215 3.8309484
-22.258236 -7.6907597 3.5398211
-21.527557 -8.0247679 3.4534175
-20.892694 -8.958437 3.4169943
-14.942128 -7.7308927 2.5288346
-6.3908005 -7.1213493 1.4382809
-5.1485448 -7.3549156 1.3495053
-4.8732958 -7.7304368 1.3736197
-4.6053562 -7.7118063 1.3501657
-4.6904492 -8.3030787 1.4334478
-4.0235448 -8.5062466 1.4144344
-3.8050878 -8.5736685 1.4099649
-9.0764208 -21.858881 3.5577047
-8.463418 -21.857286 3.5231705
-7.8618846 -21.855724 3.4913204
-6.1156688 -21.849487 3.4105229
-5.5506296 -21.848667 3.3884957
-4.9922462 -21.846836 3.3685429
-4.4395947 -21.842327 3.3503506
-3.8914306 -21.831669 3.3333383
-2.814038 -21.841269 3.3101971
-1.7554101 -21.930567 3.3070257
-1.2269238 -21.987068 3.3101163
-0.69734859 -22.050776 3.3162093
-0.1661084 -22.195305 3.3363702
11.083022 -8.6254044 2.1110015
11.393666 -8.4337683 2.1307809
12.11313 -7.2723393 2.1237192
12.133041 -6.891602 2.0974395
13.316855 -7.1446738 2.271615
27.700859 -9.2881317 4.3916759
13.614614 16.569452 3.2235515
12.964375 16.577925 3.1634066
12.337598 16.58609 3.1072359
11.732373 16.593977 3.0547841
10.579546 16.608999 2.9600339
10.028915 16.616179 2.9173257
9.4936323 16.623156 2.8774843
8.4643164 16.636574 2.8057723
7.0076365 16.655565 2.71614
6.0840573 16.667612 2.6670763
5.6341648 16.673479 2.6454871
4.7545896 16.684954 2.6078348
3.4763575 16.70163 2.5643029
3.0589256 16.707077 2.5530617
2.6448584 16.712482 2.5433927
2.2336915 16.717848 2.5352666
2.1534569 25.404472 3.8323572
-0.34166503 28.577314 4.2958918
-22.179224 -8.0314999 3.5457106
-20.79809 -8.1041489 3.3552072
-21.271034 -8.885354 3.4650869
-6.4367137 -7.0385199 1.4336877
-6.1445212 -7.4069715 1.4466021
-5.9359078 -7.5174527 1.4397806
-5.3662252 -7.1438608 1.3430337
-5.1313281 -7.565402 1.3740888
-5.092207 -7.912168 1.4143368
-4.1769137 -7.2346396 1.2557031
-4.5528955 -8.3445921 1.4288669
-4.1089354 -8.4799948 1.4164194
-7.499404 -21.854784 3.4731197
-6.9142284 -21.853266 3.4453616
-6.3379636 -21.851772 3.4200156
-5.769443 -21.848984 3.3967919
-5.2087402 -21.848171 3.3761401
-3.5596776 -21.829189 3.3245823
-3.0214207 -21.832716 3.3130484
-1.9608495 -21.910273 3.3065948
-0.90346676 -22.025982 3.3136084
0.71354491 -22.721054 3.4169891
3.20854 -7.7319889 1.2583249
11.272162 -8.5086927 2.1228948
11.012525 -7.9029489 2.0374832
12.029624 -7.7821527 2.1536133
12.105713 -7.4233031 2.1345401
11.436391 -6.6386003 1.987691
13.226738 -7.2569537 2.2677581
13.874243 16.566069 3.2480791
13.214312 16.574667 3.1863024
12.578652 16.582949 3.1286266
11.965249 16.590942 3.0747576
10.241138 16.613411 2.933583
8.6604147 16.634016 2.8189223
7.6702437 16.646925 2.755115
7.1912789 16.653172 2.7266347
6.721787 16.659292 2.7002895
6.2610254 16.665302 2.6759896
4.0627928 16.693979 2.5825899
3.6397216 16.699499 2.5691054
3.2207909 16.704966 2.5572433
2.3932421 16.715767 2.5382433
2.03562 17.159389 2.5973897
2.10958 22.388636 3.3802431
1.7776122 25.419546 3.8302543
-0.07484863 29.083849 4.3717332
-22.847265 -6.2164903 3.5591295
-23.043314 -8.1006613 3.6715362
-21.889805 -8.2938366 3.5186136
-21.603115 -8.7869558 3.5055995
-5.809453 -7.5846648 1.4360882
-5.3378077 -7.3286395 1.3628223
-5.1423483 -7.4306064 1.3583096
-5.2282958 -7.9585395 1.4313327
-4.6403074 -8.3181953 1.4317389
-4.4162645 -8.385994 1.4246466
-4.1945896 -8.453721 1.4185404
-3.974829 -8.5212469 1.413363
-3.7566943 -8.5886564 1.4090939
-8.3287201 -21.856937 3.5158584
-7.1406298 -21.853855 3.4558623
-5.9893603 -21.849304 3.4054265
-4.3172069 -21.839947 3.3463867
-3.7702684 -21.829313 3.3298426
-3.2302539 -21.831347 3.3172958
-1.6379101 -21.942173 3.3074019
-0.047080077 -22.228943 3.3413391
0.49672851 -22.562622 3.3923099
3.1382763 -7.7677636 1.2593048
11.662665 -7.7008996 2.1007595
28.51372 -6.4251995 4.3934913
13.467861 16.571362 3.209815
12.201245 16.587866 3.0952654
11.600527 16.595695 3.0435987
9.3765869 16.62468 2.869
8.8584127 16.631435 2.8324459
7.8592625 16.644463 2.7667925
6.439199 16.662977 2.6851993
5.9833932 16.668926 2.6621132
5.0936131 16.680532 2.6216183
4.6582956 16.686209 2.6040857
2.1426024 16.719038 2.5336664
2.0167041 25.410107 3.8315203
0.19712891 28.950268 4.3517451
-20.958286 -8.2963476 3.3881805
-6.2908201 -7.3001294 1.4485372
-5.8898044 -7.5419364 1.438396
-5.3559813 -7.2104483 1.3501309
-5.1531491 -7.2989111 1.343016
-4.6492677 -7.714787 1.353945
-4.3603368 -7.6468406 1.3231661
-4.2805371 -8.4274158 1.4208028
-4.0600734 -8.4950085 1.4152679
-9.1796236 -21.859148 3.5637176
-7.9612741 -21.855984 3.4964409
-6.2104392 -21.849623 3.4144106
-5.084795 -21.847456 3.3717589
-3.9823194 -21.833437 3.3360229
-3.4396679 -21.829975 3.321846
-2.3721728 -21.874958 3.3073995
-0.255 -22.170187 3.3327184
0.84306151 -22.923635 3.4480803
11.162768 -7.9203906 2.0573871
12.085693 -7.7267389 2.1561959
12.109951 -7.3367615 2.1283116
13.070912 16.576536 3.1731322
9.5817089 16.622007 2.8839254
9.0582762 16.62883 2.8463476
8.0499115 16.641975 2.7788112
7.5628858 16.648325 2.7485924
7.0860643 16.654545 2.720592
6.1596532 16.666624 2.670856
3.5462108 16.70072 2.5663292
2.7135742 16.711586 2.5448949
2.1037402 18.585712 2.811543
2.132534 24.011356 3.6234622
1.7694433 27.416294 4.1296406
1.1857128 29.390232 4.4213724
-0.22856933 28.792006 4.3279896
-14.607597 20.847433 3.8263762
-22.629385 -8.0918598 3.6124489
-21.713705 -8.9680414 3.5313013
-20.473129 -9.0398464 3.364048
-6.4562936 -7.0032282 1.43177
-6.1794772 -7.3885088 1.4478338
-5.9704685 -7.4991131 1.4408489
-5.3738327 -7.0944767 1.3377957
-5.1360741 -7.5072966 1.367273
-4.5902634 -8.3332996 1.4300781
-4.3667774 -8.4010792 1.4232068
7.5897655 16.647839 2.3302019
5.7335253 16.672052 2.2453897
5.2891111 16.677849 2.2283301
3.9920897 16.695038 2.1862068
3.151494 16.706202 2.1652105
-0.86808592 28.249809 3.5995681
-14.38101 25.510691 3.7297039
-14.089404 23.641203 3.5050759
-13.834761 21.989511 3.3087375
-14.928584 21.366835 3.319665
-22.807714 -6.3042221 3.0136931
-22.193617 -6.7149076 2.953099
-21.187006 -8.1250143 2.889972
-6.2670703 -7.1166816 1.2077194
-4.6974316 -7.6088009 1.138847
-4.7787156 -8.1754017 1.2060397
-4.3341112 -8.3107958 1.1937402
-4.1152344 -8.3781471 1.1888031
-9.4558392 -21.856876 3.0329995
-8.8365574 -21.858013 3.002701
-8.2281446 -21.856436 2.9743371
-7.6307664 -21.854887 2.9482064
-5.3329444 -21.84873 2.8643301
-2.6078808 -21.85738 2.8034792
-2.0783544 -21.899139 2.8015866
-1.5499609 -21.951332 2.8026619
-1.0212696 -22.012358 2.8064926
3.1613719 -7.7353354 1.064267
11.399419 -7.860806 1.7635412
11.893154 -7.7846847 1.8103317
11.914296 -7.3941607 1.7858639
11.517402 -6.7684937 1.7013906
28.058681 -8.3733149 3.7292595
14.02435 16.56395 2.7641516
13.358745 16.572626 2.7110085
12.717871 16.58098 2.6613882
12.099711 16.589037 2.6150494
11.502363 16.596823 2.5717685
8.2699413 16.638968 2.3664377
7.7780857 16.645386 2.3399689
7.2968554 16.651659 2.3154235
5.461113 16.675606 2.2347775
4.5863867 16.687128 2.2040694
4.1575146 16.692841 2.1909299
3.3136668 16.704048 2.168869
2.0744922 16.71983 2.145751
2.0855176 20.930439 2.6788814
2.1081543 27.987597 3.574574
0.081440426 29.162638 3.714143
-14.197993 24.339794 3.5887454
-16.166855 21.323172 3.4079931
-22.084482 -6.4563489 2.9303908
-22.326542 -7.714365 3.0084386
-21.782227 -8.7238817 2.9883854
-20.783554 -8.9116344 2.8800397
-14.942915 -7.7312975 2.1427517
-6.3205419 -7.0430579 1.2052358
-5.2065086 -7.833456 1.1979245
-4.3999414 -7.367825 1.0929478
-4.4197702 -8.284524 1.1958718
-4.2001123 -8.3519917 1.1906314
-7.8617916 -21.855486 2.9581072
-6.6890621 -21.852448 2.9105785
-6.1157761 -21.849871 2.8897336
-5.5507274 -21.849047 2.8710732
-3.8914404 -21.831718 2.8242905
-2.8140869 -21.841656 2.8047273
-2.2840674 -21.882067 2.8020177
-1.7554443 -21.931034 2.8020487
-0.16611327 -22.196447 2.8269954
0.37415525 -22.475855 2.8628986
11.260459 -8.3351707 1.7842693
11.131445 -7.8311253 1.7333736
11.906069 -7.544703 1.7951639
13.0425 -7.4081736 1.9103341
28.357841 -8.7531471 3.7797699
12.33749 16.585938 2.6326895
11.732265 16.593828 2.5882461
11.146782 16.601458 2.5467312
9.4935493 16.623013 2.4380281
7.9680176 16.642904 2.3500278
7.4827585 16.649233 2.3247445
7.0075779 16.655432 2.3013229
6.5415769 16.66151 2.2796872
6.0840039 16.66748 2.2597528
5.6341209 16.673347 2.2414629
4.75458 16.684885 2.2095664
4.3236618 16.690626 2.1958666
3.8977978 16.696291 2.1836019
3.4764209 16.701889 2.1727264
3.0589795 16.707424 2.1632135
2.2336915 16.717842 2.1480901
1.663584 27.493622 3.5079663
1.0218701 28.134447 3.5855424
-0.33987305 28.427639 3.6207776
-1.0180029 28.199343 3.5937843
-14.312572 25.073771 3.6770046
-15.101445 21.369101 3.3325582
-15.895893 21.379507 3.393023
-16.33312 20.895107 3.3777308
-22.229502 -6.8561826 2.9627304
-20.623573 -8.0361471 2.8189561
-6.2364111 -7.1589408 1.2091959
-6.0976954 -7.3505259 1.216343
-5.8636327 -7.4259315 1.2050527
-5.2265382 -7.7057748 1.185845
-4.9549022 -7.6988268 1.1660346
-4.6260691 -7.5839481 1.1313952
-4.5058103 -8.2582836 1.1981338
-4.2852635 -8.325799 1.1925759
-4.0668259 -8.3930883 1.1878107
-3.8501122 -8.4601593 1.1838055
-6.3378906 -21.851538 2.8976891
-5.7695508 -21.849367 2.8780999
-4.6538815 -21.84466 2.8445525
-4.1039014 -21.835846 2.8296828
-3.5596972 -21.82933 2.8168838
-2.4900196 -21.866364 2.8028755
-1.9608837 -21.910742 2.8016851
-1.4323828 -21.962946 2.8031204
-0.90350097 -22.026525 2.8076391
-0.37342283 -22.137861 2.8198581
11.1408 -8.4095354 1.7777313
10.641226 -7.6364923 1.6681207
11.897851 -7.696908 1.804736
13.182861 -7.2328773 1.915061
12.57854 16.582794 2.6508117
11.965141 16.590788 2.6051691
10.797964 16.606005 2.5227246
10.241045 16.613266 2.4855566
8.1595993 16.640406 2.3603804
7.1912107 16.653036 2.3102171
6.2609763 16.665171 2.2673068
4.9236178 16.682634 2.2152874
4.4905958 16.688402 2.2010231
4.0628223 16.694099 2.1882031
3.6397655 16.699718 2.1767919
3.2208495 16.705278 2.166754
2.8055322 16.710705 2.1580443
2.3932567 16.715849 2.1506264
2.0324171 17.132414 2.1972694
2.1052685 22.343 2.8582077
1.2893164 28.200853 3.5953844
-13.874867 22.251011 3.3396728
-15.583559 21.375414 3.3690166
-16.241894 21.185097 3.3998153
-22.166943 -6.6097946 2.9459949
-22.329287 -7.2492847 2.9899538
-6.151792 -7.2757292 1.2134628
-5.9433737 -7.3834152 1.2071481
-5.3918896 -8.2075663 1.2506927
-4.5922165 -8.2319899 1.2005185
-4.1515331 -8.3669558 1.1895719
-3.9341795 -8.434103 1.1852738
-9.5603418 -21.857121 3.0383449
-7.7294822 -21.855141 2.9524038
-5.9894676 -21.849688 2.8854163
-4.3172169 -21.839994 2.8353467
-2.1663525 -21.891043 2.8016448
-1.6379541 -21.94264 2.8023715
-1.1093554 -22.001762 2.8056817
-0.5796777 -22.079573 2.8130038
3.1373875 -7.7655563 1.0667179
11.273007 -7.8406277 1.7488384
11.889633 -7.8507652 1.8145785
11.910771 -7.4583945 1.7898096
11.932324 -7.0769501 1.76687
28.373173 -6.3935261 3.70419
13.467739 16.571205 2.7195992
11.600425 16.595545 2.5787683
11.019106 16.603123 2.5378821
10.455606 16.610468 2.4997034
9.9085054 16.617601 2.4640734
7.376245 16.650621 2.3193779
6.9031639 16.656794 2.29636
6.4391503 16.662846 2.2751081
4.2285352 16.691896 2.1930175
3.3832958 16.703125 2.1704972
2.9666357 16.708647 2.1612799
2.5532227 16.713854 2.1533554
2.1425927 16.718981 2.146729
1.5582665 28.267641 3.6056063
0.86956543 28.09663 3.5800755
0.1974121 28.991606 3.6924322
-0.4915576 28.376574 3.6145556
-1.1674902 28.149015 3.5881119
-14.246299 24.649574 3.6259546
-14.502695 21.361258 3.288312
-16.031015 21.321388 3.3973951
-16.496206 20.871986 3.3882425
-21.964926 -6.3257608 2.9111297
-22.265638 -6.9983883 2.9725087
-21.892103 -8.6660042 2.9986615
-6.343369 -7.0116315 1.2042074
-6.2056785 -7.2013226 1.210711
-6.0666552 -7.3934894 1.2180477
-5.8181639 -7.4502029 1.2039062
-5.6148629 -7.5589719 1.1992364
-5.2654834 -7.4580207 1.1627213
-4.8800049 -7.672606 1.1580801
-4.529336 -7.5157776 1.1175845
-4.6789746 -8.205637 1.2030221
-4.2365332 -8.3407822 1.1914487
-9.8059225 -21.8577 3.0510831
-9.1795311 -21.858904 3.0194466
-7.9611912 -21.855742 2.9624484
-6.7852635 -21.852695 2.9142153
-6.2105565 -21.850006 2.8930278
-5.6442676 -21.849184 2.8740466
-5.0848241 -21.847551 2.8568518
-4.5313525 -21.84384 2.8412359
-3.4396825 -21.830116 2.8145645
-1.8433789 -21.92235 2.8018625
-1.3149463 -21.977028 2.8039811
0.28303221 -22.409254 2.8542497
0.8433789 -22.932478 2.9226346
11.209135 -8.3670607 1.7814462
11.71768 -7.8961029 1.7995633
13.004399 -7.4557743 1.9091257
28.725224 -6.7566161 3.7582617
13.725126 16.567852 2.7400644
11.831611 16.592533 2.5954366
10.11938 16.614853 2.4776354
8.5479975 16.635344 2.3820004
7.5628219 16.648191 2.3288209
6.618525 16.660507 2.2831674
6.1596045 16.666494 2.2629557
5.7085104 16.67238 2.2443955
4.3950195 16.689678 2.1980481
3.9683447 16.695354 2.1855469
3.5462549 16.700962 2.1744397
2.0455468 18.071724 2.3162951
2.1507275 24.216295 3.0963054
1.7830126 27.626343 3.5257857
1.136206 28.162834 3.58971
-14.074263 23.543497 3.4934022
-13.821469 21.902788 3.2984893
-14.971929 21.367401 3.3228841
-16.296581 21.02178 3.3875911
-22.171528 -7.3297753 2.9740505
-21.042612 -8.1022396 2.871763
-20.15835 -21.866053 3.7876921
-6.2593751 -7.1272893 1.2080871
-5.2844191 -7.3377776 1.1516538
-5.0658545 -7.4046688 1.1426318
-4.6793995 -7.6025085 1.1369601
-4.7661524 -8.1792078 1.2056515
-4.5427442 -8.2470369 1.1991394
7.590703 16.649902 1.9128445
6.6454 16.66255 1.875235
2.2257812 6.4722185 0.71546263
2.0525048 6.472116 0.70976853
1.8818749 6.4720135 0.70457137
1.713623 6.4719119 0.69985378
1.5475146 6.4718132 0.69560224
1.0460449 6.3877192 0.67663282
0.58492672 6.4867435 0.68084121
0.42743164 6.4866509 0.67955166
0.11377929 6.4864702 0.67816621
-0.042744141 6.4863811 0.67806667
-0.19932617 6.4862909 0.67836303
-0.35612792 6.4862018 0.67905438
-0.51334471 6.4861126 0.68014389
-0.67115235 6.4860234 0.68163478
-0.98933589 6.4858451 0.68583816
-1.1500781 6.485755 0.68856335
-1.3122119 6.4856644 0.69171417
-1.6414502 6.4854836 0.69933534
-2.3262451 6.4851079 0.72021389
-2.5043993 6.4850116 0.72670299
-2.8710742 6.4848161 0.74135649
-3.0602391 6.484715 0.74957001
-3.4520068 6.4845061 0.76792264
-4.1207371 6.5496635 0.8089059
-4.4716649 6.4001727 0.81616116
-15.716592 21.376961 2.7736001
-16.534018 21.387665 2.8259375
-17.102598 21.053114 2.8354509
-22.121225 -7.2800517 2.4344504
-20.213335 -21.86644 3.1128268
-6.0469823 -7.21031 0.98371106
-5.9085398 -7.4008074 0.98995662
-5.1952977 -7.5719323 0.95993251
-5.2067041 -7.9954681 0.99740463
-4.7297606 -8.0916395 0.97976303
-4.5087547 -8.1592531 0.97448927
-4.0736961 -8.2935638 0.9659062
-10.089218 -21.857996 2.5165865
-9.4556885 -21.85651 2.4894052
-5.8952928 -21.849932 2.3657608
-5.3330417 -21.849108 2.3510518
-3.1408446 -21.832214 2.3057265
-2.6079297 -21.857763 2.3011098
-2.0783935 -21.899607 2.2995603
-1.0212939 -22.012903 2.3035941
-0.49153808 -22.105616 2.3113816
1.2137256 -24.177769 2.5306048
12.166157 -7.9633832 1.5200082
11.733876 -7.2821879 1.4436221
12.854976 -7.5545554 1.5586654
28.510595 -8.5081768 3.1102328
13.358613 16.57247 2.2251465
12.717763 16.580824 2.1844199
10.364042 16.612617 2.0468383
6.8262939 16.660133 1.8820913
2.2939208 6.47226 0.71781474
2.1195557 6.472156 0.71192199
1.9479247 6.4720526 0.70653319
1.6118554 6.4718523 0.69720048
1.4469433 6.4717546 0.69322616
1.2702588 6.4033451 0.68241638
0.79251462 6.3875713 0.67284364
0.33143553 6.4865961 0.67895919
0.17467284 6.4865055 0.67831129
0.018105468 6.4864154 0.67805862
-0.13842285 6.4863248 0.67820114
-0.60971189 6.4860578 0.68100768
-1.2489941 6.4857001 0.69043869
-1.4120654 6.4856086 0.69385451
-1.7435937 6.4854264 0.70202607
-1.9124999 6.4853349 0.70680618
-2.0838232 6.4852409 0.71206951
-2.2578125 6.4851456 0.71783322
-2.434751 6.4850507 0.7241165
-3.1779687 6.4846516 0.75489867
-13.168202 23.880274 2.8507009
-4.1207275 6.6880484 0.82118529
-4.3829198 6.4002175 0.81088835
-15.406811 21.372906 2.7541974
-16.212549 21.383457 2.8051617
-22.220697 -7.6777868 2.4575913
-21.405912 -7.9794292 2.3880785
-22.230804 -8.9035378 2.5033498
-14.944238 -7.7319894 1.7589068
-6.10041 -7.136919 0.9814651
-5.9625635 -7.326436 0.9874481
-5.715127 -7.379169 0.97568053
-5.6658249 -7.6919274 0.9986639
-5.2149901 -7.4498391 0.95061463
-4.8163962 -8.0652037 0.98199093
-4.1576414 -8.2675467 0.96737641
-9.7003956 -21.857084 2.4997411
-7.8617086 -21.855246 2.4279561
-7.2706003 -21.853716 2.4075885
-6.1158886 -21.850254 2.371902
-4.9922948 -21.847027 2.3426452
-4.4396143 -21.842421 2.329987
-2.8141308 -21.842043 2.3021319
-2.2841015 -21.882454 2.2999096
0.94482422 -23.158207 2.4228582
10.842094 -7.6275692 1.3857504
12.100522 -8.0835915 1.5212173
12.129102 -7.6860366 1.5010523
12.999751 -7.3838921 1.5628445
28.765087 -7.3795824 3.1043386
28.39246 -6.5581284 3.0461571
12.964135 16.577614 2.1999249
12.33749 16.585949 2.1608884
11.73249 16.594135 2.1244462
10.029497 16.617126 2.0289502
9.4943066 16.624336 2.0012658
8.9732275 16.631348 1.9754641
8.4651318 16.638174 1.9514416
7.4836912 16.651337 1.9083645
7.0085254 16.657696 1.8891602
6.5425339 16.663925 1.8714144
1.8442577 6.4719915 0.70348155
1.5108398 6.4717922 0.69471723
1.3470312 6.4716949 0.69101697
1.0108789 6.3876996 0.67604595
0.23558593 6.4865408 0.67851621
-0.23416016 6.4862723 0.67848283
-0.39104003 6.4861822 0.67926204
-0.86515135 6.4859161 0.68400896
-1.0249707 6.4858255 0.68640852
-1.3484765 6.4856448 0.69247478
-1.6785156 6.4854631 0.70029432
-1.8465478 6.4853702 0.7048912
-2.1898291 6.4851823 0.71553206
-2.3655908 6.4850869 0.72161037
-2.5444677 6.4849906 0.72822064
-2.9127781 6.4847927 0.74313092
-3.1028807 6.4846916 0.7514807
-3.2974119 6.4845877 0.76047057
-13.255849 24.581818 2.9194722
-4.1207175 6.8307195 0.83391994
-4.5229445 6.4001455 0.81924117
-16.720074 21.390104 2.8380752
-6.1536179 -7.0639057 0.97931868
-5.7935057 -7.3371134 0.97726393
-5.7209616 -7.6161032 0.99574369
-5.5400586 -7.7582512 0.99655789
-5.1838622 -7.6428428 0.96538204
-4.6804004 -8.1067171 0.97853422
-4.2418699 -8.2414808 0.96894181
-4.0258007 -8.3084249 0.96510816
-9.9471436 -21.85766 2.510371
-8.7001705 -21.857416 2.4592211
-6.3378172 -21.851303 2.3783646
-4.1039157 -21.835896 2.3225772
-3.5597167 -21.82947 2.3120868
-3.0214648 -21.832998 2.304064
-1.9609326 -21.911207 2.2996454
3.2085106 -7.7319207 0.87508571
11.310517 -8.5376406 1.4813724
12.105229 -7.8310661 1.5071253
12.093281 -7.4156842 1.4829241
12.911172 -7.4946795 1.5605819
13.139545 -7.2091107 1.5666962
28.211338 -8.9987411 3.0954688
27.702656 -8.1054821 3.0173061
13.873974 16.565752 2.2588067
11.965283 16.590986 2.1383202
9.1742382 16.628645 1.9852798
8.6612005 16.635536 1.9605774
7.1921582 16.655239 1.8964508
6.7226901 16.66152 1.8781451
2.4315917 6.4723444 0.72275722
2.0811522 6.4721317 0.71068114
1.5750244 6.4718289 0.69627732
1.2345849 6.4033246 0.68169862
1.0724024 6.3877349 0.67708528
0.91452146 6.3876419 0.67453933
0.75773436 6.3875504 0.67240322
0.61120605 6.4867582 0.68109512
0.45360839 6.4866667 0.67973769
0.13984375 6.486485 0.6782214
-0.016699219 6.4863958 0.67805588
-0.17324218 6.4863067 0.67828625
-0.64483887 6.4860382 0.68135834
-0.9626953 6.4858608 0.68542522
-1.1232324 6.4857707 0.68808043
-1.4485546 6.4855914 0.69467378
-2.1222656 6.48522 0.7133075
-2.2968946 6.4851251 0.71918488
-2.4745264 6.4850287 0.72558671
-2.8399901 6.4848318 0.74004894
-3.0284667 6.4847307 0.74816036
-12.920503 21.879177 2.6561742
-4.4335251 6.4001923 0.8138873
-15.583437 21.375214 2.7652309
-22.094496 -7.173059 2.4283173
-20.978178 -7.9484186 2.3450818
-21.430586 -8.716774 2.4184713
-6.0698776 -7.1788502 0.98273498
-5.931704 -7.3689098 0.9888708
-5.6225586 -7.7195969 0.99832457
-5.2037692 -7.519372 0.95591044
-4.7766552 -7.6680579 0.94438338
-4.7668018 -8.0803308 0.98070431
-4.1095948 -8.2824326 0.966524
-8.9389009 -21.858034 2.4686174
-6.5608544 -21.851879 2.385026
-5.9895749 -21.850067 2.3683648
-5.426157 -21.849245 2.3533914
-4.3172264 -21.840044 2.3272293
-2.696162 -21.851038 2.3015196
-2.1663964 -21.891428 2.2995992
-1.109375 -22.002304 2.302933
-0.57970214 -22.080696 2.3090014
-0.047075193 -22.231228 2.3239453
3.1364989 -7.7633629 0.8752557
11.198793 -8.1968946 1.4507474
12.17644 -8.0401459 1.5253143
11.729965 -7.3451748 1.4467593
12.811523 -7.5983915 1.5570843
28.373457 -8.5915127 3.0990112
13.467612 16.571049 2.2322004
12.822837 16.579454 2.1910076
10.456177 16.611374 2.0518429
9.9091845 16.61875 2.0226243
9.3772802 16.62591 1.9953696
8.8591795 16.632875 1.9699734
7.3771973 16.652761 1.9039673
6.9041162 16.659094 1.8850906
2.3232324 6.4722781 0.71884537
2.1483788 6.4721732 0.71286666
1.9763086 6.4720697 0.70739591
1.6394873 6.471868 0.69790649
1.4742676 6.4717703 0.69385666
1.3108447 6.471673 0.69025403
0.97577149 6.3876786 0.67547971
0.6623584 6.3874955 0.67129594
0.51481932 6.486701 0.68021852
0.35757324 6.4866104 0.67910552
0.20074219 6.4865203 0.67839199
-0.26902342 6.4862518 0.67862213
-0.42598143 6.4861627 0.67948991
-0.74157715 6.4859858 0.68242842
-0.90059566 6.4858952 0.68450654
-1.3848095 6.4856243 0.69325501
-1.7156934 6.4854422 0.70127606
-1.8842236 6.4853497 0.70597839
-2.0551317 6.4852557 0.71116042
-2.5846972 6.4849687 0.7297653
-2.7677879 6.4848709 0.73705703
-3.3413134 6.4845648 0.76255947
-12.995058 22.484627 2.7147512
-4.1233249 6.4003544 0.79588288
-4.3452783 6.4002385 0.80867249
-4.5746188 6.4001188 0.82236892
-21.489849 -8.5067654 2.4160438
-20.833988 -8.8343716 2.3655932
-5.98562 -7.2947192 0.98640501
-5.7486377 -7.3611803 0.97634715
-5.6894627 -7.6594043 0.99740034
-5.2233152 -7.3982935 0.94670635
-5.2010546 -7.7574883 0.97632354
-4.1936669 -8.2563925 0.96803433
-3.9779882 -8.3232727 0.96433955
-9.8057566 -21.85733 2.5042517
-7.36832 -21.85397 2.4108629
-6.7851901 -21.852461 2.3919339
-6.2106543 -21.850389 2.3746068
-5.0848436 -21.847647 2.3448849
-3.9823291 -21.83353 2.3200235
-1.8434179 -21.922815 2.2997882
-1.3149853 -21.97757 2.3015325
-0.78569335 -22.041246 2.3055453
-0.2550244 -22.172455 2.3179531
0.28305176 -22.412052 2.34303
0.84370601 -22.941296 2.3997893
11.386714 -8.0792933 1.4594991
12.139072 -7.7608647 1.5061321
11.628701 -7.0451989 1.4212967
28.056923 -8.7838707 3.0733101
28.511854 -6.7064281 3.0618265
12.440229 16.58456 2.1671975
11.243305 16.600746 2.0959148
10.673213 16.608444 2.0637589
8.0507565 16.643732 1.9327072
7.5637646 16.650263 1.9117099
6.619482 16.662901 1.8742709
2.3920166 6.472321 0.72131026
2.0429003 6.4721098 0.70946503
1.7042773 6.4719071 0.69960415
1.1989795 6.4033051 0.68100154
1.0372021 6.3877139 0.67648435
0.87958008 6.3876224 0.67402935
0.41864258 6.4866462 0.67949033
0.10502929 6.4864655 0.67815
-0.20808594 6.4862857 0.6783905
-0.52215332 6.4861078 0.68021679
-0.83864254 6.4859304 0.6836493
-0.99828613 6.4858403 0.68597931
-1.4851415 6.4855704 0.69551528
-1.6507568 6.4854779 0.69957393
-1.8184277 6.4853864 0.70409375
-1.9883789 6.4852934 0.70908737
-2.5144677 6.4850063 0.72708356
-2.6961572 6.4849091 0.73415405
-3.0709374 6.4847088 0.75004715
-3.2647069 6.4846048 0.75892818
-13.073437 23.118114 2.7763085
-4.1207371 6.5301089 0.80717987
-4.2581348 6.4002838 0.80359495
-4.4845262 6.4001651 0.8169325
-22.23624 -6.7605591 2.429523
-22.130234 -7.316124 2.4365239
-22.48077 -8.0387192 2.4957516
-21.741518 -8.371356 2.4354036
-6.0392871 -7.2208905 0.98404217
-5.6258202 -7.4271483 0.97398436
-5.1924314 -7.5896764 0.96129239
-5.1887937 -7.9915166 0.9960379
-4.5920801 -7.4606433 0.91579115
2.5812743 6.4722977 0.57011139
2.4019091 6.4721904 0.56483197
2.0524609 6.4719815 0.55551481
1.8818359 6.4718804 0.55144697
1.5474805 6.4716825 0.54442716
1.2078955 6.4031806 0.53313643
0.58491212 6.4866157 0.53287488
0.42742676 6.4865241 0.53186476
0.27044433 6.4864335 0.53116852
0.11377929 6.4863434 0.53078157
-0.19932128 6.4861636 0.53093594
-0.35611814 6.4860744 0.53147656
-0.82973629 6.485806 0.53498107
-1.1500586 6.4856253 0.53891951
-1.8089551 6.4852591 0.55086637
-2.3262012 6.4849734 0.56368971
-2.8710108 6.4846768 0.58023727
-3.8643358 6.4841385 0.61758882
-4.0794382 6.484024 0.62677336
-4.2455859 6.4001398 0.62838531
-4.4715576 6.4000201 0.6387831
-16.533867 21.387463 2.211802
-17.383257 21.398586 2.2556872
-20.213696 -21.866856 2.4364147
-19.256742 -21.867329 2.3839867
-18.339581 -21.867783 2.335094
-5.8306589 -7.3032689 0.76461518
-5.6919141 -7.4933834 0.76991206
-5.3334031 -7.7732162 0.77129853
-5.1271629 -7.873333 0.76872987
-4.9031348 -7.9419918 0.76365811
-4.4634814 -8.0773287 0.7550621
-10.089043 -21.857624 1.969667
-9.4555321 -21.856148 1.9483972
-8.8363619 -21.857527 1.9289545
-8.2279634 -21.855953 1.9107324
-7.0433102 -21.852892 1.8785381
-6.4651661 -21.851398 1.8644476
-5.8954053 -21.850309 1.8516833
-5.3331347 -21.849487 1.8401693
-4.7767868 -21.845673 1.829601
-4.2258058 -21.838312 1.8199148
-2.6079688 -21.858147 1.8010775
-2.0784423 -21.900068 1.7998776
-1.5500244 -21.952263 1.8005667
-1.0213183 -22.013445 1.8030365
-0.49156249 -22.106733 1.8091818
0.042250976 -22.257607 1.8210782
1.2160058 -24.22327 1.9844012
11.051049 -7.6205778 1.0983076
12.726235 -7.4788928 1.2077285
12.986034 -7.2158146 1.2155032
27.866123 -9.0535908 2.3972683
28.413418 -7.005899 2.3943629
19.651728 16.529707 2.1010253
6.2585888 6.3907537 0.73185575
5.9643993 6.3918142 0.71528625
5.895781 6.6321087 0.72604078
5.481421 6.4740653 0.69405472
4.2588038 6.4733124 0.63397765
4.0383692 6.4731793 0.62423718
3.6166065 6.4729228 0.60666168
3.2170458 6.4726801 0.59138638
2.8362401 6.4724503 0.57817566
2.4712548 6.4722309 0.5668332
1.107666 6.38763 0.53042263
0.94951171 6.387537 0.52835828
0.48858887 6.4865594 0.5322209
-0.13842285 6.4861979 0.53080887
-0.45214355 6.4860196 0.5319612
-0.92713374 6.4857502 0.53604537
-1.7435595 6.4852948 0.5494557
-2.0837793 6.4851065 0.55731732
-2.4346972 6.4849138 0.56674528
-2.6148632 6.4848161 0.57208574
-2.9861279 6.4846134 0.58410919
-3.1779003 6.4845099 0.59083647
-3.3742578 6.4844036 0.59807217
-3.5756006 6.4842935 0.60584593
-3.9950438 6.4840679 0.62312561
-4.3828173 6.4000678 0.63465697
-15.406665 21.372707 2.1556551
-17.867622 21.343794 2.2774398
-22.424608 -7.147428 1.9256799
-22.00267 -7.6024566 1.904653
-14.945444 -7.732614 1.3767843
-18.691713 -21.867607 2.3537099
-5.7460694 -7.419127 0.76778853
-5.5738134 -7.5670214 0.7689476
-4.5481639 -8.051198 0.75657487
-4.3311081 -8.1183424 0.75284284
-10.339155 -21.858208 1.9783715
-9.7002296 -21.856716 1.9564804
-9.0761175 -21.858149 1.9364429
-8.4631443 -21.856562 1.9176477
-7.8616257 -21.855007 1.9003081
-7.2705221 -21.853479 1.8843731
-6.1160007 -21.850632 1.8564925
-5.5509129 -21.849804 1.8445034
-4.9923096 -21.847118 1.8335683
-3.8914452 -21.831812 1.8143921
-3.3499999 -21.830986 1.8070804
-2.2841454 -21.882837 1.8001418
-1.7555273 -21.931965 1.800173
-1.2270215 -21.988699 1.8018744
-0.16613281 -22.198709 1.816311
0.94518554 -23.167149 1.8970697
11.723779 -8.2478456 1.1728103
12.172148 -7.7133188 1.1790237
12.626166 -7.5803514 1.2049307
28.696142 -7.3618908 2.4238977
19.702597 16.259302 2.0900543
18.375254 16.71773 2.0325394
6.0764647 6.3906403 0.72150451
5.5865965 6.4741311 0.69964993
5.3194284 6.4739652 0.68555862
4.8154149 6.4736552 0.66012722
3.9068992 6.4730988 0.61860597
3.4923096 6.472847 0.60176194
3.0988281 6.4726081 0.5871402
2.7231591 6.4723835 0.57451916
2.5410986 6.4722733 0.56890029
2.3624659 6.472167 0.56371444
2.1869726 6.4720612 0.55894607
2.0143018 6.4719596 0.55457747
1.8442236 6.4718585 0.55059403
1.6764746 6.4717593 0.54698467
1.3470068 6.4715652 0.5408389
0.85341793 6.3874807 0.52725494
0.69701171 6.3873892 0.52570647
0.39248046 6.4865031 0.5316838
-0.077558592 6.4862332 0.53072923
-0.23415527 6.4861441 0.53102875
-0.86512691 6.4857855 0.53535432
-1.0249511 6.4856963 0.53723186
-1.1859814 6.4856057 0.53943801
-1.512539 6.4854226 0.54486418
-1.6784815 6.4853311 0.54810029
-1.8465136 6.4852386 0.55169827
-2.0168653 6.4851432 0.55566907
-2.189785 6.4850483 0.56002545
-2.3655419 6.4849515 0.56478375
-3.1028125 6.48455 0.58816254
-3.7013037 6.4842267 0.6108731
-4.1219773 6.4743109 0.62796342
-15.895591 21.379108 2.1797071
-16.719896 21.3899 2.2213025
-17.527056 21.34058 2.2594204
-22.174047 -6.8390808 1.8985717
-22.382719 -7.4994402 1.931375
-21.609175 -7.8250718 1.8803717
-21.715551 -8.4616566 1.906842
-20.851973 -8.7103071 1.8489339
-19.049496 -21.867432 2.3728244
-5.7999659 -7.3452921 0.76574433
-5.4875293 -7.6846938 0.7725969
-5.2445359 -7.7323098 0.76443678
-4.8537254 -7.9571605 0.76260102
-4.415205 -8.0922413 0.7542305
-4.1995358 -8.1592398 0.75080884
-9.9469671 -21.857292 1.9647994
-8.0942087 -21.85561 1.9068792
-6.9139891 -21.852558 1.8752962
-6.337749 -21.851068 1.8614984
-5.2088184 -21.848572 1.8377099
-4.6539307 -21.844851 1.8274167
-2.4901073 -21.867134 1.8006924
-1.9609667 -21.911673 1.7999377
-0.37345701 -22.140114 1.8117203
0.16217773 -22.326456 1.8267559
0.71381348 -22.729713 1.8606213
3.2084961 -7.7318864 0.68491542
11.52704 -8.2721786 1.1608437
11.558862 -7.8796134 1.1445633
12.086709 -7.8190842 1.1778042
12.178349 -7.4678473 1.1688309
12.783691 -7.4206762 1.2093847
13.044316 -7.1568608 1.2173477
28.042168 -8.9447813 2.4082546
18.332617 16.367273 2.0107524
18.445009 17.285154 2.0682297
5.9005175 6.3917756 0.71172881
5.4220362 6.47403 0.69092375
4.9104733 6.4737139 0.66480422
4.6686521 6.4735651 0.65302718
4.4351172 6.4734221 0.64202666
4.2091894 6.4732828 0.6317535
3.9902637 6.4731498 0.62216187
3.7777538 6.4730206 0.61320817
3.5711572 6.4728947 0.60485351
3.3699951 6.4727716 0.59706783
2.9822655 6.4725394 0.58308011
2.6114647 6.4723163 0.57103252
2.4315331 6.4722085 0.56568146
2.0811133 6.4720001 0.55622876
1.9100585 6.4718976 0.55209839
1.7414404 6.4717984 0.54834378
1.574995 6.4716983 0.54495651
1.4104931 6.4716034 0.54192322
1.2345556 6.4031973 0.53354567
1.0723877 6.3876081 0.52993482
0.75772458 6.3874235 0.52627164
0.61119628 6.486629 0.53307354
-0.016694335 6.486269 0.53069472
-0.17323729 6.4861784 0.53087538
-0.32999024 6.4860892 0.53136504
-0.48712403 6.4860001 0.53216594
-0.80328125 6.4858208 0.53471208
-1.2850878 6.4855499 0.54095107
-1.7809228 6.4852753 0.55025542
-1.9503417 6.4851799 0.55408001
-2.6553955 6.4847941 0.5733313
-2.8399315 6.484694 0.57921445
-3.0284033 6.4845905 0.58556366
-3.2211473 6.4844851 0.5923999
-4.2086864 6.4001594 0.62672377
-17.239546 21.396704 2.2481692
-17.912182 21.165215 2.2686162
-22.633251 -6.7488351 1.932387
-22.409374 -7.2752862 1.9276992
-22.32708 -7.8488755 1.9363497
-22.411938 -8.4916611 1.9609119
-20.377104 -21.866772 2.4455056
-19.413164 -21.86725 2.3924603
-18.489605 -21.867706 2.3430345
-5.7151413 -7.4615331 0.76899213
-5.5425096 -7.6096959 0.77025145
-5.368125 -7.7568612 0.77180845
-4.499702 -8.0661507 0.75570172
-10.195835 -21.857874 1.973367
-8.9387884 -21.857792 1.9321313
-8.3284473 -21.856213 1.9136688
-7.729321 -21.854666 1.8966452
-7.1404052 -21.853144 1.8810116
-6.560781 -21.851645 1.8667049
-5.4262547 -21.849621 1.8420047
-4.8689499 -21.846291 1.8312801
-3.770288 -21.829458 1.8124899
-3.2303123 -21.83177 1.8056823
-2.6962109 -21.851421 1.8014014
-2.1664257 -21.891813 1.799898
-1.6380175 -21.943571 1.8003765
-1.1093946 -22.002846 1.8025192
-0.047084961 -22.232357 1.8190128
1.0833887 -23.463711 1.9218036
11.334307 -8.2960882 1.1492233
11.838246 -8.2337656 1.1798266
11.813237 -7.8003259 1.158236
11.685327 -7.3172221 1.1280508
12.942529 -7.2598419 1.214151
28.796415 -7.9663601 2.4445662
28.533535 -7.1571894 2.4068859
18.29126 16.024469 1.9896368
18.51828 17.873957 2.105772
6.3091159 6.3907852 0.73475581
5.5262403 6.4740925 0.69643158
5.2614503 6.4739299 0.6825552
4.7616601 6.4736223 0.65751052
4.2961764 6.4733367 0.63566494
3.6508203 6.4729424 0.60803205
3.249541 6.4726996 0.59257597
3.0562255 6.4725833 0.5856418
2.5011034 6.472249 0.5677104
2.3231835 6.4721427 0.56261933
2.148335 6.4720378 0.55794096
1.9762744 6.4719367 0.55365902
1.8067285 6.4718351 0.54975951
1.136875 6.4031401 0.53208601
0.51480466 6.4865742 0.53238755
0.044160154 6.4863029 0.53070831
-0.58342284 6.4859452 0.53280991
-0.74156249 6.4858551 0.5341174
-1.3847754 6.4854946 0.54259092
-2.055083 6.4851236 0.55660367
-2.2286181 6.4850273 0.56104904
-3.1456738 6.4845266 0.58968246
-3.5417137 6.484313 0.60451323
-4.1232276 6.4002056 0.62291199
-4.3451757 6.4000874 0.63292187
-16.076176 21.381472 2.1887085
-16.90749 21.392355 2.230942
-22.305326 -7.0108509 1.9130054
-22.367426 -7.6280789 1.9335589
-21.518602 -8.5181475 1.8935391
-19.782984 -21.867067 2.4126456
-5.9069724 -7.1988807 0.76190215
-5.7691746 -7.3874722 0.76690215
-5.5971923 -7.5351763 0.76799041
-5.4494386 -7.7185769 0.77305359
-5.1998191 -7.7556357 0.76397276
-4.8044577 -7.9722991 0.76157039
-4.5845213 -8.0399904 0.7572459
-4.367085 -8.1071749 0.75342774
-9.8056002 -21.856962 1.9600106
-9.1793213 -21.858416 1.9397134
-7.3682418 -21.853733 1.8869289
-6.7851124 -21.852224 1.8721185
-6.2107663 -21.850771 1.8586078
-4.5313964 -21.844028 1.8252883
-3.9823241 -21.833578 1.815855
-2.3723047 -21.876118 1.8003585
-1.3150146 -21.978109 1.8014249
-0.78571779 -22.04179 1.8045663
0.84403318 -22.950087 1.8790027
11.145527 -8.3195829 1.1379446
11.639028 -8.2583179 1.1676428
12.170473 -7.780941 1.1818799
28.219971 -8.8349152 2.4194145
28.912832 -6.8007445 2.4301589
19.724121 16.144308 2.085449
19.274023 16.568394 2.0795341
18.47126 17.496874 2.0816715
6.4286766 6.3908601 0.74166119
5.8957567 6.7771721 0.73495376
5.3631544 6.4739923 0.68783784
4.8559375 6.4736795 0.66211456
4.6160398 6.4735332 0.65051591
4.1599269 6.4732537 0.62956297
3.9424658 6.4731207 0.62011564
3.7313135 6.472991 0.61129928
3.3259618 6.4727468 0.59541166
3.1308641 6.4726276 0.58827943
2.7538085 6.4724016 0.57549816
2.0428612 6.4719768 0.55527711
1.5382519 6.4716778 0.54425138
1.3741504 6.4715815 0.54129606
1.0371777 6.3875871 0.52946413
0.57608885 6.4866104 0.53281021
0.41863281 6.4865189 0.53181791
-0.20808105 6.4861579 0.53095657
-0.36490235 6.4860697 0.53151655
-0.52214843 6.4859805 0.53238648
-0.67998046 6.4858913 0.53357053
-1.321294 6.4855304 0.54153305
-1.4851074 6.4854388 0.54435986
-1.6507226 6.4853473 0.54753631
-1.9883349 6.4851589 0.55498123
-2.3360791 6.4849677 0.56396359
-2.6960986 6.4847722 0.57459962
-3.070874 6.4845672 0.58703947
-3.2646387 6.4844623 0.59399003
-3.4631641 6.4843545 0.60146195
-3.6668701 6.4842448 0.60948288
-4.2580323 6.4001346 0.62894863
-4.4844236 6.4000125 0.63938749
-15.761381 21.37735 2.1730592
-16.580526 21.388073 2.2141798
-17.431713 21.399221 2.2582281
-22.064003 -6.7081909 1.8868268
-21.94684 -7.8477979 1.9069973
-22.264868 -8.5728607 1.9520395
-20.159126 -21.866882 2.4333892
-5.9601269 -7.1262474 0.76010191
-5.8229442 -7.3138261 0.76489562
-5.6841063 -7.5040984 0.7702226
-5.3217478 -7.7787066 0.7711305
-4.8907032 -7.9458079 0.76338941
-4.6697364 -8.0137396 0.75886762
-4.451333 -8.0810814 0.75485122
-4.2352977 -8.148119 0.75134504
3.1415672 6.4724941 0.42581284
2.950742 6.4723806 0.42099792
2.5812159 6.4721613 0.41239333
2.4018555 6.4720559 0.40857452
2.2256835 6.471951 0.40505844
2.0524218 6.4718499 0.40183502
1.5474463 6.4715533 0.3938162
1.2078711 6.4030547 0.38564834
1.0460058 6.387465 0.38307616
0.88832027 6.3873758 0.38167435
0.58490235 6.4864874 0.38545913
0.42741698 6.4863968 0.3847287
-0.042744141 6.4861259 0.38388869
-0.1993164 6.4860382 0.38405639
-0.51332515 6.4858575 0.38506392
-0.82972169 6.4856791 0.38698226
-0.98929197 6.4855876 0.38828856
-1.1500342 6.4854984 0.38983139
-1.3121582 6.4854069 0.3916153
-1.4758739 6.4853129 0.39364609
-1.641377 6.48522 0.39592895
-1.9787304 6.4850335 0.40128449
-2.1510499 6.4849358 0.40437284
-2.3261523 6.484838 0.40774885
-2.6858008 6.4846401 0.41540802
-3.0601025 6.4844327 0.42436796
-3.2536132 6.4843254 0.42937544
-3.4518504 6.4842181 0.43475831
-3.6552441 6.484107 0.44053739
-4.2454882 6.3999896 0.45454511
-4.4714551 6.3998661 0.46206665
-16.616465 21.494301 1.6079497
-18.215712 21.349392 1.66099
-18.798525 20.985165 1.6674619
-23.439199 -7.0917764 1.4493533
-22.544281 -8.0271206 1.4163394
-21.568739 -8.2713995 1.3671918
-20.214096 -21.867268 1.7624667
-5.7550635 -7.208569 0.5459277
-5.6176124 -7.3955545 0.54966015
-5.3369141 -7.7783341 0.55830187
-4.4192724 -7.9973254 0.54078031
-11.400234 -21.860312 1.4591681
-10.736718 -21.858765 1.4413468
-9.4553757 -21.855782 1.4093765
-8.8362646 -21.857286 1.3953363
-8.2278757 -21.855715 1.3821545
-5.8954978 -21.850689 1.339476
-5.3332276 -21.849861 1.3311465
-3.6799901 -21.828962 1.3101782
-3.1408789 -21.832495 1.3054559
-2.6080174 -21.85853 1.3028708
-2.0784717 -21.900532 1.3020071
-1.5500586 -21.952724 1.3025049
-0.49159178 -22.107849 1.3087741
0.042246092 -22.258738 1.3173816
12.026816 -8.7289801 0.87952816
11.633569 -8.0222797 0.83636701
11.835351 -7.7468491 0.83718717
12.34748 -7.6630034 0.86008024
8.9411573 6.4772577 0.65344894
8.501255 6.4769888 0.63253981
8.0883789 6.4767337 0.61327088
7.699697 6.4764972 0.59547883
6.9853125 6.476059 0.56376344
6.6555371 6.4758587 0.54960126
5.9642382 6.391645 0.51740402
5.7552829 6.4740667 0.51268232
5.4812794 6.4739008 0.50204617
4.7215672 6.4734402 0.47421354
4.4862647 6.473299 0.46613556
3.8243895 6.4729009 0.4449684
3.6165233 6.4727764 0.43883148
3.4142041 6.4726567 0.4331111
3.2169774 6.4725385 0.4277826
2.6518848 6.4722028 0.41396332
2.2938232 6.4719915 0.40639052
1.611792 6.47159 0.39472076
0.94949216 6.3874102 0.38219178
0.64631349 6.4865227 0.38580519
0.3314209 6.486342 0.3843933
0.018105468 6.4861603 0.38388306
-0.13841796 6.4860711 0.38396347
-0.60968751 6.4858036 0.3855522
-0.76795411 6.4857135 0.38653761
-0.92712402 6.4856229 0.38775313
-1.0873877 6.4855328 0.38920227
-1.4120117 6.4853497 0.39282623
-1.7435205 6.4851642 0.39745238
-2.2577198 6.4848771 0.40640137
-2.6148095 6.4846792 0.41382155
-2.7985058 6.4845781 0.41800293
-2.9860644 6.4844742 0.42251921
-3.1778271 6.4843683 0.42738479
-3.3741846 6.4842596 0.43261945
-3.5755272 6.4841495 0.43824187
-3.78229 6.484036 0.44427413
-3.994956 6.4839201 0.45074189
-4.1595798 6.4000359 0.45175704
-17.13418 21.501076 1.6271844
-17.953466 21.446342 1.6553521
-18.747211 21.32716 1.6805856
-22.328407 -7.7150092 1.3981662
-21.041943 -8.427392 1.3415338
-18.692055 -21.868008 1.702634
-5.5327048 -7.5112109 0.55213195
-5.3921485 -7.7029166 0.55649656
-5.1651564 -7.7712326 0.55226606
-5.2016745 -8.2513428 0.57729322
-4.7200928 -7.9039359 0.54486024
-4.503037 -7.9712949 0.54185331
-4.2883639 -8.0382071 0.53920943
-9.7000732 -21.856352 1.4152377
-7.8615332 -21.854767 1.374613
-6.6888475 -21.851742 1.352535
-5.5510058 -21.85018 1.3342825
-4.9923339 -21.847212 1.3263544
-3.8914599 -21.83186 1.3124844
-3.3500242 -21.831125 1.3071982
-2.8142383 -21.842808 1.3034512
-2.2841942 -21.883221 1.3021921
-1.7555615 -21.932426 1.3022207
-1.2270508 -21.989235 1.3034561
-0.69740719 -22.052959 1.3058548
0.37430176 -22.484289 1.3309152
12.001454 -8.4431934 0.8684715
12.249951 -7.7626181 0.85832286
12.501698 -7.5056224 0.86301875
12.756806 -7.2459049 0.86830395
28.774452 -8.1267843 1.7696334
9.1202097 6.4773674 0.6620636
8.2458982 6.4768314 0.62057936
7.8481197 6.4765873 0.60223144
7.4729638 6.4763565 0.58526975
6.3770361 6.3906512 0.53432828
6.0763035 6.3904681 0.52189541
5.5864549 6.4739642 0.50609356
5.3192968 6.4738016 0.49590164
5.0625391 6.4736457 0.48638839
4.1231737 6.4730802 0.45422745
3.293081 6.4725833 0.42980942
3.0987597 6.4724689 0.42471099
2.9088817 6.4723554 0.41997465
2.7231004 6.4722452 0.41558227
2.362417 6.4720316 0.40776688
2.1869237 6.4719281 0.40431717
1.8441845 6.4717264 0.39827606
1.5107763 6.4715314 0.39331511
1.3469824 6.4714346 0.39121962
0.85340816 6.3873539 0.38139373
0.69699705 6.3872638 0.38027343
0.54982907 6.4864664 0.38527709
0.078964844 6.4861965 0.38391295
-0.077553712 6.4861078 0.38390654
-0.23415038 6.4860172 0.38412368
-0.54835933 6.4858379 0.38523269
-0.70631832 6.4857488 0.386127
-1.1859618 6.4854779 0.39020705
-1.8464794 6.4851065 0.39907423
-2.0168262 6.4850116 0.40194702
-2.9126561 6.4845147 0.42072326
-4.1232176 6.4762554 0.45438752
-4.2951026 6.3999624 0.45617491
-15.975004 21.485905 1.5846167
-16.803423 21.496748 1.6148556
-22.188868 -7.4344921 1.3849994
-21.374647 -8.3288155 1.3577038
-19.997671 -21.867371 1.7537997
-19.049833 -21.867834 1.7164645
-18.139164 -21.866024 1.6814712
-5.4470458 -7.628005 0.55475187
-5.2432909 -7.7304702 0.55283934
-4.5871387 -7.9451776 0.5429799
-11.251255 -21.859966 1.4550921
-10.591376 -21.858427 1.4375556
-9.946806 -21.856926 1.4212549
-9.3163233 -21.855459 1.4061301
-8.0941257 -21.855371 1.3793683
-6.9139209 -21.852324 1.3565173
-6.3376904 -21.850838 1.3465304
-5.7698536 -21.850502 1.3375509
-5.2088428 -21.848663 1.3293524
-4.6539502 -21.844944 1.3219064
-3.5597703 -21.82975 1.3090564
-3.0214989 -21.833277 1.3045126
-1.9610107 -21.912134 1.3020529
-0.90356934 -22.028154 1.3048315
0.16219726 -22.329216 1.3215878
0.71390134 -22.732574 1.3460901
3.2084765 -7.731853 0.49544585
11.750546 -7.6016169 0.82829285
12.403438 -7.6058712 0.86112595
28.45624 -8.3259697 1.7547899
28.557364 -7.6125736 1.749187
9.3040619 6.4774799 0.67096829
8.407217 6.4769292 0.62811935
7.9999461 6.4766803 0.60919338
6.4979148 6.3907242 0.53940886
5.9003563 6.3916059 0.51483166
5.6933398 6.4740286 0.51025224
5.4218946 6.4738641 0.49977997
5.1611915 6.4737067 0.49000838
4.9103513 6.4735541 0.48088822
4.2090917 6.4731326 0.4569824
3.9901707 6.473001 0.4500441
3.7776709 6.4728742 0.44356626
3.5710742 6.4727507 0.43752533
3.1737645 6.4725127 0.42665008
2.9822021 6.4723992 0.42177474
2.7948778 6.4722891 0.41725037
2.6114061 6.4721794 0.41306046
2.2547998 6.4719682 0.40562284
1.4104687 6.4714727 0.3920044
1.2345312 6.4030695 0.38594481
1.0723681 6.3874807 0.38333219
0.75770503 6.3872991 0.38068098
0.61118162 6.4865031 0.38560334
0.13983399 6.4862309 0.38397506
-0.016699219 6.4861407 0.38388291
-0.8032617 6.4856925 0.38678679
-1.1231836 6.4855118 0.38955733
-1.2850635 6.4854217 0.3913011
-1.448501 6.4853287 0.39328995
-1.6137011 6.4852362 0.395531
-1.7808887 6.4851432 0.39803129
-1.9503027 6.4850483 0.40079787
-2.2967968 6.4848552 0.4071666
-2.4744189 6.4847565 0.41079023
-2.6553369 6.4846573 0.41472334
-2.8398681 6.4845548 0.4189775
-3.2210741 6.4843435 0.42851624
-3.4185009 6.4842353 0.43383589
-3.6210203 6.4841251 0.43954679
-3.8290575 6.4840117 0.44567475
-4.2085938 6.4000101 0.45334366
-15.661122 21.481798 1.5734032
-16.477573 21.492483 1.6028464
-18.066397 21.347439 1.6551855
-18.77668 21.130907 1.6730371
-23.503242 -7.0082464 1.4515594
-22.551283 -9.1726093 1.4408761
-20.377489 -21.867188 1.7690438
-18.489956 -21.868105 1.6948831
-17.601234 -21.865891 1.6613181
-5.640625 -7.3642359 0.54901379
-5.3605957 -7.7459898 0.55752242
-5.2044044 -8.3547239 0.58256483
-4.4550929 -7.9861908 0.54123288
-10.846035 -21.85902 1.4442251
-10.195674 -21.857504 1.4274505
-9.5598583 -21.856026 1.4118756
-8.9387007 -21.857548 1.3976349
-7.7292285 -21.854427 1.3719653
-7.1403317 -21.852907 1.3606524
-4.317246 -21.840139 1.3176187
-3.7702978 -21.829504 1.3111054
-2.6962547 -21.851803 1.3031073
-2.1664648 -21.892195 1.3020145
-1.6380517 -21.944033 1.3023709
-0.57976562 -22.082924 1.3074261
1.0838232 -23.472876 1.3907208
11.5504 -8.0335646 0.83270198
11.820142 -7.804884 0.83832151
12.305683 -7.705687 0.85932034
28.617432 -7.9168468 1.7573444
8.5725288 6.4770303 0.63590103
7.3923874 6.4763088 0.58166975
7.0418506 6.4760942 0.56622237
6.0124707 6.391674 0.51935655
5.8020263 6.4740958 0.51452607
4.524878 6.4733219 0.46744278
3.8595507 6.4729228 0.44603103
3.4475195 6.4726772 0.43403533
3.2494628 6.472558 0.42864364
3.0561621 6.4724445 0.42362806
2.8672266 6.4723296 0.41896787
2.6822948 6.4722223 0.41465026
2.3231347 6.4720087 0.40697479
2.1482909 6.4719062 0.40358961
1.9762353 6.4718037 0.40049225
1.8066943 6.4717045 0.39767182
1.310791 6.471415 0.39078733
1.1368555 6.4030132 0.38488844
0.51479489 6.4864469 0.38510573
0.044160154 6.486176 0.38389143
-0.11236816 6.4860883 0.38393462
-0.90055662 6.4856377 0.38753358
-1.060625 6.4855475 0.38894454
-1.7156298 6.4851785 0.39702728
-3.1456103 6.4843864 0.42654967
-3.7474706 6.4840555 0.44324049
-4.123198 6.4001651 0.45059431
-4.3450732 6.3999357 0.4578279
-16.991962 21.499216 1.6218624
-23.269077 -7.3137751 1.4436047
-22.15666 -8.1580868 1.397405
-19.78335 -21.867476 1.7452692
-18.844496 -21.867933 1.7085104
-4.7564597 -7.892662 0.54539472
-11.103134 -21.859619 1.4510815
-9.1792183 -21.858171 1.4031171
-8.5642481 -21.856585 1.3893405
-6.7850485 -21.851992 1.3542187
-6.2108788 -21.851149 1.3444879
-3.9823582 -21.833628 1.3135406
-1.8435107 -21.92374 1.302135
-1.3150488 -21.978649 1.3031311
-0.25504881 -22.174707 1.3124959
11.395786 -7.6791887 0.81330001
12.226318 -7.8166409 0.85886061
12.393212 -7.5083814 0.8576048
28.56794 -6.7196217 1.7369399
9.1983051 6.477416 0.6658389
7.9126949 6.4766264 0.60518539
7.5339551 6.4763947 0.58800215
6.8365674 6.4759698 0.55733472
6.4284959 6.3906817 0.53648102
6.1254001 6.3904986 0.5239076
5.8943944 6.454278 0.51732361
5.3630128 6.4738288 0.49754837
4.3841453 6.473238 0.46271667
3.1307909 6.4724884 0.42553511
2.9402001 6.4723735 0.42073944
2.7537498 6.4722638 0.41629073
2.5710986 6.4721551 0.41217178
1.704209 6.4716449 0.39608091
1.3741162 6.4714518 0.39155012
1.1989306 6.4030499 0.38555008
1.037163 6.3874602 0.38299164
0.87954098 6.3873687 0.38160276
0.72296387 6.3872781 0.38044295
0.26167968 6.4863019 0.38420272
-0.20807616 6.486033 0.3840721
-0.52213866 6.4858527 0.38510573
-0.99824703 6.4855828 0.38836777
-1.1590625 6.4854922 0.38992384
-1.6506884 6.4852152 0.39606428
-1.988291 6.4850273 0.40144956
-2.1607616 6.484931 0.40455428
-2.3360252 6.4848332 0.40794632
-2.6960449 6.4846344 0.41564086
-3.0708055 6.4844265 0.42463821
-3.4630907 6.4842119 0.43507111
-4.0915575 6.4838676 0.45376372
-4.2579246 6.399982 0.45495209
-15.840121 21.48414 1.5797818
