# .PCD v0.7 - Point Cloud Data file format
VERSION 0.7
FIELDS x y z
SIZE 4 4 4
TYPE F F F
COUNT 1 1 1
WIDTH 1543
HEIGHT 1
VIEWPOINT 0 0 0 1 0 0 0
POINTS 1543
DATA ascii
-1.145454 15.628337 3.450876
-1.5257422 15.633825 3.4592128
-1.9081396 15.639531 3.4696498
-2.2931151 15.645456 3.482228
-2.6811621 15.651618 3.4969802
-3.4684472 15.664687 3.5332003
-28.618988 -6.2542572 6.4511642
-27.288237 -7.3587136 6.2240324
-27.364902 -8.0923233 6.2842302
-26.702353 -8.6020632 6.1779456
-10.65082 -7.3043442 2.844089
-10.238037 -8.581954 2.9419332
-9.1791897 -8.0792599 2.6929009
-9.5691795 -8.841177 2.8690624
-8.828681 -8.9841051 2.7738738
-18.561283 -21.845303 6.3127728
-17.67038 -21.843441 6.1872263
-16.00395 -21.861074 5.9663882
-14.436953 -21.859388 5.7689624
-13.690112 -21.857447 5.6796174
-12.965644 -21.85556 5.5962076
-9.6164398 -21.837206 5.2545958
-8.9903469 -21.828426 5.1987681
-8.3819141 -21.832441 5.1500578
-7.2245655 -21.924019 5.0834537
-6.104404 -22.05048 5.0385656
-5.571836 -22.195723 5.0395637
-5.0636573 -22.451529 5.0684266
-4.5841455 -22.884125 5.1396222
5.4284425 -8.8513269 2.2866061
4.8880954 -7.5550895 1.9816345
5.190752 -7.6136913 2.0292652
5.6920753 -7.9310117 2.1498194
6.4415331 -8.1180658 2.2821715
6.5691891 -7.8807898 2.259372
7.7685008 -7.3144011 2.3497446
7.9287009 -7.1123428 2.3456094
23.491117 -7.1881804 5.4099493
8.4506102 16.69553 4.1208134
7.8637009 16.512854 4.0277228
6.7747655 16.195469 3.8660119
6.266572 16.058031 3.7960064
5.7790232 15.933264 3.7324646
5.3098288 15.820208 3.6748989
4.4185596 15.626033 3.5760674
2.4346826 15.585798 3.4739025
1.2910352 15.597595 3.4466238
0.91312498 15.601863 3.4416952
0.53608888 15.606298 3.4388225
-0.59439451 15.620715 3.4424565
-1.3520166 15.631296 3.4551497
-1.7334374 15.636902 3.4646275
-2.1172266 15.642727 3.4762268
-27.732172 -8.5982199 6.3939342
-27.087181 -9.1200123 6.294126
-11.094736 -6.6789594 2.8518202
-10.836982 -6.8852911 2.8274481
-10.587792 -7.0911283 2.8062563
-10.931176 -8.1112165 2.9975772
-8.887475 -8.0319033 2.6380157
-17.217285 -21.86396 6.1285148
-15.566762 -21.860037 5.9098382
-14.027842 -21.858324 5.7196035
-13.293393 -21.856413 5.633533
-11.886899 -21.852758 5.4782681
-9.2734222 -21.830549 5.2232609
-8.6579828 -21.83062 5.1717887
-8.0623827 -21.852871 5.1294827
-7.4841747 -21.898359 5.0962882
-2.2312109 -7.7279387 1.7713467
-5.8141403 -22.127224 5.0382276
-5.285459 -22.289436 5.0446601
-4.7963572 -22.646868 5.097877
-4.1060205 -25.369608 5.6595531
5.866797 -7.9520736 2.1762075
6.2049899 -7.9991465 2.2294142
6.5111227 -7.9882064 2.2694919
6.701787 -7.456821 2.2078834
6.7016163 -7.104208 2.1507285
7.6952977 -7.4068866 2.3521113
22.867601 -9.1421242 5.4233928
23.453072 -8.0876808 5.4632683
23.495991 -7.4733768 5.4296861
7.014082 16.262638 3.900233
5.5217137 15.870383 3.7004471
5.061626 15.763339 3.6459475
4.6168361 15.666777 3.596801
2.6103563 15.584133 3.4797225
2.2258544 15.587827 3.4675446
0.33121094 15.608788 3.4381146
-0.045424804 15.613508 3.4383969
-0.4222998 15.618413 3.4407175
-0.79994136 15.62351 3.4450896
-1.5592333 15.634318 3.4600439
-2.3271289 15.645988 3.4834368
-3.1074023 15.658601 3.5155551
-28.607201 -6.3152323 6.4515162
-27.416849 -7.4557443 6.2569642
-27.271444 -8.1275568 6.2667089
-26.539448 -8.6116896 6.1444612
-11.108256 -6.5216637 2.8366792
-10.313291 -6.3943748 2.6722922
-10.663169 -7.3460903 2.8515358
-10.65502 -7.7259965 2.898365
-10.262212 -7.8256927 2.8420479
-19.406479 -21.847063 6.4351478
-18.481524 -21.845137 6.3013897
-15.137753 -21.859018 5.8553581
-10.849697 -21.846823 5.3717031
-10.199365 -21.844835 5.3091536
-9.5607367 -21.836128 5.2494445
-8.9364252 -21.828783 5.194335
-6.0563912 -22.058741 5.037508
-5.5251608 -22.20892 5.0398917
-4.0078759 -27.005424 6.0122285
5.7200098 -7.934371 2.1540105
6.4528174 -8.0969687 2.2800825
6.1788378 -7.3806329 2.1197269
6.7014551 -7.2624679 2.176187
6.7020993 -6.9204922 2.1215546
7.6219873 -7.4995975 2.3547781
23.50186 -7.7609787 5.4504461
23.476362 -6.5151105 5.3653202
9.0148678 16.877981 4.2137995
8.3978024 16.678783 4.1122789
6.2229395 16.046577 3.7901721
5.7370896 15.922873 3.7271729
4.8179102 15.709558 3.6185749
3.9652393 15.572563 3.5387914
2.400825 15.586123 3.4728346
2.0177636 15.589905 3.4618177
0.88 15.602243 3.4413638
0.12635742 15.611335 3.4380162
-0.62756836 15.621161 3.4428415
-1.0057812 15.626367 3.4483325
-1.3854932 15.63178 3.4559011
-1.7670605 15.637404 3.4655614
-2.1510253 15.643247 3.4773464
-2.9281201 15.655637 3.5074425
-3.7207959 15.669033 3.5465603
-27.697744 -7.923883 6.3442483
-27.011099 -9.158185 6.280941
-11.092168 -6.7094769 2.8548093
-11.337417 -7.2370062 2.9620073
-10.610371 -7.5169144 2.8635499
-10.508481 -7.8321714 2.8862133
-9.7114058 -8.8139706 2.8881159
-18.898529 -21.846004 6.3612304
-17.994223 -21.844118 6.2324438
-17.142168 -21.863779 6.1182632
-16.304668 -21.86179 6.0058646
-15.496992 -21.859873 5.9009104
-14.716553 -21.858019 5.8028708
-12.518652 -21.854399 5.5464096
-11.826894 -21.852602 5.4719391
-9.850976 -21.841761 5.276536
-8.0112648 -21.856771 5.1264019
-7.4340868 -21.903311 5.0937643
-5.7675047 -22.140409 5.0384369
-4.3248925 -23.439478 5.2489362
-4.086421 -25.592386 5.7073064
5.5609131 -8.7647419 2.2858682
5.0086765 -7.4886918 1.9840115
5.5232568 -7.8418937 2.1122816
5.8954344 -7.9555364 2.1805723
6.252285 -8.0249262 2.2402871
6.5222998 -7.9674077 2.2675016
7.1880126 -7.2299485 2.2451458
7.709414 -7.3890491 2.3516312
7.8697557 -7.1866488 2.3469663
23.488626 -8.0442686 5.4675684
8.0761909 16.578106 4.0609727
7.5082564 16.406025 3.973289
6.9675827 16.249468 3.893523
6.451201 16.107119 3.8210094
4.5784178 15.658774 3.5927286
3.3542137 15.577504 3.5090773
2.9635937 15.580898 3.4927156
0.29805663 15.609197 3.4380586
-1.212124 15.629287 3.4521914
-2.7496827 15.652727 3.4998009
-26.80414 -6.6593761 6.082211
-27.45706 -7.5292411 6.2697673
-20.343296 -7.7534552 4.7943206
-10.383691 -6.4685321 2.6940799
-10.538071 -6.9230347 2.7766683
-9.9718065 -8.0266457 2.8189993
-9.0835981 -8.063715 2.6748626
-9.5019817 -8.8540411 2.8601427
-8.7660103 -8.9962893 2.76614
-16.682856 -21.862688 6.0561872
-15.861845 -21.860737 5.9478931
-15.069233 -21.858856 5.8467507
-14.304038 -21.859039 5.7528172
-13.561259 -21.857109 5.6645441
-12.840508 -21.855236 5.5821362
-12.140068 -21.853418 5.5052567
-11.456152 -21.84766 5.4325871
-10.791997 -21.846743 5.3660483
-8.8826218 -21.829138 5.1899271
-8.2774506 -21.83646 5.1426878
-7.1248875 -21.933874 5.0786886
-6.0097313 -22.071934 5.0376005
-5.4784813 -22.222115 5.0402408
-4.163198 -24.349539 5.4400282
-3.9989989 -27.344198 6.0857487
5.4652634 -8.8272295 2.2863414
4.9633398 -7.6005492 1.9990588
5.2804933 -7.6752539 2.0516171
6.4640574 -8.0759649 2.278012
6.5939112 -7.8426366 2.256423
7.9568067 -7.0769219 2.3450286
22.201517 -8.4858112 5.2341509
22.694437 -8.0523138 5.3030005
23.39934 -6.4404011 5.3445902
8.9592037 16.859697 4.2044816
8.3452444 16.662188 4.1038203
7.7636814 16.482487 4.012249
7.2110252 16.319042 3.9289691
6.6838522 16.170349 3.8532176
5.2291503 15.801489 3.6653686
4.342905 15.610867 3.5683532
3.9302197 15.572834 3.5369563
3.5336375 15.576003 3.5172863
3.1413231 15.57933 3.4999013
2.3670948 15.586448 3.4717824
1.9842285 15.590246 3.4609549
1.6035546 15.594206 3.4522388
1.2245409 15.59833 3.445611
0.84687012 15.602629 3.4410415
0.46986815 15.6071 3.4385288
-0.66080076 15.621611 3.4432421
-1.0391259 15.626836 3.4489169
-1.8007128 15.63791 3.4665115
-2.1848924 15.643769 3.4784853
-2.9626122 15.656206 3.5089681
-3.7560399 15.669645 3.5484934
-27.722059 -8.723978 6.4000683
-26.935326 -9.196208 6.2678404
-11.119081 -6.3958788 2.8248184
-11.089604 -6.7400732 2.8578191
-10.424345 -8.6187801 2.9786539
-9.334424 -8.1045141 2.7222979
-9.2966061 -8.8934021 2.8332064
-18.817583 -21.845839 6.3495555
-17.067305 -21.8636 6.1080742
-13.897222 -21.857983 5.7040582
-13.166592 -21.856083 5.6190128
-12.457158 -21.85424 5.5396595
-11.092919 -21.847158 5.3958063
-9.7948732 -21.840672 5.2712479
-7.9601121 -21.860676 5.1233435
-7.3840137 -21.908258 5.0912633
-2.1985643 -7.7377872 1.7714523
-4.2879539 -23.518606 5.2646055
-4.0665088 -25.818701 5.7558417
5.9241648 -7.9590116 2.1849577
6.3000436 -8.0509682 2.2512801
6.687417 -7.745173 2.2534418
7.7235055 -7.3712406 2.3511636
7.8838282 -7.1689062 2.3466241
22.971615 -9.0709295 5.4388909
23.819916 -8.7478743 5.5881414
23.524302 -8.0007534 5.4719062
23.493822 -7.3631487 5.4219189
23.758032 -6.8211827 5.4433312
8.621006 16.749947 4.1485462
8.0251074 16.562338 4.052938
7.4597459 16.391693 3.9659863
6.9212742 16.236408 3.8868694
6.4068847 16.095242 3.814961
5.4396629 15.850779 3.6904635
4.1126122 15.571435 3.5467024
2.542578 15.584773 3.477427
1.7769384 15.59238 3.4559543
1.3971826 15.596431 3.4483736
-0.11158691 15.614352 3.4386537
-0.48856443 15.619291 3.4413402
-2.3950536 15.647058 3.4859014
-27.23477 -7.6666956 5.5658121
-27.617992 -8.4986811 5.6843829
-26.968472 -9.0164642 5.5938482
-10.43997 -6.6020193 2.4299257
-8.9916992 -8.9129877 2.490581
-18.151333 -21.845444 5.5872641
-14.85148 -21.857922 5.1984873
-14.093262 -21.858217 5.1162004
-13.35686 -21.856308 5.0388508
-9.9633446 -21.843369 4.7228837
-9.3285694 -21.831675 4.6703272
-8.7114887 -21.83042 4.6237516
-7.5345068 -21.893894 4.5548334
-6.9663768 -21.950048 4.5302277
-2.2509422 -7.7347593 1.584692
-5.3296289 -22.265409 4.5037494
-4.3992529 -23.288843 4.6623669
-4.1250243 -25.149008 5.0133805
-3.9731884 -28.513638 5.6633496
5.0158348 -7.5686316 1.7861642
5.2487497 -7.5196629 1.8039709
5.7863083 -7.8778648 1.9228369
6.4244676 -7.916101 2.0055487
6.5580029 -7.6936655 1.9887064
6.5613575 -7.3317389 1.9355136
6.8974509 -7.3429041 1.9818166
7.5121241 -7.6202826 2.1049862
7.8150487 -7.1976714 2.0900481
23.513178 -8.8052807 4.9391737
23.551996 -8.1776428 4.9044476
23.534781 -7.540647 4.8615632
8.5907173 15.510351 3.4879193
8.1091652 15.512343 3.4433644
7.6395555 15.51447 3.4019277
6.7263327 16.590044 3.5216069
5.8154149 16.601173 3.460335
5.3712301 16.606636 3.4334567
4.9336667 16.612041 3.4089706
4.5020995 16.617563 3.3868294
3.6543553 16.628643 3.3492193
3.237041 16.634098 3.333617
2.8233643 16.639503 3.3200829
2.0047901 16.650208 3.2990608
1.5989062 16.655518 3.2915084
1.1946484 16.660803 3.285902
0.79154783 16.666075 3.2822177
0.38909179 16.671345 3.2804523
-0.013159179 16.676605 3.280596
-0.41568846 16.681871 3.2826526
-1.2234277 16.692444 3.2925174
-1.6295751 16.697758 3.300364
-2.0379102 16.703102 3.3101723
-2.8631444 16.713909 3.3358295
-3.2810545 16.719381 3.3517427
-28.466284 -6.9443641 5.7640634
-27.398369 -7.3884158 5.582294
-27.380024 -8.096797 5.6167297
-27.619955 -8.8976593 5.7083282
-26.59934 -9.2827978 5.5420675
-11.065298 -6.8282084 2.5578322
-11.040092 -7.1860285 2.5913317
-10.632998 -7.6756954 2.5797644
-10.375244 -7.8771763 2.5625961
-10.457476 -8.3447943 2.6318717
-9.5331297 -8.8078718 2.5532432
-19.490517 -21.848267 5.7596078
-17.671171 -21.844431 5.5272169
-16.829847 -21.862602 5.4274926
-16.003618 -21.860647 5.3295908
-14.436782 -21.859108 5.1532779
-12.965483 -21.855289 4.9989653
-12.261592 -21.853466 4.9294434
-11.5748 -21.848253 4.8638525
-10.907724 -21.847326 4.8036547
-9.6164551 -21.837261 4.6938748
-8.9904194 -21.828583 4.644033
-8.3819723 -21.832594 4.6005182
-6.1045604 -22.05105 4.5010028
-5.572124 -22.196856 4.5020094
-5.0642333 -22.454058 4.5280781
-4.2122364 -24.022837 4.7978315
-4.0204196 -26.700033 5.3115978
5.5730124 -8.6136923 2.0182006
5.246572 -7.6955662 1.8322113
5.9625731 -7.8984976 1.946802
6.4336181 -8.1080885 2.0361319
6.615283 -7.9360919 2.0324314
6.5601172 -7.4946713 1.9593539
6.5632129 -7.1429558 1.9082464
7.5820017 -7.4919324 2.0968354
7.9018602 -7.0882611 2.0882087
22.367523 -9.2844229 4.7641096
22.397583 -8.0540047 4.6822248
23.554447 -7.8337088 4.8831296
23.512983 -7.1948752 4.8371439
23.206753 -6.4932718 4.7405248
8.3272314 15.511418 3.4632885
7.3888426 15.515678 3.3806436
7.4112549 16.581738 3.5729253
6.938745 16.587463 3.5370512
6.4753809 16.593103 3.5039163
6.0203562 16.598661 3.4734032
4.269629 16.620604 3.3757396
3.4268847 16.631617 3.3404732
2.599668 16.642431 3.3135746
0.97526854 16.663673 3.2836611
0.57258302 16.66894 3.2810225
-0.23204589 16.67947 3.2814772
-0.63491207 16.68474 3.28457
-1.0387744 16.690023 3.2895889
-2.2611279 16.706028 3.3163478
-5.9867477 28.521219 5.7329197
-28.324995 -7.3049669 5.7543669
-27.741356 -7.8728061 5.6727371
-27.904154 -8.6515303 5.7470431
-11.113926 -6.3303919 2.5160985
-10.512739 -6.6792746 2.4501529
-10.434262 -6.9882965 2.4704425
-11.032114 -8.18612 2.7024274
-10.059702 -7.8477926 2.5098779
-9.3275776 -8.8476248 2.5290692
-8.9599123 -8.9192133 2.4870102
-18.980707 -21.847193 5.6931763
-15.566479 -21.859612 5.2790852
-14.783798 -21.857763 5.1909904
-14.027651 -21.858046 5.1091924
-12.580161 -21.854292 4.9605451
-10.551684 -21.84683 4.7726927
-8.6580372 -21.830774 4.6199265
-8.0625343 -21.853285 4.58219
-5.8144531 -22.128349 4.5008202
-5.2860498 -22.291939 4.5068412
-4.3627586 -23.367044 4.6761594
-3.9633641 -28.890921 5.7366014
5.0522995 -7.588685 1.7934195
5.8144727 -7.8811564 1.9266448
6.143364 -7.9196978 1.9717284
6.5616064 -7.3008447 1.9310199
22.760942 -9.0994816 4.8220572
23.603951 -8.7822571 4.9543161
23.544428 -8.1191874 4.8992839
23.53105 -7.48452 4.8575077
24.017954 -7.0061121 4.9216886
9.0772219 15.570231 3.5454519
8.0674458 15.512529 3.439605
7.6299901 16.5791 3.5902252
7.1530566 16.584867 3.5530636
6.6856151 16.590542 3.5186954
6.2269287 16.596134 3.4870045
5.3325634 16.607111 3.4312122
4.8955369 16.612513 3.4069324
3.2005713 16.634575 3.3323455
2.787163 16.639978 3.3189917
2.376826 16.645344 3.3076577
1.5633643 16.655981 3.2909405
1.1592187 16.661266 3.285501
0.75616699 16.666538 3.2819872
0.35375977 16.671804 3.28039
-0.85441893 16.687614 3.2870626
-1.2590234 16.692907 3.293129
-1.6653613 16.698227 3.3011448
-2.073916 16.703577 3.3111317
-2.8997071 16.71439 3.3371413
-27.208866 -8.1088991 5.5851293
-27.491966 -8.9207764 5.6857719
-26.540337 -9.3253708 5.5338798
-20.385527 -7.7201061 4.2881455
-11.092597 -6.5124698 2.5303981
-11.06268 -6.8590055 2.5605788
-11.106582 -7.2628579 2.6105428
-9.0350828 -7.9865007 2.3722055
-19.407383 -21.848091 5.7487063
-17.594536 -21.844267 5.5177751
-16.756029 -21.862427 5.4186182
-15.932436 -21.860477 5.3213067
-14.370171 -21.858934 5.1460404
-13.625459 -21.857002 5.0667186
-11.515532 -21.848169 4.8583899
-9.5607615 -21.836182 4.6892762
-8.9364796 -21.828939 4.640069
-7.7468262 -21.877377 4.5655298
-6.6119137 -21.989975 4.5171447
-6.0566993 -22.059862 4.5001731
-5.5254345 -22.210052 4.5023046
-4.5499167 -22.96599 4.6056437
-4.189033 -24.191792 4.8297887
5.582583 -7.7437534 1.877926
6.6421237 -7.9340353 2.0355072
7.5960937 -7.4741197 2.0963492
7.915864 -7.0706139 2.0879471
23.993628 -7.2863908 4.9328332
7.811152 15.513672 3.4168353
7.850913 16.576435 3.6081364
6.8976803 16.587963 3.53403
5.9807467 16.599148 3.4708462
5.0940723 16.610056 3.4177144
4.6603465 16.615496 3.394711
4.2322364 16.621092 3.3740072
3.8090575 16.626621 3.3554974
2.5636182 16.642902 3.3125784
2.1547363 16.648247 3.3023357
1.7481298 16.653566 3.2940624
0.93987793 16.664135 3.2833538
0.53723145 16.669403 3.2808812
0.13496093 16.674667 3.2803216
-0.26740235 16.679932 3.2816739
-0.67033201 16.685205 3.2849362
-1.4798046 16.695799 3.2972438
-1.8872802 16.701132 3.3063314
-2.2972655 16.706499 3.3174026
-2.7102344 16.711906 3.3304925
-3.1266844 16.717363 3.3456388
-6.0558591 28.549433 5.7411609
-27.71773 -7.9295983 5.6713352
-27.840567 -8.6965256 5.7377286
-10.58711 -6.7580557 2.4708176
-10.445737 -7.0281048 2.4766803
-9.7854004 -8.0556393 2.493341
-9.262002 -8.0072622 2.4085028
-9.6745749 -8.7805481 2.5701351
-9.2947512 -8.8539782 2.5252483
-8.928237 -8.9254179 2.4834599
-18.899414 -21.847021 5.6826792
-17.995058 -21.845118 5.5676217
-17.14183 -21.863338 5.4652586
-15.496699 -21.859446 5.2711134
-13.962255 -21.857876 5.1022239
-12.5185 -21.85413 4.9544797
-11.826753 -21.852339 4.8879576
-10.49459 -21.846752 4.7678056
-9.8510008 -21.841816 4.7134757
-9.2184229 -21.829536 4.6614709
-8.6046677 -21.831125 4.6161351
-7.4342527 -21.903803 4.5502992
-6.8671775 -21.959852 4.5262089
-5.2434864 -22.323046 4.5108714
-4.7534132 -22.681221 4.5587525
-4.326045 -23.445713 4.6900568
-4.0892382 -25.610006 5.1017804
5.3389502 -7.5802226 1.8239105
6.1730127 -7.9231763 1.9758487
6.5037403 -7.9447417 2.0197699
6.5591941 -7.6293411 1.9792449
7.5228467 -7.5667343 2.0989861
7.6832566 -7.3639793 2.0935552
22.799818 -7.8083701 4.7408838
23.527319 -7.428463 4.8534751
8.5052004 15.510691 3.4798584
7.1116257 16.585369 3.5499344
6.6450195 16.591038 3.5158083
6.1870017 16.596622 3.4843426
5.2938914 16.607588 3.4289834
4.8574219 16.612984 3.4049087
4.4268308 16.618544 3.3831739
4.0014744 16.624105 3.3636682
3.5807617 16.629604 3.3463261
3.1641064 16.635052 3.3310895
1.5277978 16.656445 3.2903836
0.72079098 16.667002 3.2817702
0.31841308 16.672268 3.2803404
-0.083852537 16.677528 3.2808194
-1.2946582 16.693373 3.2937574
-1.7011719 16.698696 3.3019438
-2.1099463 16.704048 3.3121037
-28.456728 -7.0699482 5.7681413
-27.813324 -7.6269341 5.6733789
-27.040224 -8.1211052 5.5540347
-27.272972 -8.913662 5.6443777
-20.345181 -7.7541752 4.2831059
-11.08999 -6.5425968 2.5329616
-10.518228 -7.2791667 2.5162978
-10.271807 -7.8674664 2.5452569
-10.295922 -8.2875328 2.6000261
-9.0968943 -8.0755157 2.3929176
-9.0937548 -8.8930101 2.5021307
-19.324501 -21.847914 5.7378635
-17.53437 -21.864269 5.513381
-16.68252 -21.862251 5.4098105
-15.861533 -21.860308 5.3130774
-13.561084 -21.856836 5.0600061
-10.792207 -21.847168 4.7935209
-9.5051804 -21.835102 4.6847057
-8.8826857 -21.829292 4.6361327
-7.6961327 -21.881245 4.5629292
-7.1250534 -21.934364 4.5368347
-6.5629196 -21.995874 4.5154929
-4.1655078 -24.363056 4.8622112
6.0204639 -7.9052944 1.9547491
6.560576 -7.4314494 1.9500695
6.5638914 -7.0832028 1.8996985
7.7702341 -7.2541733 2.0911424
22.074554 -8.4372835 4.64886
23.546822 -7.7205601 4.8747287
8.2429199 15.511772 3.4555347
7.7701025 15.513862 3.4132454
7.3275485 16.582754 3.5664177
6.8566699 16.588461 3.5310302
6.3948731 16.594082 3.4983697
5.9411912 16.59963 3.4683058
5.4950876 16.60511 3.4407492
4.6225147 16.615992 3.392801
4.1948972 16.62158 3.372297
3.3536863 16.632576 3.3377852
2.527627 16.643373 3.3116012
1.7125342 16.654034 3.2934291
0.50191402 16.669863 3.2807577
-1.1098388 16.690956 3.2906692
-1.5155176 16.696266 3.2979655
-1.9231689 16.701601 3.3072228
-3.163501 16.717844 3.3470697
-28.50371 -6.7495689 5.7622614
-28.238197 -7.4103241 5.7430625
-27.701582 -7.9885502 5.6714802
-26.788715 -9.1461563 5.5685105
-11.07374 -6.730432 2.5492032
-9.7377834 -8.0511341 2.4855514
-8.8966599 -8.9316053 2.4799306
-18.818438 -21.846849 5.6722431
-17.066977 -21.863163 5.4561572
-16.2323 -21.861187 5.3563738
-15.426977 -21.859282 5.2631636
-14.648931 -21.857447 5.1761131
-13.89704 -21.85771 5.0953021
-13.166435 -21.855812 5.0193362
-12.456997 -21.853973 4.9484472
-11.766841 -21.852184 4.8823328
-11.09314 -21.847586 4.8201022
-10.437514 -21.846527 4.7629142
-9.1634912 -21.828468 4.6570816
-8.5514259 -21.831476 4.6123681
-7.9602733 -21.861088 4.5767093
-7.3841748 -21.908754 4.54807
-6.8178124 -21.965191 4.5243192
-2.1985595 -7.7377887 1.5824172
-5.20083 -22.354223 4.5149345
-4.7098923 -22.713026 4.5631304
-4.0693407 -25.836628 5.1451979
5.3848243 -7.6110296 1.834067
5.8711424 -7.8877845 1.934328
6.5302196 -7.9426742 2.022759
6.5594091 -7.59691 1.97444
6.5621629 -7.2394848 1.9221338
7.6973047 -7.3462334 2.0931394
7.8571239 -7.1446238 2.0891101
22.890053 -9.0387268 4.8412466
23.11557 -7.861743 4.8030682
23.684252 -6.7999997 4.8473587
7.9843063 15.512893 3.4321547
7.5454931 16.58012 3.5834899
7.0702438 16.585869 3.5468237
5.6976757 16.602619 3.4530134
4.8193502 16.613455 3.4029033
4.3892918 16.619038 3.3813732
3.5440233 16.630085 3.3449054
3.1276758 16.635527 3.3298488
-0.52188474 16.683262 3.2835121
-0.92538571 16.688541 3.2879868
-1.3303027 16.69384 3.2943981
-1.7369531 16.699162 3.3027551
-2.5577686 16.709909 3.3254335
-5.7079248 28.13817 5.6480355
-28.514473 -7.2894273 5.1041751
-27.264746 -8.389966 4.9472203
-26.90958 -8.996768 4.9207354
-12.154048 -6.8887601 2.4228518
-10.403012 -7.303977 2.2044241
-9.4951267 -8.138752 2.1688399
-9.7061377 -8.734458 2.2645166
-8.9589453 -8.8805246 2.1876843
-16.448975 -21.861269 4.7446604
-15.636226 -21.859356 4.6610041
-14.093081 -21.857944 4.5103583
-12.64183 -21.854183 4.3785191
-11.946806 -21.85239 4.3191524
-10.609082 -21.847328 4.2119956
-9.9633884 -21.843472 4.1636872
-6.9665332 -21.950537 3.9939117
-2.2505908 -7.7335582 1.3968393
-4.8408251 -22.620274 4.0117588
-4.4004054 -23.294956 4.1113901
-4.1283445 -25.169262 4.4233255
-3.9772363 -28.542624 4.9978504
5.3522706 -7.6679764 1.6217382
6.0590768 -7.8453307 1.719119
6.4216504 -7.5337009 1.7167785
6.4279881 -7.1827145 1.6716543
7.4285445 -7.9082994 1.8816855
7.4693847 -7.5769272 1.8451855
22.622671 -9.0998755 4.2288651
23.946558 -8.31464 4.3961687
23.493227 -7.5273385 4.2783642
23.935444 -7.0370884 4.3267083
7.6712155 16.576031 3.1676309
6.2663965 16.594378 3.0762491
4.9336033 16.611794 3.005286
4.5020556 16.617434 2.9857836
4.0758252 16.623005 2.9682529
3.2370214 16.63397 2.9388757
0.3890869 16.671215 2.8920064
-0.013154296 16.676477 2.8921325
-1.2234082 16.692316 2.9026437
-1.6295605 16.697632 2.9095578
-2.0379004 16.702976 2.9182098
-2.4489207 16.708357 2.9286196
-3.2810352 16.719252 2.9548557
-27.836792 -7.50664 5.0000687
-27.530186 -8.1412001 4.9788322
-27.253935 -8.779748 4.9657402
-11.079731 -6.4733944 2.2254345
-10.9554 -6.760397 2.2325759
-10.921889 -7.1090903 2.2600446
-10.848442 -7.439868 2.2813268
-10.475849 -7.5622492 2.2406931
-9.4596386 -7.9294724 2.1406746
-9.9058743 -8.7188673 2.2885969
-9.4976759 -8.7751045 2.2425506
-17.671967 -21.845409 4.8729901
-16.829531 -21.862167 4.7847509
-16.003309 -21.86022 4.6984482
-12.261436 -21.853203 4.3457117
-8.990469 -21.828735 4.0941796
-7.7978172 -21.873905 4.0273395
-7.2248874 -21.925005 4.0034876
-6.6611328 -21.984636 3.9838731
-5.572402 -22.197977 3.9691472
-5.0647998 -22.456568 3.9923735
-4.0242529 -26.725548 4.687151
5.1548972 -7.561101 1.5870432
5.9027686 -7.8192782 1.6990762
6.4189401 -7.7005439 1.7385998
7.5565476 -7.466783 1.8423532
7.7162352 -7.2651839 1.8380127
22.414282 -9.3038311 4.2087903
23.692202 -8.5195379 4.3664188
23.655064 -7.8671765 4.3233299
8.3853951 16.566702 3.2201724
6.4748144 16.591658 3.0887637
4.6981688 16.61487 2.9944305
4.2695947 16.62047 2.976007
3.8460155 16.626007 2.9595208
3.4268603 16.631487 2.9449208
1.7837744 16.652971 2.9045751
1.3788378 16.658268 2.8988545
0.17029785 16.674076 2.8918669
-0.63491207 16.684612 2.895638
-1.8513671 16.700535 2.9140463
-2.2611132 16.7059 2.9236526
-2.673789 16.711304 2.9350348
-3.0899365 16.716753 2.9482269
-5.9462838 28.328466 5.0199485
-28.465908 -7.3413143 5.0982518
-27.320137 -7.7532701 4.9251204
-27.781347 -8.6134653 5.0442648
-12.139443 -6.9145236 2.4228563
-10.970542 -6.6041889 2.2207146
-10.341113 -6.570241 2.1247792
-10.903491 -7.3025579 2.2758689
-9.6990032 -7.9500785 2.1749182
-9.4195795 -8.1086884 2.1555047
-8.9273291 -8.8867731 2.1845608
-18.073887 -21.84627 4.9172406
-17.216581 -21.863081 4.8261156
-15.566167 -21.859192 4.6539216
-14.027475 -21.857773 4.5041785
-13.293066 -21.855871 4.4363976
-12.580019 -21.854029 4.3731408
-11.886597 -21.852236 4.314126
-11.210107 -21.848169 4.2586851
-9.9072847 -21.842958 4.1595798
-8.6581049 -21.830927 4.0729294
-6.9168944 -21.955444 3.9921281
-5.2866406 -22.294418 3.9736469
-4.3639112 -23.373188 4.123559
-4.1116209 -25.404148 4.4630661
-3.9674511 -28.92079 5.0626059
5.3912988 -7.6891108 1.6286215
5.6430955 -7.6488609 1.6484555
6.4289303 -7.8873644 1.7647015
7.4834814 -7.5591135 1.8447055
7.802866 -7.1559548 1.8361233
22.686646 -9.0697794 4.2372198
21.798813 -8.1106253 4.0336728
23.498013 -7.4740176 4.2763391
23.749525 -6.9278116 4.2904406
24.454184 -6.4975791 4.3881364
8.115859 16.570225 3.1998799
4.8954687 16.612291 3.0034897
4.4644189 16.617928 2.9841671
4.0386276 16.623493 2.9668057
3.2005467 16.634445 2.9377553
2.7871532 16.639851 2.9259791
1.969038 16.650549 2.9077561
1.5633545 16.655853 2.9012501
1.159209 16.66114 2.8964574
0.75616211 16.666412 2.893362
0.35375488 16.671677 2.8919499
-0.85441405 16.687487 2.8978326
-1.2590137 16.692783 2.9031823
-1.6653564 16.698101 2.9102473
-2.0738964 16.703449 2.9190512
-3.3179541 16.719736 2.9561784
-20.385708 -7.72017 3.7804387
-11.077119 -6.503386 2.2276714
-10.824946 -7.4575438 2.2797048
-10.487866 -7.6047921 2.2467058
-10.575967 -8.0649595 2.3065941
-9.9466305 -7.9717236 2.2106431
-18.483227 -21.847137 4.9629111
-15.932124 -21.860054 4.6911426
-15.137173 -21.858179 4.6110225
-14.37 -21.858662 4.5366631
-13.625283 -21.856733 4.4667382
-12.902699 -21.854862 4.4014478
-11.515757 -21.848597 4.283216
-10.199468 -21.845043 4.1810913
-9.5607815 -21.836233 4.1340485
-7.1750488 -21.929932 4.0016026
-6.6120749 -21.990541 3.9823949
-4.5510936 -22.971949 4.0613623
15.868208 -24.412462 5.0495462
5.3983884 -7.4882455 1.6009418
5.9382272 -7.8316693 1.7045004
6.4194579 -7.6680546 1.7343316
6.4254932 -7.3095431 1.687821
7.7302294 -7.2475243 1.8376849
22.209389 -7.9332042 4.0900321
23.664097 -7.8145542 4.32195
24.055599 -7.3052111 4.3599906
7.3683496 16.579983 3.14656
6.896914 16.586142 3.1152394
5.9803805 16.598118 3.0596864
5.5337839 16.603951 3.0352681
3.8090332 16.626492 2.9581616
3.3902392 16.631966 2.943728
1.7481201 16.653437 2.9040029
1.3433251 16.65873 2.898432
0.93987793 16.664009 2.8945622
0.53723145 16.669277 2.8923833
0.13496582 16.674541 2.8918896
-0.67032713 16.685076 2.8959572
-1.8872753 16.701006 2.9148195
-2.297246 16.706371 2.9245796
-2.7102196 16.711779 2.9361215
-10.900513 -7.3340836 2.2784853
-10.751133 -8.0130157 2.3254268
-9.2605562 -8.8214016 2.2180548
-8.8958054 -8.8930044 2.1814523
-15.496396 -21.859026 4.6468897
-14.715976 -21.857187 4.5696778
-13.962085 -21.857605 4.4980364
-11.826596 -21.852077 4.3091369
-9.8510199 -21.841866 4.1553836
-8.0115623 -21.857597 4.0372858
-7.4344234 -21.904291 4.0116081
-2.2143457 -7.7309818 1.3946667
-5.768086 -22.142656 3.9682617
-4.7539501 -22.683773 4.0194144
-4.3271923 -23.451899 4.1358185
-4.0920362 -25.627523 4.5007744
5.6919532 -7.680943 1.6579653
6.1175146 -7.8519492 1.7262378
7.4975681 -7.5413089 1.8442334
7.6575046 -7.3392973 1.8394797
22.062504 -8.1555853 4.0792603
23.656235 -8.1016712 4.3365283
8.5698729 16.564295 3.2343743
8.0726366 16.570787 3.1966763
7.5865526 16.577135 3.1616695
5.2937498 16.60709 3.022881
4.0014453 16.623976 2.9653702
3.5807226 16.629475 2.9500797
2.7509766 16.640322 2.9250319
1.9333398 16.651014 2.9071145
1.1237597 16.661606 2.896117
-0.083852537 16.677402 2.8923297
-0.48646483 16.682669 2.8944347
-1.2946484 16.693247 2.9037344
-1.7011572 16.698572 2.9109511
-2.1099219 16.70392 2.9199102
-2.5214355 16.709309 2.9306316
-2.936245 16.714739 2.9431543
-27.838427 -6.2074289 4.9464679
-28.423897 -7.0618048 5.0792961
-27.923794 -7.6572256 5.0214834
-20.347046 -7.7548923 3.7763078
-11.074502 -6.5334611 2.2299252
-10.949551 -6.8210397 2.2372568
-10.915956 -7.1712875 2.2650864
-11.127759 -7.701004 2.3469112
-10.522256 -8.0592995 2.2985961
-9.8982563 -7.9674368 2.2036366
-9.3694725 -7.9217343 2.1278484
-9.8152294 -8.7132063 2.2761681
-18.403755 -21.846972 4.9539952
-15.068662 -21.858017 4.6042438
-12.840195 -21.854702 4.3959203
-12.139775 -21.852888 4.3353791
-10.142968 -21.844667 4.1768994
-9.5052052 -21.835152 4.1300244
-8.8827581 -21.829445 4.0872154
-8.2777634 -21.837284 4.0501075
-7.125205 -21.934853 3.9997351
-6.5630856 -21.996441 3.9809337
-6.0103416 -22.074169 3.9675987
-4.5155077 -23.048231 4.0731473
-4.1678028 -24.376486 4.2888565
5.2299118 -7.6017265 1.6002063
5.9668503 -7.8349023 1.7079511
6.4199805 -7.6357703 1.7301016
7.3287253 -7.9085503 1.8699087
7.5846581 -7.4312835 1.8415082
14.642876 -7.7296567 2.8715758
22.420219 -9.1951265 4.2025537
24.076225 -7.2557645 4.360929
8.2979975 16.567841 3.213531
7.3265719 16.58053 3.1437132
6.8559422 16.586678 3.1126046
6.3943405 16.592707 3.0838883
5.4948683 16.604458 3.0332263
5.0555859 16.610199 3.0111129
4.6224756 16.615862 2.9910533
4.1948681 16.621447 2.9729707
3.7720604 16.626974 2.9568186
2.9389696 16.637865 2.9301071
2.5276074 16.643244 2.9194655
2.1189063 16.64859 2.9105866
1.7125244 16.653904 2.9034479
0.099624023 16.674999 2.8919287
-0.30273926 16.680265 2.8932664
-1.5155029 16.69614 2.9074445
-3.1634815 16.717714 2.9507341
-28.158779 -6.6678953 5.0185032
-28.559818 -7.4947171 5.120717
-27.695795 -7.9868808 4.9989023
-26.512764 -8.3434248 4.8202977
-26.71357 -9.1205053 4.8953972
-10.484907 -6.7241135 2.1601574
-10.897519 -7.3656859 2.2811213
-9.605854 -7.9420485 2.1615598
-9.227993 -8.8277645 2.2147307
-8.864399 -8.8992128 2.1783648
-18.819321 -21.847857 5.0008464
-17.918188 -21.845934 4.9000278
-16.231972 -21.86076 4.7220573
-13.166284 -21.855543 4.4249625
-12.456855 -21.853708 4.3624725
-11.766694 -21.851923 4.3041739
-11.093349 -21.848005 4.2494583
-8.5514936 -21.831631 4.0662646
-2.1985497 -7.7377672 1.395046
-5.7214303 -22.155848 3.9684448
-4.7104149 -22.715593 4.023273
-4.2902393 -23.531107 4.1481781
5.470366 -7.7319369 1.6425885
5.7413278 -7.713367 1.6675845
6.4994531 -7.9052567 1.7748517
6.4232421 -7.4392099 1.7045214
7.4737301 -7.8557444 1.8804455
7.6715136 -7.3216171 1.8391176
23.587133 -8.6623831 4.3577533
23.47978 -7.9856114 4.3010693
23.433441 -7.3442178 4.2588792
8.5257473 16.564867 3.2309523
8.0294819 16.57135 3.1934955
7.5443892 16.577688 3.1587191
7.0693946 16.583889 3.1264873
6.6038132 16.589973 3.0966966
6.1466846 16.595942 3.0692301
5.6974072 16.60181 3.0440075
3.543999 16.629955 2.9488268
3.1276464 16.635401 2.9355536
2.3049755 16.646156 2.9144177
1.4921875 16.656784 2.9002862
1.0883154 16.662069 2.8957913
0.6854443 16.667336 2.8929927
0.2830615 16.672602 2.8918762
-0.52187985 16.683132 2.8947015
-0.92537105 16.688416 2.8986485
-1.7369336 16.699039 2.9116683
-2.5577393 16.709785 2.9316609
-5.8020802 28.602278 5.0614018
-27.836514 -6.4049425 4.2935643
-27.844072 -7.8382249 4.3480406
-27.142422 -8.3523273 4.2687006
-26.903036 -8.9945889 4.2639403
-11.018823 -6.6014819 1.9307885
-10.796465 -7.1977921 1.9504526
-10.761313 -7.5555401 1.9764602
-10.16061 -7.8919311 1.9338669
-9.6155958 -7.8476939 1.8656301
-9.9903517 -8.5632315 1.9778533
-9.2776222 -8.7629499 1.9182839
-20.014395 -21.851421 4.4541302
-17.291557 -21.862823 4.1899242
-14.850908 -21.857094 3.9720709
-14.0929 -21.85767 3.9092381
-11.946651 -21.852129 3.743521
-11.268926 -21.848669 3.6952705
-10.609282 -21.847744 3.6507568
-9.9634418 -21.843575 3.6088383
-9.3286133 -21.831778 3.5686634
-8.711606 -21.830725 3.533102
-8.114048 -21.850195 3.5035501
-7.5348434 -21.894867 3.4805493
-2.2502441 -7.732368 1.210505
-4.8413672 -22.622797 3.4775372
15.930981 -24.038979 4.3348608
5.7109323 -7.7752423 1.4501193
6.6103954 -8.1451969 1.57681
22.549097 -9.0702782 3.6533883
23.007603 -8.6159496 3.6929228
23.460297 -8.1458063 3.7329478
23.641439 -7.5748205 3.7316034
24.374907 -6.5318308 3.7931726
7.6711473 16.575893 2.7454805
7.1936083 16.58213 2.716974
6.7256103 16.588243 2.6906011
5.8150582 16.600143 2.6439104
5.3710155 16.605944 2.6234295
4.9335594 16.611662 2.6047683
4.5020261 16.617304 2.5878694
2.4127295 16.644619 2.5280776
2.0047607 16.649954 2.5208063
1.1946288 16.660551 2.5107529
-0.013159179 16.676355 2.5066967
-0.81893551 16.686897 2.5113003
-2.0378857 16.702848 2.5292985
-2.8630955 16.713652 2.5489001
-3.2810059 16.719124 2.5610614
-27.19331 -8.7602205 4.2944102
-10.546377 -6.8646727 1.891513
-10.777441 -7.3911772 1.964367
-10.324365 -7.4528966 1.9140072
-9.4082613 -7.8864121 1.8453244
-9.7916059 -8.6183004 1.9607269
-9.0914059 -8.8156319 1.9035351
-19.492344 -21.850298 4.401382
-18.563808 -21.848301 4.3095045
-17.672733 -21.846382 4.2237983
-16.829189 -21.861738 4.147038
-15.205634 -21.857927 4.0023746
-14.436416 -21.858559 3.9375725
-13.68961 -21.85663 3.876596
-9.6165037 -21.837366 3.5866561
-8.3820848 -21.832895 3.5153515
-7.7979589 -21.874313 3.4907155
-6.6612988 -21.985197 3.453053
-6.1048632 -22.052172 3.439435
15.848422 -24.495449 4.3854728
5.4993458 -7.6624737 1.417716
6.1858201 -7.7957983 1.4959046
6.729785 -8.0734501 1.579881
6.6964254 -7.6503983 1.5282677
7.3626218 -7.6348462 1.5943201
7.5314646 -7.4419961 1.5915332
22.342445 -9.2740068 3.6362152
22.770521 -8.8140163 3.6702139
23.294281 -8.3764544 3.7209723
23.590649 -7.8457518 3.7369804
23.822182 -7.2894859 3.7447143
8.3853369 16.566565 2.7910194
7.410161 16.579302 2.7297046
6.4747705 16.591522 2.6771209
6.0199265 16.597466 2.6538727
5.5726709 16.603313 2.6325395
5.1322999 16.609064 2.6130588
4.6981344 16.614738 2.5953631
4.2695603 16.620342 2.5793946
2.5996387 16.642176 2.5318956
2.1905322 16.647526 2.5239336
1.7837597 16.652843 2.5174835
1.3788329 16.658144 2.5125232
0.97526366 16.66342 2.5090401
0.57257813 16.668688 2.5070236
0.17029785 16.673952 2.5064666
-1.4440771 16.695078 2.5188823
-1.8513525 16.700405 2.5256896
-3.0899217 16.716623 2.5553153
-28.151371 -7.2601986 4.3700166
-27.908827 -7.9203415 4.360764
-27.076176 -8.3948259 4.2610693
-11.014018 -6.630372 1.932405
-10.793403 -7.2288308 1.9526626
-10.111035 -7.8878341 1.9276096
-9.5696039 -7.8440166 1.8599313
-9.5968504 -8.6729822 1.9443512
-9.2473335 -8.7715082 1.9158603
-18.982435 -21.849203 4.3506117
-18.074688 -21.847246 4.2621446
-17.216259 -21.862646 4.1828914
-16.376074 -21.860674 4.1057177
-14.783222 -21.856937 3.9663365
-14.027309 -21.857502 3.9038823
-10.551987 -21.8475 3.6469717
-9.2734957 -21.830708 3.5652661
-8.6581593 -21.831076 3.5301833
-8.0628366 -21.854103 3.5014293
-7.4846873 -21.899826 3.4788084
-6.9170456 -21.955927 3.4601996
-5.8150291 -22.130575 3.4394662
-4.1143847 -25.421257 3.8709068
15.818355 -25.048986 4.453145
5.2970018 -7.5546269 1.3868964
5.4588819 -7.3991699 1.3821341
6.6296387 -8.1336117 1.5772848
7.38166 -7.8251042 1.6169909
7.4554391 -7.5307922 1.592883
7.6181393 -7.3326144 1.5893832
22.692915 -7.8255477 3.6082013
23.344536 -6.8096752 3.6552694
24.372017 -6.4757442 3.7905803
8.6140575 16.563574 2.8063107
8.1157856 16.570086 2.7734287
7.6287842 16.576445 2.7428842
7.1521139 16.582672 2.7145722
2.7871289 16.639727 2.5360341
1.5633398 16.655729 2.5146003
0.75615722 16.666286 2.5077617
0.35375488 16.671551 2.5065405
-0.048505858 16.676817 2.5067773
-0.85440427 16.687361 2.511637
-1.258999 16.692656 2.5162745
-1.6653368 16.697973 2.5223992
-2.0738819 16.70332 2.5300319
-2.4851661 16.708704 2.5391881
-2.899668 16.71413 2.5499041
-28.254784 -6.9562244 4.3739228
-27.964594 -7.6047082 4.3561387
-27.423481 -8.1728601 4.3013139
-20.385883 -7.7202377 3.2766719
-11.993413 -7.0413384 2.0905194
-10.984121 -6.8102951 1.9426712
-10.621421 -6.9456043 1.907608
-10.881289 -7.8900704 2.0203481
-10.255864 -8.6339912 2.0151589
-9.4054146 -8.726882 1.928602
-18.484068 -21.848129 4.3017282
-17.596107 -21.846216 4.2165494
-16.755365 -21.861565 4.1402607
-15.136874 -21.857763 3.9964623
-13.625122 -21.856464 3.8714354
-12.902538 -21.854595 3.8148527
-12.200371 -21.852783 3.762049
-11.515971 -21.849016 3.7124863
-10.850312 -21.84808 3.6667752
-8.9366064 -21.829243 3.5455699
-8.3293648 -21.833769 3.512641
-7.7471094 -21.878193 3.4887037
-7.1752 -21.930414 3.4684138
-6.0573096 -22.062084 3.4389741
-5.0223827 -22.490475 3.4639125
-4.5522704 -22.977856 3.5210323
-4.1935987 -24.218143 3.6945143
6.2153711 -7.7990227 1.4990466
6.7491355 -8.0618515 1.580407
7.222085 -7.8266854 1.6008013
22.405102 -9.2443953 3.6432195
22.815962 -8.7760324 3.6745288
23.610865 -7.7969732 3.7375653
22.884115 -6.3507543 3.5698221
8.3415766 16.567137 2.7881286
7.3682761 16.579851 2.7272153
4.6602736 16.615234 2.5938916
4.232173 16.620832 2.5780709
3.8090038 16.626362 2.5639279
2.9752491 16.637262 2.5404978
2.1547022 16.647993 2.5233061
1.7481103 16.653311 2.5169876
1.3433203 16.658606 2.5121562
0.53723145 16.669149 2.5069137
0.13497069 16.674416 2.5064886
-0.26739746 16.67968 2.5075181
-1.0742968 16.690237 2.5139763
-1.4797704 16.695543 2.5194182
-1.8872607 16.700876 2.5263608
-2.2972217 16.706245 2.5348196
-3.1266358 16.717104 2.5563941
-28.131504 -7.3186808 4.3693333
-26.035805 -8.1327734 4.1000452
-10.825025 -6.9099331 1.9304059
-10.790337 -7.2599578 1.9548886
-10.755068 -7.6194291 1.981227
-10.061752 -7.8837638 1.9213955
-19.844398 -21.851055 4.4368701
-16.303715 -21.860502 4.099185
-15.496108 -21.858608 4.027554
-14.715708 -21.856777 3.960634
-13.961909 -21.857334 3.8985643
-13.229433 -21.855438 3.8401725
-12.518184 -21.853603 3.7856743
-11.82646 -21.851818 3.7348492
-8.6047754 -21.83143 3.5272808
-7.4345846 -21.904779 3.477083
-6.8674903 -21.960825 3.4586709
-2.2143359 -7.7309599 1.2088046
-4.7544727 -22.686314 3.4841683
-3.9615135 -29.339348 4.4501491
15.817788 -24.930908 4.4381037
5.3352928 -7.5750299 1.3927151
6.0633688 -7.7824535 1.482951
6.6416941 -7.3585181 1.4900091
7.4710641 -7.5146513 1.5928143
7.7909813 -7.1147056 1.585932
21.84057 -8.0735512 3.5000806
22.944349 -7.8578653 3.6455202
23.673794 -7.4747052 3.7316771
23.2535 -6.7296562 3.6387718
8.0725536 16.570648 2.7706561
7.5864892 16.577 2.7403102
6.644321 16.589308 2.6861823
6.1865182 16.595287 2.6622062
5.7365427 16.60117 2.640177
4.8573241 16.612658 2.601676
4.4267673 16.618288 2.5850759
4.001411 16.623848 2.5701756
3.580703 16.629347 2.5569229
3.1640527 16.634794 2.5452809
2.750952 16.640198 2.5352113
2.340874 16.645559 2.5266893
1.9333252 16.650888 2.5196831
1.5277685 16.656193 2.5141768
0.31840819 16.672014 2.5065033
-2.1099072 16.703794 2.5307739
-2.5214159 16.709179 2.5400653
-3.3548486 16.720091 2.5633636
-28.234823 -7.0148325 4.3731279
-27.917456 -7.655488 4.351315
-27.089882 -8.8538151 4.2839689
-10.77124 -7.4542685 1.9689797
-10.835942 -7.8922911 2.0150335
-9.7642965 -7.8596044 1.8841226
-10.191646 -8.6168652 2.0061204
-19.326303 -21.849941 4.3847651
-18.404589 -21.847958 4.2940006
-17.533667 -21.863394 4.2126622
-16.681866 -21.861391 4.1335258
-15.860923 -21.859463 4.0596161
-15.068364 -21.857605 3.9905865
-14.303486 -21.858215 3.9265544
-13.560752 -21.856298 3.8663049
-12.139624 -21.852627 3.7575884
-10.792607 -21.848 3.6629131
-10.143003 -21.84477 3.6202862
-9.5052195 -21.835205 3.5796475
-8.2779198 -21.837694 3.510443
-7.6964207 -21.882061 3.4867065
-7.1253662 -21.935341 3.4667928
-6.5632567 -21.996996 3.4505091
-4.5166698 -23.054182 3.5312586
-4.170083 -24.389791 3.7193401
-4.0107517 -27.424604 4.1661649
15.880454 -24.318312 4.3657703
5.5797458 -7.7053199 1.4300079
5.8031836 -7.6199899 1.4397362
6.5490818 -8.1821947 1.5753571
7.2526464 -7.8264446 1.6038922
7.5594873 -7.4066262 1.590808
22.347748 -9.1654053 3.6307344
22.861429 -8.7380381 3.6788635
23.631079 -7.7481866 3.7381573
23.606148 -7.1140957 3.7059789
23.892046 -6.576014 3.7248735
8.2979393 16.567705 2.7852604
7.3265038 16.580393 2.7247481
6.8558884 16.586542 2.6977849
5.9408007 16.598501 2.6499863
5.055542 16.610071 2.6098213
4.194829 16.621321 2.5767639
3.7720311 16.626844 2.5627646
3.3536377 16.632317 2.5503938
2.1188867 16.648462 2.5226932
0.099619135 16.674875 2.5065203
-1.515498 16.696011 2.5199707
-27.910936 -6.6092033 4.3114338
-28.111664 -7.3771214 4.3686638
-27.624769 -7.9663978 4.3216162
-26.31086 -8.2798805 4.1461148
-26.723799 -9.1239967 4.2446437
-12.054292 -6.9338255 2.0903103
-10.67059 -7.9882288 2.0036058
-10.012861 -7.8797293 1.9152426
-9.5346727 -8.6904707 1.9391983
-9.1870165 -8.7885628 1.9110641
-19.759932 -21.850874 4.4283257
-18.820156 -21.848854 4.3346152
-17.919024 -21.846914 4.2472248
-17.066278 -21.862295 4.1689391
-15.426396 -21.858444 4.0214806
-13.166113 -21.855278 3.8352313
-12.456704 -21.853447 3.7810686
-11.766553 -21.851665 3.7305388
-11.093559 -21.848423 3.6832302
-10.437613 -21.846737 3.6394212
-9.1635303 -21.828573 3.5585415
-8.551548 -21.831779 3.5244026
-6.8181639 -21.966316 3.4572537
-5.7217188 -22.156958 3.4397693
-5.2019825 -22.359188 3.450671
-4.0749269 -25.872152 3.9369342
15.817231 -24.813593 4.4231787
16.005463 -23.821127 4.3138456
5.3739157 -7.5956125 1.3985907
6.0923972 -7.785614 1.486011
6.7217579 -7.7849407 1.546029
7.374238 -7.751173 1.608157
7.6460886 -7.2973537 1.5887481
22.104809 -8.1180019 3.5396576
23.652622 -7.4129181 3.7258551
23.181274 -6.6555896 3.6252556
8.5256739 16.564728 2.8003628
8.0294094 16.571211 2.7678943
7.5443258 16.577551 2.7377543
7.0693359 16.583754 2.7098169
5.6973534 16.601679 2.6383333
5.2551465 16.607464 2.6183398
4.3892283 16.618778 2.5837004
2.714834 16.640671 2.5344024
2.304961 16.646027 2.5260139
1.4921777 16.65666 2.5137637
0.6854443 16.667212 2.5074413
-0.11917969 16.677738 2.5069704
-1.3302734 16.693586 2.5172417
-1.7369238 16.698912 2.5236313
-2.1459618 16.704262 2.5315289
-2.5577245 16.709656 2.5409582
-2.9728906 16.715088 2.551949
-5.7880859 28.533266 4.3763189
-26.250488 -6.7106576 3.4507544
-26.636719 -8.9055519 3.5770059
-10.89604 -6.8904314 1.641904
-10.653086 -7.4795475 1.6577808
-10.616279 -7.8427281 1.6810135
-10.021894 -7.7841887 1.6161654
-9.5139008 -8.5614643 1.6300622
-9.1691942 -8.660553 1.6063385
-20.015312 -21.852436 3.7740941
-18.153778 -21.848391 3.617784
-14.850644 -21.856686 3.365422
-14.092734 -21.857403 3.3122008
-13.356372 -21.855503 3.2621245
-12.641533 -21.853662 3.2153847
-11.946513 -21.85187 3.1717768
-11.269145 -21.849087 3.1310048
-10.60936 -21.847988 3.0932605
-9.9634809 -21.843676 3.0577245
-9.3286324 -21.831831 3.0236773
-2.2499073 -7.7311845 1.0254852
-5.8620019 -22.118481 2.914243
-5.3304296 -22.268759 2.9162481
-4.4026952 -23.307053 3.02086
-3.9852588 -28.600275 3.6776965
15.927279 -24.033394 3.6720388
5.8552685 -8.3885975 1.3028833
5.7670212 -7.4671702 1.2016183
6.3638525 -7.8414097 1.286177
6.8070946 -7.6063285 1.3000171
7.5414157 -7.2896109 1.3358239
22.940931 -8.5909786 3.1198862
23.123608 -8.0289001 3.1174777
23.154633 -6.8075275 3.0737634
24.293764 -6.5100889 3.2031996
8.1590137 16.56938 2.3522298
7.6710839 16.575754 2.3261821
7.1935544 16.581997 2.3020306
5.3709912 16.605856 2.2227798
4.9335742 16.611712 2.2069871
4.5020652 16.617476 2.192682
4.0758691 16.623161 2.179822
3.6543896 16.628769 2.1683636
2.8234131 16.639807 2.1495218
1.598955 16.656006 2.1310441
1.1946924 16.661335 2.1274207
0.79156739 16.666637 2.1250405
-0.013164062 16.677204 2.1239934
-0.81897461 16.687746 2.1278951
-1.2234619 16.693024 2.1317105
-2.4489598 16.708647 2.1507323
-2.8631299 16.713831 2.1596637
-6.2574167 28.260502 3.6864026
-20.450869 20.974831 3.7309539
-28.274139 -6.1788902 3.6859536
-26.931864 -8.6759949 3.6036055
-11.953047 -6.9836316 1.7631116
-10.865546 -7.0724192 1.6511502
-9.7943354 -7.8156247 1.5958716
-10.035815 -8.412447 1.6678048
-9.3251171 -8.6156788 1.6169479
-18.564648 -21.849287 3.6515377
-17.673521 -21.847345 3.5789111
-16.00271 -21.859379 3.4502754
-13.689443 -21.856361 3.2845354
-12.261143 -21.85268 3.1912968
-11.575474 -21.849522 3.1491258
-10.908354 -21.848576 3.1101506
-8.9906054 -21.829037 3.0066967
-6.6614695 -21.985752 2.9257927
-6.1050291 -22.052727 2.9142535
-5.065918 -22.461538 2.9325368
-4.5888672 -22.907722 2.9754686
-4.0318699 -26.776062 3.4486187
15.844692 -24.489712 3.7148674
6.5068555 -7.8060164 1.2942669
7.1185446 -7.747345 1.339967
7.284946 -7.554307 1.3365924
7.4610596 -7.3724332 1.3358777
7.6373239 -7.1908917 1.3359823
22.648726 -8.7668667 3.0930767
23.200844 -7.716115 3.1139743
23.735355 -7.2629161 3.1612701
8.3852634 16.566425 2.3647649
7.8922801 16.572866 2.3378229
5.1322999 16.609051 2.2140021
4.2696238 16.620573 2.1855085
3.426919 16.631794 2.1627097
2.5997314 16.642773 2.1453125
2.190625 16.648188 2.1385741
1.7838378 16.653566 2.1331153
1.3788965 16.658909 2.1289191
0.97531247 16.664223 2.1259723
0.57260251 16.669519 2.1242676
0.17030273 16.674803 2.1237969
-0.63492674 16.685345 2.1265693
-1.0388086 16.690617 2.1298144
-1.4441454 16.695904 2.1343172
-1.8514453 16.701166 2.1400738
-2.2611523 16.706293 2.1470962
-2.6738133 16.71146 2.1554272
-19.882528 20.845928 3.6688907
-20.878819 20.859009 3.7587645
-27.780834 -6.4541626 3.6323678
-11.863535 -7.1417727 1.7635827
-10.891128 -6.9196906 1.6433688
-10.649878 -7.5110483 1.6597564
-10.829912 -8.0360775 1.7175336
-9.9735594 -7.7805953 1.6110257
-10.244761 -8.3974209 1.6870722
-9.4831934 -8.5702753 1.6279089
-9.1394043 -8.669137 1.6043326
-19.930117 -21.852251 3.7667515
-18.983311 -21.850195 3.6863751
-15.565585 -21.858356 3.4175818
-14.782944 -21.856527 3.3605709
-14.027128 -21.857233 3.3076603
-12.579717 -21.8535 3.2114305
-11.210532 -21.849003 3.1275842
-9.2735205 -21.830759 3.0208023
-7.4848437 -21.900311 2.9476058
-6.917202 -21.956408 2.9318373
-2.2301123 -7.7241583 1.0239235
-5.8153272 -22.131678 2.9143505
-5.2878075 -22.29933 2.9187779
-3.9755664 -28.97986 3.7254083
5.6497607 -7.6579003 1.2120101
5.8162789 -7.4980407 1.2085671
6.4203758 -7.8768749 1.2942233
6.7393551 -7.8725824 1.3198498
6.8068409 -7.5737033 1.2969012
7.2046628 -7.6374793 1.3372006
22.660971 -9.059516 3.1081727
23.367182 -7.4324012 3.1229417
23.09725 -6.7375431 3.064244
8.1157179 16.569946 2.3498645
7.6287155 16.576307 2.3239849
7.1520505 16.582539 2.2999942
5.7757468 16.600527 2.2385395
4.0386667 16.623655 2.1787565
3.617583 16.629259 2.1674211
2.3768847 16.645725 2.1414874
1.9690967 16.651117 2.1354494
1.1592627 16.661802 2.1271608
0.75619626 16.667105 2.1248922
-0.048500974 16.677668 2.1240628
-0.85445309 16.688213 2.1281807
-2.0739696 16.703953 2.1437349
-2.4852147 16.709099 2.1514647
-3.3179052 16.719524 2.170907
-6.3159127 28.240824 3.6855764
-20.497162 20.933386 3.7312944
-27.673775 -7.5256243 3.6525047
-25.807411 -9.0678444 3.4837961
-11.938594 -7.0091558 1.763167
-11.774014 -7.3000388 1.7643625
-10.666465 -7.3483677 1.6496402
-10.228417 -7.7999282 1.6382327
-9.7165089 -7.7872977 1.5858759
-9.2949314 -8.6243601 1.6148776
-18.484877 -21.849113 3.6449492
-17.596889 -21.847179 3.5727811
-16.755058 -21.861137 3.5079069
-15.136611 -21.857353 3.3860772
-13.624946 -21.856195 3.2801671
-12.902397 -21.854334 3.2322216
-12.200239 -21.852524 3.1874881
-11.516201 -21.849436 3.145591
-9.5608349 -21.836338 3.0359457
-8.9366598 -21.829393 3.0041263
-8.3295164 -21.834175 2.9762585
-7.7472558 -21.878595 2.9559777
-7.1753659 -21.930899 2.9387951
-6.612412 -21.991657 2.9247065
-6.0576072 -22.063183 2.9139316
-5.5262694 -22.213392 2.915313
-5.0229392 -22.492958 2.9352398
-4.195869 -24.23122 3.13199
-4.0233545 -27.109673 3.4904819
15.860746 -24.400986 3.7065036
5.7538037 -8.401248 1.2968591
5.4422607 -7.5490971 1.1852413
6.4996481 -7.7638454 1.2895547
6.8081541 -7.7448516 1.3133044
7.4765329 -7.3564792 1.3358517
22.33354 -9.2148676 3.0769851
22.704653 -8.7332125 3.0981784
23.048031 -8.2327633 3.1170213
23.563765 -7.7814178 3.1604602
20.692896 20.915239 3.7471325
7.8494873 16.573427 2.3355496
7.3682127 16.579712 2.3107092
4.6603122 16.61536 2.197778
4.2322264 16.621071 2.1843908
3.809082 16.626711 2.1724219
3.3903074 16.63228 2.1618309
2.9753368 16.637793 2.1525903
2.5636766 16.643251 2.1446686
2.1547899 16.648663 2.1380446
1.7481787 16.654037 2.1326959
1.343374 16.659374 2.1286104
0.93991697 16.66469 2.125772
0.53725094 16.669985 2.1241753
-1.4798535 16.696367 2.1347694
-2.2972999 16.706747 2.1477792
-3.1266406 16.717129 2.1659973
-6.0120797 28.343039 3.6900601
-27.86269 -7.2487426 3.6666899
-28.423012 -8.1313591 3.7651513
-26.833271 -8.3818798 3.5803058
-11.849077 -7.1673174 1.7636871
-10.601957 -7.1332092 1.6274295
-10.492373 -7.8201613 1.6666266
-9.9255371 -7.7770305 1.6059295
-10.181196 -8.3814735 1.6795269
-9.8062258 -8.4777622 1.6509329
-9.1097021 -8.6777 1.6023428
-18.902016 -21.850019 3.6795752
-17.997465 -21.848051 3.6050634
-17.1408 -21.862041 3.5381012
-14.715439 -21.856371 3.3557489
-13.961733 -21.857065 3.303149
-11.15207 -21.848921 3.1241775
-9.2184906 -21.829693 3.0179443
-8.0118647 -21.858408 2.9649782
-7.4347458 -21.90526 2.9461458
-2.2143309 -7.730938 1.0241977
-5.2452345 -22.330454 2.9213912
-4.7550049 -22.688828 2.9524105
-3.9656005 -29.369574 3.7744231
15.812905 -24.923218 3.7591717
15.973696 -23.882954 3.659339
5.9040475 -8.3825445 1.3058188
5.6908398 -7.6794438 1.2173254
6.806572 -7.5411878 1.2938015
7.2201366 -7.6214395 1.3370688
7.3962059 -7.4393539 1.3360445
7.5723925 -7.2577157 1.3358481
