# .PCD v0.7 - Point Cloud Data file format
VERSION 0.7
FIELDS x y z
SIZE 4 4 4
TYPE F F F
COUNT 1 1 1
WIDTH 1543
HEIGHT 1
VIEWPOINT 0 0 0 1 0 0 0
POINTS 1543
DATA ascii
0.12034668 16.38172 3.9964712
-0.67111325 16.392776 4.0024118
-1.4699218 16.439049 4.0263515
-1.8748974 16.475704 4.0452328
-2.2851465 16.521675 4.0688767
-2.7019873 16.577253 4.0974312
-3.1266503 16.642794 4.1310816
-3.5606005 16.718731 4.1700468
-4.0052881 16.80559 4.2145967
-5.4211082 17.138172 4.3850818
-5.926836 17.275797 4.4555998
-7.5796824 17.784525 4.716186
-25.119589 -6.5700827 6.3341331
-15.399873 -6.0880432 4.0397587
-15.593232 -6.6038733 4.1310902
-15.650713 -7.5383153 4.2378364
-15.705908 -8.0374451 4.304059
-14.352749 -9.1900234 4.1576419
-16.242247 -21.846647 6.6410999
-14.657441 -21.841963 6.4169822
-13.895664 -21.827192 6.3122754
-13.169457 -21.831997 6.219934
-11.830498 -21.940546 6.0809751
-11.192456 -22.012682 6.0243397
-10.58706 -22.128065 5.9842405
-10.023457 -22.317787 5.9683862
-9.5336571 -22.675854 6.0008655
-8.9292574 -24.482124 6.3573194
-8.8092232 -26.092211 6.7182517
0.27657226 -7.6025414 1.8558868
0.43514648 -7.1843047 1.7558441
0.64783204 -7.6369367 1.869742
1.0529541 -7.8768497 1.9386709
1.2500927 -7.895834 1.9502014
1.4497558 -7.9153295 1.9630865
1.6706103 -8.0234861 1.9993304
1.9266015 -7.4351702 1.8737335
2.2189307 -7.7846489 1.9747283
2.4756153 -7.9520822 2.0317638
2.8825145 -7.3402066 1.9237872
11.317939 -23.635189 6.3928514
11.685331 -22.963034 6.2855005
12.574394 -22.013363 6.1845899
13.112656 -21.721405 6.1896739
14.486679 -21.57184 6.3390527
15.272217 -21.596811 6.452827
16.877207 -21.577509 6.6828294
17.937519 -21.826708 6.8920822
18.439423 -8.8739376 4.9921536
18.763262 -7.9389844 4.9702191
18.755976 -7.4075732 4.919498
19.26289 -7.0753789 5.0062051
4.0016894 16.815546 4.2167554
3.5566015 16.727545 4.171947
2.2802978 16.527277 4.0700674
1.8697997 16.480282 4.0462012
1.0636865 16.414042 4.0126462
0.66566408 16.394398 4.0027509
-0.52152342 16.388016 3.9999232
-0.91860837 16.403364 4.0079136
-1.3182373 16.42758 4.0204344
-1.7215478 16.460794 4.0375571
-2.5438573 16.555136 4.0860691
-3.3956738 16.688837 4.1547079
-4.7540674 16.971331 4.2995744
-5.7337403 17.222157 4.4281154
-6.2520752 17.36904 4.5033679
-7.3588767 17.711798 4.6789389
-16.015972 -6.1636138 4.186481
-13.674883 -8.1282854 3.8808529
-14.488482 -9.0920401 4.1728115
-18.28623 -21.857361 6.9521399
-15.737621 -21.845972 6.5682616
-13.440932 -21.8302 6.2540259
-11.430898 -21.983965 6.044713
-10.805537 -22.066278 5.9938941
-10.228051 -22.229599 5.9694529
-9.2850246 -23.047842 6.0616932
-8.8713131 -25.507511 6.5882249
-7.2229395 -26.901049 6.7950182
-6.5260057 -26.879072 6.7477183
0.20628905 -7.5655255 1.8463159
0.36217773 -7.041441 1.7200488
0.97674805 -7.850471 1.9299099
1.3741113 -7.9079218 1.9580663
1.6048193 -8.0752649 2.0085077
2.0172558 -7.3296342 1.8545669
2.3405175 -7.7665768 1.9788421
2.6065478 -7.9497461 2.0409458
2.8312109 -7.4070635 1.9344753
11.051171 -25.194878 6.7116246
11.190586 -23.925989 6.4436827
11.93709 -22.610659 6.2374439
12.889013 -21.796991 6.1775436
13.49331 -21.61121 6.2153563
14.976494 -21.592934 6.410665
18.77284 -7.6125102 4.9418912
18.36124 -6.4327683 4.7462158
3.7231688 16.759428 4.188179
3.2849951 16.678322 4.1468906
2.8566699 16.607828 4.1110206
2.4367969 16.547483 4.0803375
2.023999 16.496908 4.0546408
1.6169726 16.45575 4.0337563
1.2145605 16.423773 4.0175624
0.41882813 16.386612 3.9988637
0.023320312 16.381195 3.9962392
-0.76856446 16.39654 4.0043702
-1.1671094 16.4174 4.0151772
-2.8054051 16.592398 4.1052089
-3.2322361 16.660458 4.1401448
-4.5766649 16.92993 4.2783508
-5.0517087 17.043634 4.3366323
-5.5434179 17.170609 4.4017015
-15.446528 -6.2125192 4.0615754
-15.70562 -6.7614164 4.1714005
-15.838237 -7.2764077 4.2520289
-14.99646 -8.2521667 4.1757345
-14.07564 -8.194005 3.9732485
-14.420844 -8.8676004 4.1299019
-14.337564 -9.3005104 4.1691298
-6.9544239 -7.7724404 2.5443075
-16.873926 -21.853676 6.7355323
-16.042011 -21.846378 6.6120214
-15.243853 -21.845306 6.4984555
-9.9037256 -22.405319 5.9760032
-9.0658932 -23.517368 6.1486559
0.13670897 -7.5289407 1.837009
1.7246192 -8.0438929 2.0069237
1.8143505 -7.5666766 1.8982342
1.9625098 -7.3932095 1.8660541
2.5270751 -7.9511456 2.0353143
2.7793262 -7.4747095 1.9454507
3.0480957 -7.1247654 1.8904864
11.399716 -23.44845 6.3604941
13.262275 -21.678095 6.1995993
14.678428 -21.580099 6.366919
15.465254 -21.597271 6.4802194
19.051445 -21.811621 7.0649705
18.634306 -8.8322239 5.0306654
18.756269 -8.3418245 5.0077705
18.790058 -7.8194208 4.9649591
3.8913574 16.792898 4.2052226
3.0172167 16.633217 4.1239371
2.1790283 16.514866 4.0637622
1.7699218 16.470188 4.0410805
0.96576661 16.408401 4.0097976
0.17250976 16.382215 3.9967055
-0.22283202 16.382227 3.9968562
-0.61881346 16.390963 4.0014658
-1.0164306 16.408487 4.0105672
-1.8211962 16.470335 4.0424685
-3.0701611 16.633566 4.1263423
-3.5027881 16.708109 4.1645975
-5.3557663 17.121071 4.376318
-5.8590379 17.256813 4.4458723
-6.3826218 17.407459 4.5230527
-6.9292674 17.574301 4.6085138
-15.56727 -6.5345221 4.1186814
-15.586997 -7.9140439 4.2645416
-14.587705 -7.8550792 4.041841
-13.424174 -8.0872555 3.8232291
-18.066845 -21.856787 6.9178109
-16.350512 -21.846792 6.656919
-15.541728 -21.845707 6.5403929
-13.994721 -21.829105 6.3256783
-12.576709 -21.872511 6.1550598
-11.916127 -21.932079 6.0891004
-11.275591 -22.00267 6.0313854
-9.1994333 -23.231239 6.0954957
-8.8366404 -25.901314 6.6763058
0.25191405 -7.5895481 1.8525097
1.0271192 -7.8743858 1.93725
1.2239453 -7.8932981 1.9486032
1.652041 -8.0628529 2.0078192
1.7076416 -7.4189959 1.8572079
1.9071875 -7.4578753 1.8779178
2.6584864 -7.9488621 2.0447237
2.7268555 -7.543159 1.956723
2.9985156 -7.1892052 1.9002615
11.273633 -23.736341 6.4104724
13.657598 -21.588667 6.2320228
15.16916 -21.596561 6.4382911
16.76708 -21.577803 6.6663685
17.816532 -9.1815968 4.8895969
18.539032 -7.9137712 4.9174662
18.761835 -7.4790154 4.9272537
19.257929 -7.143259 5.0108047
18.176983 -6.2475882 4.6889372
3.1790576 16.660067 4.1376009
2.7528906 16.592098 4.1030207
1.9236132 16.485939 4.0490732
1.5178467 16.447062 4.0293522
0.71805662 16.39649 4.0038023
0.32167968 16.384476 3.9978065
-0.073715821 16.381197 3.9962759
-0.86612302 16.400839 4.0066037
-2.0755517 16.497086 4.0562305
-2.4888623 16.547743 4.0822711
-2.9093506 16.608154 4.1132994
-3.7773681 16.759954 4.1911936
-4.2279444 16.852385 4.2385921
-5.6668897 17.203901 4.4187622
-6.1824851 17.34878 4.492991
-6.7200875 17.50935 4.5752449
-7.873374 17.883314 4.7667804
-8.4959621 18.100113 4.8778033
-15.493701 -6.3383245 4.0837741
-15.936362 -6.9728832 4.2435737
-15.560556 -7.7232914 4.2379017
-15.295537 -8.0574427 4.2174582
-14.897993 -8.313282 4.1619534
-13.812768 -8.1508551 3.9126003
-17.519531 -21.85536 6.8332496
-15.843589 -21.846113 6.5834351
-15.052031 -21.844946 6.4717112
-13.536489 -21.829567 6.26615
-12.162549 -21.907707 6.1128306
-10.304004 -22.20812 5.9724741
-9.3306246 -22.95013 6.0437708
-6.6156688 -26.875179 6.7519922
0.18189453 -7.5526953 1.8430343
0.33738768 -6.9929104 1.7079241
0.53475583 -7.379415 1.8049483
0.94921386 -7.8325248 1.9247445
1.3477734 -7.9053526 1.9563586
1.5794384 -8.0819607 2.0089133
1.7256933 -7.8225803 1.9542236
1.9981836 -7.3517199 1.8585364
2.5787256 -7.9502287 2.0389533
2.8131347 -7.4306207 1.9382778
11.052392 -25.417318 6.7614756
11.158896 -24.057678 6.4695435
11.483994 -23.270264 6.3304992
11.878125 -22.673344 6.2442822
13.412412 -21.634628 6.2097826
15.659902 -21.597736 6.50807
16.454803 -21.578638 6.6200595
17.609228 -9.2786617 4.8556924
18.16832 -9.0200453 4.9483891
18.82168 -8.7848921 5.0671158
18.761494 -7.6774931 4.9453111
18.735918 -7.1442742 4.8916931
18.462158 -6.5341716 4.7776542
2.4917383 16.554876 4.084095
0.86800778 16.403301 4.0072274
0.47106934 16.387974 3.9995401
0.075463869 16.381413 3.9963303
-0.31991211 16.38356 3.9975746
-1.5156835 16.442743 4.0282564
-2.332119 16.527496 4.0718675
-2.7497461 16.584183 4.1009889
-3.1753857 16.650875 4.1352277
-4.0565333 16.816162 4.2200217
-4.5151463 16.915876 4.2711473
-4.9881396 17.027897 4.328567
-5.9854784 17.292336 4.4640718
-7.6469431 17.806942 4.7276673
-8.2570114 18.015759 4.8346047
-15.421371 -6.145411 4.0497956
-15.673129 -7.6020885 4.2495313
-15.049741 -8.2191486 4.1832633
-14.34309 -8.2886486 4.0412703
-14.594819 -8.9107313 4.171587
-14.312119 -9.2194014 4.1531754
-6.9715381 -7.7418804 2.5415506
-17.849525 -21.85622 6.8840475
-16.985449 -21.853968 6.7522545
-14.569677 -21.840258 6.4047337
-13.812114 -21.827744 6.3014646
-13.088857 -21.833403 6.2100949
-11.756992 -21.947817 6.074049
-9.1128321 -23.416792 6.1299143
-6.8657274 -26.835794 6.7575245
0.45769042 -7.2284484 1.7669308
0.67016113 -7.6513939 1.8737234
0.8712402 -7.7817826 1.9102474
1.2726318 -7.898026 1.9515972
1.6971436 -7.1787066 1.7995398
1.9432422 -7.4157181 1.8701644
2.2410545 -7.7813225 1.9754348
2.8978319 -7.3202515 1.9206299
11.083467 -24.476206 6.5546947
11.355869 -23.548574 6.3778195
11.729854 -22.895107 6.275681
12.123711 -22.319815 6.196384
12.631767 -21.973906 6.1831932
14.575175 -21.575649 6.351881
16.972422 -21.577255 6.6971154
9.8705759 -7.7077408 3.0550835
18.952618 -7.9579444 5.0145802
18.751211 -7.346375 4.9129505
19.253349 -7.0121226 4.9987183
3.0736475 16.642427 4.1286244
2.2334278 16.521461 4.0671139
1.8235497 16.475548 4.0437989
-0.96383786 16.40567 4.0091071
-2.5912793 16.561634 4.0894098
-3.8868408 16.781576 4.2022815
-4.8078318 16.984129 4.3061323
-5.7915525 17.238077 4.4362726
-6.8557324 17.551317 4.5967436
-7.4248438 17.733379 4.6899924
-8.0229731 17.934515 4.7930026
-25.117895 -6.3990912 6.3233032
-16.016026 -6.2140632 4.1909285
-15.541421 -6.4655614 4.1063752
-15.904428 -7.0714417 4.24615
-15.786426 -7.4802494 4.2616019
-15.487724 -7.8017263 4.2305655
-14.838398 -7.9292541 4.1042848
-13.557968 -8.1091499 3.8539646
-14.447549 -9.121583 4.1682005
-17.307598 -21.854805 6.8009238
-15.646791 -21.84585 6.5553088
-14.094204 -21.831036 6.3392062
-13.358965 -21.830742 6.2436805
-12.00206 -21.923578 6.0973167
-10.739726 -22.08489 5.990931
-10.162832 -22.248041 5.9669189
-8.9720259 -24.121401 6.2783518
0.22734374 -7.5766091 1.8491653
0.3838037 -7.0837708 1.730639
0.58670408 -7.4813476 1.8306979
0.79447263 -7.731925 1.8961548
1.0005761 -7.8660064 1.9343948
1.3968213 -7.91014 1.9595556
1.6266503 -8.069519 2.0081792
1.7137305 -7.5553827 1.8899755
1.8876758 -7.4807072 1.8821435
2.3627441 -7.7633276 1.9796542
2.6305323 -7.9493346 2.0426803
2.846709 -7.3868618 1.9312295
11.050146 -25.006073 6.6693687
11.229101 -23.838057 6.4282556
11.987744 -22.556807 6.2316184
12.440928 -22.105156 6.1880088
16.657421 -21.578094 6.650044
17.743788 -9.2157001 4.877656
17.223593 -8.4242258 4.6774049
17.466591 -8.0267744 4.6894221
18.767744 -7.5506802 4.9350901
4.1211329 16.84066 4.2295485
3.2359471 16.669804 4.1425552
2.8085887 16.600475 4.1072836
2.3895946 16.54125 4.0771699
1.5710986 16.451664 4.0316854
1.1691308 16.420713 4.0160151
-0.41704589 16.385431 3.9985652
-0.81365722 16.398462 4.0053697
-1.2125 16.420313 4.0166831
-1.614707 16.451143 4.0325856
-2.43396 16.540504 4.0785513
-2.8534276 16.599609 4.108912
-3.2812402 16.668827 4.1444411
-4.167788 16.839521 4.2319984
-5.1066699 17.057373 4.3436747
-5.6004004 17.1859 4.4095387
-6.1132712 17.328812 4.4827595
-6.6478076 17.487226 4.5639124
-7.2068653 17.662533 4.6537075
-15.468271 -6.2705207 4.0717912
-15.599824 -7.6809931 4.2419157
-14.95083 -8.2804708 4.1693306
-13.952939 -8.1738024 3.9449141
-14.284697 -9.3219223 4.1611676
-17.634325 -21.855659 6.8508582
-15.155005 -21.845188 6.4860482
-14.38121 -21.836603 6.3785863
-12.921249 -21.846201 6.1918578
-12.24916 -21.899139 6.1212878
-11.598622 -21.963764 6.0593405
-10.967075 -22.039825 6.0055504
-10.37998 -22.18663 5.9755516
-9.8482323 -22.445889 5.9796042
-9.0383883 -23.638788 6.1739049
-8.901474 -25.078539 6.4919333
0.15757324 -7.539907 1.8397827
-15.565175 -6.6504879 3.7275078
-15.689472 -7.1560678 3.7975295
-15.557456 -7.5545092 3.8085995
-14.769394 -8.0745735 3.7068291
-14.125957 -8.1715784 3.5937929
-18.731464 -21.858217 6.3392687
-16.969608 -21.853628 6.0931234
-16.134769 -21.846979 5.9809518
-14.555556 -21.840044 5.7798424
-13.798745 -21.828003 5.6868701
-13.076518 -21.834814 5.604784
-12.39997 -21.886465 5.5396152
-11.109746 -22.023275 5.4320836
-9.9602051 -22.367163 5.3919578
-9.4696331 -22.725809 5.4217272
-9.1082468 -23.435804 5.5370688
-8.8068066 -26.361691 6.1207199
0.45597655 -7.1509795 1.5779748
0.66297364 -7.5307646 1.6648272
1.2674218 -7.8435559 1.7497003
2.2757518 -7.8886771 1.8080755
2.4820018 -7.8840976 1.8202261
2.6630077 -7.7970214 1.8144338
2.7524903 -7.4650521 1.7521316
11.083975 -24.448544 5.9114819
11.359716 -23.529911 5.7539845
11.735205 -22.880507 5.6627917
12.639941 -21.965492 5.5809226
13.845898 -21.581049 5.6465759
19.677294 -21.578459 6.4310837
17.466757 -9.3977785 4.3679166
17.907509 -9.0847168 4.4220095
17.000254 -8.1147928 4.1484089
17.939463 -8.0375233 4.3289905
18.828701 -7.3670902 4.4525242
18.914228 -6.8790855 4.4321899
27.150244 -5.6179218 6.1056385
16.352051 24.295219 6.4492345
3.2470899 15.514468 3.490598
2.8588328 15.517892 3.4748318
2.0916991 15.525213 3.4498274
1.7118359 15.529117 3.4405115
0.95719725 15.537413 3.4281099
0.62142086 16.608477 3.6600494
-0.18054199 16.61891 3.6600037
-0.58198732 16.62417 3.6631894
-0.98437989 16.629467 3.668525
-2.060703 15.577968 3.4604411
-3.6212549 15.603468 3.5274947
-4.4285645 15.617804 3.5749242
-4.8409863 15.625419 3.6023636
-5.7453856 15.80335 3.7030454
-6.2290235 15.926045 3.7659254
-6.7331152 16.061256 3.8352077
-15.969096 -6.203999 3.7727566
-15.520937 -7.3629179 3.7830942
-15.544902 -7.8392196 3.8339353
-14.918628 -7.9806042 3.7258937
-14.366167 -8.1368704 3.635905
-14.20248 -8.9756804 3.6998842
-13.633188 -9.0835047 3.6076412
-18.167768 -21.856747 6.2589512
-16.444574 -21.847397 6.0218124
-14.080332 -21.830824 5.7207675
-12.653388 -21.867119 5.5636377
-11.990396 -21.925285 5.5032043
-10.729649 -22.089043 5.4079261
-9.2410841 -23.151083 5.4894481
-8.9719238 -24.153765 5.6741991
-8.8564358 -25.728456 5.9921656
0.58347166 -7.3981366 1.6342654
0.98782712 -7.7384081 1.7179693
1.5910693 -7.8748865 1.7692373
1.7958691 -7.9013085 1.7843918
1.9961474 -7.8957891 1.7935042
2.1986768 -7.8905692 1.8038467
2.699995 -7.5332913 1.7623031
2.8378515 -7.3541722 1.7359207
2.9717724 -7.1803946 1.7113323
12.449072 -22.096771 5.5852475
16.672598 -21.578016 6.0050888
17.190077 -8.3984003 4.2132111
18.805889 -8.0886402 4.5082297
18.145761 -6.2925229 4.2294827
19.678858 -6.2964959 4.5500722
27.204111 -5.8878555 6.1295543
27.176054 -5.1987052 6.0931907
4.1864061 15.506937 3.5371699
3.394536 15.513216 3.4971247
1.8549218 15.527625 3.4437819
1.0992285 15.535794 3.4298182
-0.43043944 16.622181 3.6617382
-0.83242673 16.627464 3.6662586
-1.535249 15.570066 3.4454432
-2.6866162 15.587835 3.4833398
-3.870327 15.607808 3.541225
-4.2745652 15.61501 3.5652287
-4.6846385 15.622508 3.5917087
-6.044282 15.878344 3.741478
-6.5403662 16.008707 3.8082826
-7.0584521 16.152243 3.8818257
-7.6012936 16.310125 3.9627101
-8.1719332 16.483681 4.0516133
-15.418901 -6.2584991 3.664577
-15.613857 -6.7809043 3.7487154
-13.860923 -8.1282005 3.538553
-13.84458 -9.0434351 3.6416421
-16.762705 -21.85309 6.0651951
-13.619243 -21.829191 5.6660666
-12.237383 -21.90086 5.5248117
-11.587202 -21.965776 5.4690404
-9.3716602 -22.871229 5.4430966
0.50515622 -7.2463021 1.5996423
0.71080077 -7.561235 1.6724648
0.91043943 -7.6888123 1.7050472
1.1182079 -7.8220649 1.7400763
1.3159033 -7.8482003 1.7524436
1.920332 -7.8978362 1.7899227
2.1219776 -7.8925033 1.7997979
2.2850585 -7.7483468 1.7789828
2.6468945 -7.6023459 1.7727481
11.133223 -24.175463 5.8612924
11.441054 -23.344252 5.7250476
13.342363 -21.653811 5.6011109
14.022383 -21.57394 5.6663427
14.782412 -21.584911 5.761261
15.569765 -21.597681 5.8632593
17.1954 -21.57662 6.0759239
18.525194 -8.1685801 4.4585862
18.802588 -7.754519 4.4789963
27.124296 -5.4452538 6.0924463
16.10998 24.244232 6.4102683
3.5425439 15.511981 3.5039737
3.1514697 15.515291 3.4865253
1.2412499 15.534203 3.4318218
0.86497068 15.53848 3.427156
0.52300292 16.609753 3.6595848
0.12206054 16.614962 3.6590183
-0.68063962 16.625467 3.6642997
-1.3920214 15.567972 3.4420321
-1.772246 15.573587 3.4517257
-2.154829 15.57942 3.463536
-3.7191503 15.605165 3.5327971
-4.1213913 15.612259 3.5558879
-4.5291796 15.619644 3.5814221
-5.8622851 15.83235 3.7179086
-6.3507566 15.958034 3.782316
-6.8602295 16.096468 3.8532491
-7.9531641 16.416271 4.0170827
-15.986425 -6.3199296 3.7856221
-15.706474 -7.1035199 3.7961526
-15.577676 -7.5031371 3.807682
-14.821352 -8.0418167 3.7134261
-14.905776 -8.5594673 3.7852376
-14.060059 -9.0026293 3.6766069
-6.9993067 -7.730011 2.2964399
-17.081591 -21.85392 6.1083322
-15.437529 -21.846035 5.8908606
-14.657471 -21.842022 5.7926865
-13.895776 -21.827362 5.6981983
-11.192759 -22.013281 5.4383812
-10.024521 -22.320141 5.3882909
-9.5346727 -22.678263 5.4176035
-9.1549263 -23.335737 5.5202794
0.27387208 -7.5282941 1.6589661
0.43009764 -7.1008372 1.5666006
0.63626462 -7.5005517 1.657692
0.8341943 -7.6400113 1.6924707
1.0388184 -7.7710948 1.7265612
1.2414209 -7.8410721 1.7482558
2.2487743 -7.8893332 1.8065765
2.4546239 -7.8846622 1.8185433
2.6635449 -7.8805132 1.8318799
3.0040772 -7.1385355 1.7055651
11.315663 -23.630468 5.7697372
13.1121 -21.720472 5.5872374
13.751582 -21.584848 5.6360898
14.486914 -21.572182 5.7224145
15.272324 -21.596968 5.8250709
16.054979 -21.579668 5.9232016
17.834238 -9.1190424 4.4110665
16.78371 -8.0771265 4.101819
17.713936 -8.0042639 4.2806997
18.823662 -7.4343033 4.4569044
19.57959 -6.6601129 4.5544095
2.5244629 15.520992 3.4629233
0.67433107 16.607794 3.6603553
0.27330565 16.612993 3.6589801
-0.1276416 16.618219 3.659745
-0.52900881 16.623472 3.6626472
-0.93123043 16.628767 3.6676984
-1.3348047 16.6341 3.6749096
-1.6285692 15.571444 3.4478209
-2.0101366 15.577193 3.458827
-2.3945262 15.583167 3.4719799
-3.173291 15.595843 3.5048635
-3.5687549 15.602562 3.5247035
-3.9690526 15.609551 3.5468926
-4.3746386 15.616819 3.5714965
-4.7862058 15.624393 3.5985963
-6.1641016 15.909163 3.7572744
-6.6653905 16.042675 3.8256862
-7.1892676 16.18961 3.9009695
-15.465903 -6.3844929 3.6846664
-15.755097 -6.9534464 3.7924495
-14.971206 -7.9475608 3.7326872
-14.47958 -8.1403532 3.6580346
-13.706645 -9.0695772 3.6194224
-16.557652 -21.852558 6.0377207
-15.737959 -21.846439 5.9293604
-14.94933 -21.844379 5.8291769
-13.44103 -21.830368 5.6456137
-12.742499 -21.860317 5.5721984
-12.076504 -21.916773 5.5106859
-10.806104 -22.067419 5.4110241
-10.228583 -22.230743 5.3889647
-9.2869825 -23.052708 5.4731064
-8.8749361 -25.517939 5.9496875
0.35805175 -6.9612761 1.5350277
0.75907713 -7.5920281 1.6802411
1.5644823 -7.8722839 1.7675256
1.7696191 -7.9020586 1.7832818
2.3766015 -7.8863058 1.8138577
2.9543211 -7.203023 1.714476
11.18832 -23.921181 5.8156066
11.935596 -22.607828 5.6298947
12.382295 -22.1427 5.5868673
12.887832 -21.795013 5.5760059
14.200117 -21.56678 5.6864514
15.765273 -21.598146 5.8886328
16.563437 -21.578308 5.9904709
18.2796 -21.57373 6.2270408
18.182831 -8.955224 4.4634953
18.898056 -8.7473879 4.5859036
18.707041 -8.1167545 4.4907031
19.593838 -7.4001074 4.6124067
18.243925 -6.3916659 4.2570834
19.682802 -6.3668871 4.5556459
4.2392969 15.506544 3.5401397
3.8404248 15.509588 3.5186462
3.0560937 15.516131 3.4825845
2.6694922 15.519632 3.4678981
2.2859764 15.52329 3.4553812
1.1488427 15.535235 3.4304864
0.77273923 15.539554 3.4263229
-0.37749022 16.621489 3.6612995
-0.77936035 16.626766 3.6655374
-1.8658594 15.574999 3.454427
-2.2491503 15.580887 3.4667635
-3.0252049 15.593375 3.4979773
-3.817451 15.606881 3.5382409
-4.2209473 15.614044 3.5619249
-6.4737206 15.99078 3.7990975
-8.0949507 16.459837 4.0393996
-25.138353 -8.0526447 5.8130274
-15.393852 -6.1913409 3.6539214
-15.674853 -7.2013421 3.7987533
-15.523852 -7.5908165 3.8054507
-14.901176 -7.7372961 3.6975088
-14.724926 -8.1027498 3.7012267
-14.002207 -8.1512594 3.5679781
-14.508617 -8.9215755 3.7507942
-13.919409 -9.0292587 3.6537492
-6.9551268 -7.7732401 2.297008
-18.627583 -21.857946 6.3243613
-16.873716 -21.853378 6.0801525
-16.042358 -21.846853 5.9688644
-15.244169 -21.845774 5.8663449
-14.468227 -21.838352 5.7688951
-13.715508 -21.828554 5.6771984
-12.998911 -21.84074 5.5971408
-12.324175 -21.892277 5.5325122
-11.038462 -22.031864 5.4267225
-9.9047756 -22.40769 5.3951645
-9.4167824 -22.774506 5.4271812
-9.067832 -23.522411 5.5516443
-8.9143114 -24.898422 5.8239198
-8.800952 -26.586069 6.1671958
0.31954589 -7.5521483 1.6646099
0.47855467 -7.1947412 1.5879171
0.68503416 -7.5448132 1.6683407
0.8836816 -7.6716733 1.7006146
1.2898388 -7.8457012 1.7509613
1.4887158 -7.8648953 1.7627499
2.0952294 -7.8931899 1.7984232
2.2954199 -7.8757477 1.8065472
2.6511083 -7.6932211 1.7919617
2.904038 -7.2682528 1.7236352
11.779531 -22.81287 5.6540184
13.261689 -21.677168 5.5961986
13.927441 -21.577763 5.6556811
14.678661 -21.580441 5.7475681
15.465351 -21.597429 5.8497996
16.253954 -21.579136 5.9493637
17.945585 -21.574619 6.1799021
18.842363 -21.572226 6.3076205
19.785614 -21.578194 6.4471374
9.9100876 -7.6879492 2.7620914
17.190498 -8.147892 4.1893725
18.81834 -6.7859139 4.405354
27.138203 -5.5379639 6.0994992
3.9903221 15.508421 3.5264773
3.202827 15.51485 3.4886966
2.8149755 15.518291 3.4731822
0.91453123 15.537906 3.4276528
0.5759033 16.609066 3.6598186
-0.62763673 16.624769 3.6636901
-1.0301465 16.630072 3.6692662
-2.1041553 15.578636 3.4618547
-3.269912 15.597469 3.5095198
-3.6665137 15.604249 3.5299306
-4.0679588 15.611307 3.5526984
-4.8881788 15.6263 3.605639
-5.3319287 15.704288 3.6522691
-6.2851901 15.940753 3.7734616
-6.791738 16.07744 3.8435006
-7.3215771 16.227848 3.9205587
-7.8776269 16.393232 4.0052829
-8.4633102 16.575094 4.0984364
-25.129013 -7.7980747 5.7942052
-15.964907 -6.2527652 3.7758005
-15.594663 -7.4502549 3.8060184
-15.444272 -7.8415771 3.8143954
-14.269633 -8.1339169 3.6170995
-14.628041 -8.8125105 3.7607718
-14.136381 -8.9881859 3.6890633
-18.974672 -21.858847 6.3743553
-18.066607 -21.856483 6.2446909
-17.194233 -21.854214 6.1236911
-15.542065 -21.846176 5.9041977
-13.994761 -21.829165 5.7102647
-12.576972 -21.872953 5.556344
-10.663916 -22.10763 5.4053001
-8.9514742 -24.302582 5.7033777
-8.8403072 -25.912045 6.029264
-8.4594088 -26.902948 6.2105112
0.40456054 -7.0513592 1.5553927
0.80782223 -7.6231561 1.6881585
1.0113525 -7.7534819 1.7219225
1.2154688 -7.8385983 1.7468328
1.8185155 -7.9006662 1.7853665
2.2218311 -7.8899956 1.8051007
2.4272997 -7.8852324 1.8168844
2.7158446 -7.5126843 1.7592169
2.8532519 -7.3341703 1.7330379
11.271377 -23.731579 5.7856359
11.631592 -23.038574 5.6834717
12.04501 -22.491528 5.6185946
13.031914 -21.743687 5.5825195
13.657578 -21.588636 5.6257029
14.38455 -21.567774 5.7090697
15.169277 -21.596722 5.8119531
18.499725 -21.573141 6.2583933
19.381006 -7.1889105 4.5522084
18.062225 -6.2081499 4.2060294
19.675478 -6.2360392 4.5453262
27.186377 -5.8061395 6.1219592
3.7432959 15.510357 3.5137312
3.3501368 15.51359 3.4951286
2.9609325 15.516973 3.4787774
2.5750928 15.520514 3.4646254
1.4333788 15.532093 3.434989
0.3261621 16.612309 3.6590397
-0.074760742 16.617527 3.6595209
-1.578374 15.570702 3.4465272
-2.7307177 15.588549 3.4851587
-3.1214209 15.594976 3.5024176
-3.5163426 15.601661 3.5219536
-3.9158494 15.608612 3.5438244
-6.0995407 15.892501 3.7487357
-6.5979929 16.024307 3.8162766
-7.1188135 16.169422 3.8906257
-7.6646142 16.329004 3.9723811
-15.440566 -6.3165841 3.6738217
-15.772123 -6.9010186 3.7912338
-14.594453 -8.1439009 3.680491
-14.357676 -8.9463491 3.7254016
-13.780518 -9.0555735 3.6313062
-18.404741 -21.857365 6.2925425
-17.519281 -21.855059 6.1683531
-15.052109 -21.845066 5.842113
-13.536592 -21.829739 5.6565552
-9.7847166 -22.495462 5.4022508
-9.3325872 -22.95496 5.4569187
-8.8931637 -25.310436 5.907876
0.36552733 -7.57619 1.6703568
0.52836913 -7.2913089 1.6098905
1.1414502 -7.8315711 1.7428787
1.5990869 -7.2486744 1.6346719
1.9431006 -7.8972158 1.7909814
2.1450047 -7.8919177 1.800997
2.9368114 -7.2257419 1.7176504
11.155713 -24.050785 5.8384485
11.482167 -23.266552 5.7136912
12.32084 -22.198359 5.5909848
13.411836 -21.633701 5.6053858
14.872128 -21.588774 5.7731466
19.075586 -21.579943 6.3428049
18.10833 -8.9902601 4.4522071
18.796455 -8.7731209 4.5680075
18.608906 -8.1447077 4.473351
18.547226 -7.5898056 4.4131927
18.343428 -6.4921474 4.2850971
4.2922654 15.506156 3.5431521
3.8927929 15.509178 3.5213487
3.4979346 15.512352 3.5018792
2.7202978 15.519161 3.4697108
1.9551367 15.526595 3.4462445
0.076528318 16.615555 3.6590874
-0.324541 16.620792 3.6609035
-0.72625488 16.626068 3.6648567
-1.435083 15.5686 3.4430263
-1.8155371 15.574234 3.4529572
-3.7646093 15.605958 3.5352991
-4.167407 15.613082 3.5586598
-4.9905858 15.628226 3.6128399
-5.4449854 15.730822 3.665868
-6.4075098 15.973097 3.790035
-15.561557 -6.6408038 3.7259398
-15.69184 -7.1487527 3.7973361
-15.16188 -7.8114905 3.7560134
-14.77663 -8.069994 3.7077436
-14.146269 -8.1749125 3.5980322
-14.38019 -8.7796907 3.7103529
-13.99478 -9.014986 3.6659839
-17.849287 -21.855917 6.21421
-13.089116 -21.833853 5.6060276
-12.412305 -21.885527 5.5407615
-11.757251 -21.948339 5.4832287
-9.4787006 -22.719179 5.4211473
-9.1147804 -23.421797 5.5347157
0.45233399 -7.1439304 1.5763754
0.6593945 -7.5284858 1.6642587
1.0625781 -7.7863407 1.7305895
1.2637988 -7.8432097 1.7494982
1.611123 -7.6329627 1.717955
2.0685401 -7.8938818 1.7970715
2.272002 -7.8887682 1.8078665
2.4781885 -7.8841758 1.8199899
3.0189452 -7.1192822 1.7029327
11.080263 -24.469126 5.9152722
11.353603 -23.543875 5.7561646
11.728007 -22.891483 5.6642199
12.154042 -22.375648 5.607533
12.630634 -21.971909 5.5811229
13.181201 -21.700468 5.5913572
15.361416 -21.597181 5.8364573
16.146767 -21.579418 5.9352427
19.659834 -21.578501 6.4285059
9.8683491 -7.7060032 2.757246
16.969639 -8.1094637 4.1418166
18.827997 -7.3764572 4.4531307
18.947226 -6.9006305 4.4406428
27.152197 -5.6308985 6.1066418
3.6463916 15.511136 3.5089536
2.0987401 15.525143 3.4500201
1.340791 15.533101 3.4333928
0.62881833 16.608381 3.6600919
0.22782715 16.613586 3.6589608
-1.2920361 15.566525 3.4398232
-2.053628 15.577857 3.4602122
-2.4383006 15.583863 3.4736056
-3.2179492 15.596593 3.5070021
-4.8333154 15.625275 3.6018319
-5.2715378 15.690284 3.6450903
-5.7366748 15.801205 3.7019451
-6.2199559 15.923682 3.764714
-7.8026657 16.370514 3.993644
-8.3842525 16.550114 4.08564
-15.986338 -6.2025456 3.7761819
-15.487837 -6.4432726 3.6940842
-15.740468 -6.9985423 3.7935269
-15.503451 -7.3461661 3.7780311
-14.925922 -7.9760184 3.7268319
-14.381865 -8.1373529 3.6389701
-13.489199 -8.0680208 3.4613631
-13.643433 -9.081562 3.609287
-19.097294 -21.859169 6.3921409
-16.459742 -21.847416 6.0238209
-15.647128 -21.846317 5.9176707
-12.665845 -21.866167 5.5648327
-11.359277 -21.993227 5.4511719
-10.163364 -22.249189 5.386672
-9.6644287 -22.583403 5.4095373
-9.2475243 -23.137285 5.4871531
-8.9751949 -24.129902 5.6695275
-8.5461426 -26.879442 6.2113304
0.37940916 -7.002634 1.5443704
0.57958984 -7.3906097 1.6325463
0.78157222 -7.6063871 1.6838851
1.1895556 -7.8361335 1.7454312
1.3870898 -7.855051 1.7565905
1.7922217 -7.901413 1.784237
2.1949315 -7.8906627 1.8036458
2.9693456 -7.1835384 1.7117672
11.045488 -24.995556 6.0179725
11.226826 -23.833256 5.801682
11.98625 -22.553989 5.6246386
12.439804 -22.103149 5.5854664
12.951826 -21.766874 5.5778589
13.563935 -21.592409 5.6154089
18.381151 -21.573456 6.2414756
17.688828 -9.1871557 4.3894715
17.157549 -8.3919258 4.2061472
18.79203 -8.0925789 4.5057716
18.814569 -7.56952 4.4660664
18.159327 -6.3062167 4.2332926
3.7954783 15.509942 3.5163569
3.4017627 15.513153 3.4974501
3.0120604 15.51652 3.4808056
2.2425976 15.523714 3.4540951
1.8618847 15.527555 3.4439464
1.4832519 15.531551 3.4358931
-0.021875 16.616837 3.6593361
-0.82500976 16.627367 3.6661572
-1.5281836 15.569962 3.445266
-1.9092969 15.575655 3.4557211
-3.0696728 15.594112 3.5000126
-3.4639549 15.600762 3.5192437
-3.8628955 15.607679 3.5408032
-4.2671094 15.614874 3.5647669
-4.6770458 15.622367 3.5912008
-5.1003027 15.651265 3.6250863
-5.5591307 15.75804 3.679822
-6.0353222 15.876056 3.7403064
-6.5310202 16.006187 3.8069918
-7.0487499 16.149483 3.8804116
-14.455678 -8.943655 3.7434227
-19.450155 -21.858145 6.4433627
-17.634071 -21.855356 6.1842489
-15.950405 -21.846727 5.9568796
-14.38124 -21.836662 5.7580271
-13.632592 -21.829102 5.6676073
-12.921518 -21.846647 5.5895629
-10.967359 -22.040424 5.4214134
-9.8492775 -22.448267 5.3984203
-9.3779535 -22.857729 5.4408741
-9.0415277 -23.647007 5.5751781
-8.9054251 -25.089699 5.862937
-8.7949953 -26.814104 6.2144823
-15.933608 -6.3577685 3.3747435
-15.737056 -7.1777668 3.4025748
-14.052852 -8.1292858 3.1936798
-6.9676461 -7.7444487 2.0493174
-16.969398 -21.853334 5.4428439
-16.135122 -21.84745 5.3428283
-15.333725 -21.846357 5.2505298
-11.74559 -21.950039 4.8973169
-11.110048 -22.023872 4.8525443
-10.511987 -22.151882 4.8234444
-9.9612446 -22.369507 4.8170753
-9.4706297 -22.728203 4.8436747
-9.1101704 -23.44076 4.9472446
0.45075193 -7.0690689 1.3934402
0.84698731 -7.5347929 1.4915682
1.0490772 -7.6621509 1.5213488
1.2587597 -7.7900162 1.5523171
1.4559277 -7.8086638 1.5625796
1.6414795 -7.7597356 1.5602624
1.8558447 -7.834425 1.5838259
2.2568798 -7.8232665 1.6017398
2.4613233 -7.8184037 1.6124374
2.736665 -7.4221301 1.5561587
2.8775244 -7.2595048 1.5361753
11.089482 -26.118837 5.5819845
11.080801 -24.441538 5.2791381
11.35748 -23.525263 5.1389475
12.638808 -21.963518 4.9849167
14.58999 -21.576952 5.1238708
15.375977 -21.597372 5.2153296
16.16168 -21.579342 5.303628
16.987881 -21.577139 5.4022813
18.738739 -21.572466 5.6211619
19.677002 -21.578136 5.7447228
16.881104 -8.0579157 3.6797514
18.786934 -7.8785801 4.0075574
27.277304 -8.4547205 5.6177988
27.291592 -7.7425327 5.5806308
3.4676855 16.568499 3.3299489
1.828789 16.589937 3.2833157
1.4250391 16.595221 3.2765989
0.62131834 16.605738 3.2689409
-2.2015479 16.6427 3.3024466
-3.4448633 16.658993 3.3464634
-5.6147604 16.687437 3.4635658
-6.0690284 16.693584 3.4942238
-6.5317283 16.699993 3.5275402
-7.9777002 16.718536 3.644089
-8.4235153 15.660733 3.4981275
-15.140307 -6.3065672 3.2264311
-15.450956 -7.3297148 3.3641522
-14.957041 -8.0011539 3.3368628
-14.139311 -8.9357586 3.2903624
-19.079863 -21.858818 5.7077169
-17.291269 -21.85417 5.4820347
-16.444931 -21.84787 5.3793249
-14.84706 -21.843815 5.195703
-14.08039 -21.830885 5.1103096
-13.345869 -21.831167 5.0335026
-11.990679 -21.925806 4.9160609
-11.347974 -21.99522 4.868793
-10.730205 -22.09017 4.8310804
-9.2430325 -23.155928 4.9046884
-8.9750586 -24.162197 5.0704665
-8.8600483 -25.73893 5.3549109
0.57654786 -7.3103971 1.4425555
0.97187495 -7.6134324 1.5098547
1.3812305 -7.801569 1.5585797
1.6759276 -8.2948713 1.6647257
1.9797266 -7.8308425 1.5889374
2.1691163 -7.784471 1.5896878
2.5547607 -7.7088318 1.5975778
2.6819627 -7.4829874 1.5637326
2.8258545 -7.323092 1.5441223
11.58499 -23.103247 5.0842147
11.992998 -22.542454 5.0230436
12.447949 -22.09478 4.9887867
12.962412 -21.76273 4.9830017
14.29707 -21.564331 5.0897493
15.081113 -21.596664 5.181787
15.857656 -21.580156 5.2681189
18.397577 -21.573376 5.5775194
19.320908 -21.579018 5.6978931
18.119999 -8.8527327 3.9672091
18.53541 -8.5080051 4.0120311
18.994219 -7.631968 4.0268564
19.182899 -7.1752243 4.0289717
19.510889 -6.7659111 4.0623765
19.61001 -6.2744665 4.0503058
27.267187 -8.0045681 5.5903101
17.781338 23.400936 5.7815819
16.764912 23.204941 5.6315536
3.624995 16.566441 3.33603
3.2092724 16.571878 3.3205614
1.1743652 16.598499 3.2733929
0.37163574 16.609007 3.2681136
-0.029228514 16.614256 3.2683339
-0.43037108 16.619507 3.2704599
-1.6402637 16.635349 3.2883499
-2.0473046 16.640682 3.2982097
-2.457036 16.646048 3.3100655
-3.7074902 16.662437 3.3579681
-5.445415 16.685215 3.4526689
-6.3561325 16.697559 3.514652
-6.8244576 16.704062 3.5496576
-15.924375 -6.4636717 3.3808355
-15.371255 -7.57692 3.3712096
-15.292974 -8.0026398 3.3954136
-14.967573 -8.2984324 3.3666549
-13.790132 -8.0866852 3.1448028
-19.432276 -21.857635 5.753325
-18.507324 -21.857328 5.6340647
-17.617807 -21.855019 5.5222507
-16.762499 -21.852797 5.4178953
-13.619326 -21.829359 5.0614676
-11.587529 -21.966372 4.88556
-10.956138 -22.042404 4.8422461
-9.8413477 -22.45717 4.8233175
-8.9078903 -25.132015 5.2453003
0.8958447 -7.5655313 1.4986774
1.3069043 -7.7945461 1.5547351
2.1044676 -7.8273582 1.5944666
2.5119383 -7.8172622 1.6152426
2.6267481 -7.544497 1.5715234
11.130058 -24.168604 5.2343359
12.762802 -21.878248 4.9826355
13.341806 -21.652887 5.0031905
14.782637 -21.585251 5.1465478
15.569873 -21.597836 5.2376161
16.36162 -21.57881 5.3272142
17.19536 -21.576584 5.4275389
18.061728 -21.574272 5.5350122
17.965811 -8.9809475 3.9511909
17.291416 -8.1283817 3.75863
18.868935 -7.7818828 4.015152
19.11121 -7.3474193 4.0277963
18.31288 -6.5378551 3.8251772
17.141582 23.276913 5.686655
16.160204 23.091074 5.5443563
3.365664 16.569832 3.3261528
2.5420995 16.580606 3.2998209
2.1346729 16.585934 3.2896719
0.1220459 16.612276 3.2680278
-0.27896973 16.617525 3.2694366
-0.68052244 16.622782 3.272748
-2.3020654 16.644022 3.3053513
-2.7137499 16.649412 3.3184667
-3.128911 16.654854 3.3336325
-3.5481639 16.660347 3.3508992
-4.4010253 16.671524 3.3919454
-4.8358445 16.677225 3.4158571
-5.2771287 16.683008 3.4421277
-6.1817527 16.695145 3.5021505
-6.6466746 16.70159 3.5361273
-7.120791 16.707787 3.5727859
-8.5448389 15.663309 3.5099416
-15.938613 -6.3010278 3.3715389
-15.305171 -6.4818802 3.2696888
-15.559589 -7.0370884 3.3593462
-15.623525 -7.9952798 3.4525006
-14.197573 -8.1527948 3.2206533
-14.748686 -8.9493008 3.393687
-13.997925 -8.9628363 3.2697554
-6.9993405 -7.7300568 2.0513928
-17.081358 -21.853624 5.4564271
-16.242954 -21.847597 5.3554807
-14.657529 -21.842083 5.1745558
-9.1568699 -23.340645 4.9322386
-8.9369917 -24.503296 5.1308484
-8.8177633 -26.117519 5.4227147
0.62860841 -7.4103055 1.4629797
1.0219678 -7.6450324 1.5172961
1.2313526 -7.7774754 1.5490295
1.4297656 -7.8061748 1.5611639
1.6125488 -7.7446237 1.5561844
1.829707 -7.835197 1.5827972
2.0287695 -7.8294578 1.591066
2.4341893 -7.8190246 1.6109592
2.5710008 -7.6067038 1.57954
2.8598144 -7.2824073 1.539089
2.9924657 -7.1109495 1.517674
11.053974 -24.590158 5.3036194
11.313417 -23.625795 5.1530151
14.487128 -21.572519 5.1118402
16.05496 -21.579628 5.2911134
18.618916 -21.572783 5.6057835
17.35041 -8.3498526 3.7878237
19.007578 -8.0423574 4.0600686
16.524092 23.159346 5.5966382
3.5226269 16.56778 3.3320427
3.1078124 16.573204 3.3170805
2.6964891 16.578583 3.3041689
2.2881103 16.583927 3.2932692
1.882163 16.589239 3.2843463
1.4782079 16.594526 3.2773726
0.27327147 16.610294 3.2679911
-0.12761718 16.615543 3.268681
-0.93109375 16.626062 3.2757776
-1.7399365 16.636656 3.2905855
-2.147578 16.641993 3.3009326
-3.8114793 16.663799 3.3627319
-4.2385206 16.669395 3.3835225
-4.6710739 16.675062 3.4065611
-5.1098242 16.680817 3.4319334
-5.5554538 16.686659 3.4597147
-6.0086327 16.692749 3.490031
-6.9408054 16.705528 3.5586429
-7.9120703 16.717712 3.6384006
-8.3585987 15.659361 3.4918587
-15.368149 -6.3441362 3.2706642
-16.141314 -8.0756369 3.5505261
-15.077866 -8.0041828 3.3581216
-14.88873 -8.3703718 3.3600147
-14.818466 -8.8080273 3.3911428
-16.557436 -21.852264 5.393353
-14.949409 -21.844496 5.2071557
-13.441142 -21.830536 5.0431962
-12.076772 -21.91729 4.9227443
-11.431533 -21.985155 4.8745947
-10.229096 -22.23188 4.8141427
-9.7211275 -22.545063 4.8297501
-8.7852144 -27.371416 5.6550074
0.54917967 -7.2578831 1.431842
1.6519678 -8.3124762 1.6671951
1.832041 -8.18081 1.6491762
1.953413 -7.8315935 1.5878198
2.1538672 -7.8260117 1.5967621
2.5627391 -7.8161349 1.6181167
2.6627197 -7.5044146 1.5664303
11.186084 -23.91641 5.1939731
11.934111 -22.605019 5.0284948
13.492158 -21.609362 5.0115051
14.200108 -21.566748 5.0796323
14.976973 -21.593622 5.1695924
18.065977 -8.8976765 3.9615645
18.48 -8.553894 4.0059161
19.157822 -7.2354364 4.028522
27.278261 -8.102212 5.5978403
16.895693 23.229834 5.6506128
3.6801367 16.565718 3.3382285
3.2638867 16.571163 3.3224831
2.851289 16.576559 3.3088021
2.44187 16.581915 3.2971489
1.6304101 16.592533 3.2797759
1.2274219 16.597809 3.2740078
0.42449218 16.608315 3.2682283
-0.37742186 16.618814 3.2700698
-1.182163 16.629351 3.2795556
-2.4028125 16.64534 3.3083861
-2.8152685 16.650743 3.321996
-4.5071921 16.672918 3.3976018
-4.9435253 16.678633 3.422081
-5.8367186 16.690376 3.4782796
-6.2950339 16.696712 3.5102389
-6.7621336 16.703194 3.5448787
-15.929306 -6.4066887 3.3775356
-15.453222 -6.6527519 3.3096743
-15.336382 -7.9632616 3.3994052
-14.521358 -7.9907255 3.2605538
-13.930259 -8.1093721 3.1708543
-14.439092 -8.8788261 3.3344851
-18.627323 -21.857641 5.6493921
-17.733139 -21.855316 5.5365663
-16.873476 -21.853085 5.431251
-15.244487 -21.846235 5.240438
-12.324487 -21.892797 4.9422431
-11.672197 -21.957294 4.8917804
-9.9058151 -22.410034 4.8199439
-9.0697603 -23.527397 4.9602652
0.67428708 -7.426405 1.4669201
0.86954588 -7.5489831 1.4948431
1.0725244 -7.6769571 1.5248654
1.5830468 -8.3632269 1.6744152
1.7645117 -8.2299795 1.6557809
2.2799463 -7.8226633 1.60289
2.4847167 -7.817874 1.6137259
2.6073241 -7.5661612 1.5742996
11.07292 -25.882353 5.5379148
11.103682 -24.314838 5.2583213
11.777685 -22.809305 5.0498734
12.210947 -22.310808 5.0033011
12.69623 -21.924028 4.98384
13.261132 -21.676243 4.9988074
13.927422 -21.577734 5.0521479
15.465459 -21.597588 5.2255955
17.657108 -7.8529706 3.8015163
18.824814 -7.8338885 4.0110469
18.413486 -6.6399221 3.8505862
17.275175 23.302637 5.7063451
3.4204638 16.569115 3.3281784
2.5960252 16.579901 3.3013115
2.1883104 16.585236 3.2908983
1.7828418 16.590538 3.2824545
0.57580078 16.606335 3.2687347
-0.2260205 16.616833 3.2691391
-0.62753904 16.622087 3.2722006
-1.4338866 16.632647 3.2840855
-1.8397266 16.637962 3.2929428
-3.0739648 16.654131 3.3315151
-3.9158056 16.665165 3.3676295
-5.2184958 16.68224 3.4385223
-5.665957 16.688107 3.4669116
-6.5848241 16.700731 3.531491
-7.0576901 16.706995 3.5677938
-8.0342922 16.719246 3.6490254
-8.4795313 15.661922 3.5035665
-15.540732 -6.9690623 3.3504665
-15.436435 -7.3746691 3.3653781
-15.827768 -8.0362854 3.4919596
-14.854223 -7.9985895 3.3188062
-14.073691 -8.9483242 3.2807846
-13.511694 -9.0560751 3.1997952
-18.974394 -21.858541 5.6940513
-18.066338 -21.856184 5.5782309
-17.194017 -21.853918 5.4701476
-16.351231 -21.847744 5.368237
-15.542392 -21.846643 5.2742639
-14.75934 -21.843231 5.1859303
-13.994804 -21.829224 5.1009269
-12.577216 -21.87339 4.9635115
-10.664463 -22.108759 4.8287396
-10.089814 -22.275507 4.8105731
-9.20333 -23.241053 4.9173598
-8.9546242 -24.311127 5.09655
-8.7716017 -27.895786 5.7525086
0.39999023 -6.9717298 1.3737226
0.60046387 -7.3562884 1.4519299
0.79499996 -7.50212 1.4840692
0.99498045 -7.628005 1.5132812
1.2032275 -7.7596526 1.5447094
1.4036474 -7.8036942 1.5597659
2.4071093 -7.8196483 1.6095006
2.5513818 -7.6286469 1.5824018
2.6984668 -7.4646177 1.5614315
11.039795 -24.769098 5.334609
11.629775 -23.03495 5.0761776
12.505449 -22.055239 4.987576
14.384785 -21.56811 5.0999255
15.169384 -21.596874 5.191782
16.767021 -21.577728 5.3756065
17.616367 -21.57546 5.4793677
18.499687 -21.573103 5.5905347
19.427402 -21.578753 5.7118454
18.16666 -8.8139477 3.97212
18.589678 -8.4713326 4.0187387
19.063643 -7.0711942 3.9998465
27.267469 -7.9235673 5.5858984
17.663046 23.377846 5.7639098
2.7505224 16.577879 3.3057568
2.3417919 16.583223 3.2945919
1.5313965 16.593828 3.2781825
1.1287451 16.599098 3.2728903
0.32610351 16.6096 3.2680438
-0.47596189 16.620104 3.2708201
-0.87797362 16.62537 3.2750731
-1.2812696 16.63065 3.2812493
-1.6863232 16.635954 3.2893691
-2.0936964 16.641291 3.2994566
-2.5037451 16.646662 3.311537
-3.7555418 16.663065 3.3601537
-4.1818457 16.668653 3.3806486
-6.8781686 16.704742 3.5537906
-7.8466892 16.716892 3.6327713
-15.350361 -6.2796803 3.2626095
-15.487402 -6.7764425 3.3255305
-14.931045 -8.3317308 3.3635623
-13.671958 -8.0677605 3.1228771
-13.720356 -9.0160398 3.229641
-14.280552 -21.83477 5.1323948
-13.536694 -21.829906 5.0529709
-12.163139 -21.908749 4.9294949
-10.305063 -22.210398 4.816577
-9.7857323 -22.497828 4.8262711
-9.0217133 -23.822187 5.0110626
-8.8967476 -25.320625 5.2795606
-8.7923431 -27.096951 5.6040549
0.52219725 -7.2061133 1.4212921
1.1236279 -7.7092633 1.5325781
1.3292432 -7.7966528 1.5558761
1.808496 -8.1979132 1.6514547
2.1272948 -7.8267341 1.5955206
2.5354297 -7.8167386 1.6165633
2.6434276 -7.5259109 1.569155
2.7882373 -7.3648362 1.5491501
11.043008 -25.395754 5.4476891
11.152558 -24.043985 5.2139401
11.480342 -23.26288 5.1031666
11.875156 -22.667688 5.0340066
13.411269 -21.632778 5.0070105
14.872354 -21.589115 5.1571631
18.162188 -21.574003 5.547677
18.012098 -8.9424829 3.9559653
18.227354 -6.4510708 3.8036067
19.617714 -6.4148788 4.0602474
3.7353027 16.564997 3.340462
3.3185496 16.57045 3.32444
2.9055126 16.57585 3.3104904
2.4957128 16.581211 3.2985709
0.47737792 16.60762 3.2683754
0.076533198 16.612869 3.2680902
-1.1289697 16.628656 3.278692
-3.1762598 16.655472 3.3354847
-4.0204344 16.666536 3.3726573
-5.3276267 16.683672 3.4452617
-8.6012354 15.66451 3.5154729
-15.382954 -6.5645823 3.2901332
-15.738994 -7.1702318 3.4023066
-15.405025 -7.4720507 3.3681157
-15.451704 -7.960813 3.4193335
-14.636353 -7.993382 3.2806392
-13.933095 -8.9752569 3.2603447
-18.748032 -21.857954 5.6648717
-17.849037 -21.855619 5.5510035
-16.985004 -21.853374 5.4447336
-14.569746 -21.84038 5.1646714
-13.089379 -21.834291 5.0078993
-12.412549 -21.885962 4.9495974
-11.757534 -21.948856 4.8982167
-10.522573 -22.148891 4.8238044
-9.9702148 -22.362953 4.816617
-8.9283791 -24.689478 5.1646996
-8.8120413 -26.338276 5.4635191
0.44716308 -7.0621829 1.3920435
0.84333009 -7.5324945 1.4910378
1.0453027 -7.6597648 1.5207825
1.2551757 -7.7896786 1.5521387
1.4522803 -7.8083167 1.5623828
1.6374316 -7.7576237 1.559692
2.4575391 -7.81849 1.6122298
2.8750536 -7.2627029 1.5365816
11.077089 -24.462128 5.2825303
11.726162 -22.887915 5.0589871
12.152539 -22.372881 5.0085206
12.629473 -21.969934 4.9851022
15.361523 -21.597336 5.2136741
16.146738 -21.579384 5.3018723
16.850946 -8.0527477 3.6739581
18.746416 -8.4090271 4.0417857
19.061571 -7.4679608 4.0272732
19.628819 -6.6169553 4.0748496
27.28336 -8.469944 5.6198301
16.413877 23.138594 5.5807505
3.0609715 16.573816 3.3155129
1.4324365 16.595123 3.2767067
1.0300976 16.600389 3.2718816
-0.17311035 16.61614 3.2688756
-0.97682613 16.626661 3.2764096
-1.7860595 16.637259 3.2916603
-3.8597119 16.664429 3.3649809
-4.2872949 16.670034 3.3860204
-4.7205272 16.675711 3.4093206
-6.9947901 16.706205 3.5628548
-25.164761 -7.721437 5.178164
-15.45332 -7.322413 3.363955
-14.973725 -8.0015726 3.3398001
-14.664902 -8.7712164 3.36149
-14.149995 -8.933713 3.2919247
-15.647466 -21.846785 5.2862926
-14.861279 -21.84391 5.1972923
-14.094277 -21.831154 5.111835
-12.666099 -21.866606 4.9710946
-12.002622 -21.924623 4.9169827
-10.740835 -22.087162 4.8314633
-10.163881 -22.250322 4.8120937
-8.9783297 -24.13834 5.0662918
-8.8626366 -25.709404 5.3495822
-8.7789745 -27.611776 5.6996775
0.40780762 -7.5268197 1.4828354
0.57272458 -7.3030539 1.4410559
1.6725732 -8.2973328 1.6650704
2.1703026 -7.8021269 1.5930969
2.3800781 -7.8202777 1.6080633
2.5584228 -7.7314243 1.6020226
2.6792772 -7.4859757 1.5641079
2.823247 -7.3259845 1.544469
11.040898 -24.985155 5.3735423
11.224599 -23.828512 5.1815381
11.984765 -22.551193 5.0238004
12.438682 -22.101162 4.9889841
12.95126 -21.765957 4.9824233
13.563926 -21.592377 5.0161695
15.066777 -21.59663 5.1801696
15.8429 -21.580194 5.2664084
17.502451 -21.575764 5.4652686
18.381123 -21.573418 5.5754285
19.303671 -21.579058 5.6956372
18.112471 -8.8589954 3.9664235
18.819834 -8.1045551 4.0309067
19.179384 -7.1836486 4.0289059
19.610537 -6.2842135 4.0509892
27.265459 -8.0171833 5.5906858
15.952471 23.219877 5.5418921
2.8046582 16.577169 3.3073788
1.9890331 16.587841 3.2865078
-0.82487792 16.624672 3.2744014
-2.0398242 16.640585 3.2980106
-2.8623242 16.651358 3.3236737
-3.2788768 16.656816 3.3395848
-3.6996825 16.662334 3.357614
-4.5564208 16.673563 3.4002619
-5.437202 16.685108 3.4521468
-6.3475733 16.697439 3.5140338
-7.2933936 16.709948 3.5866246
-7.7814693 16.716072 3.6271944
-15.925063 -6.4556985 3.380374
-15.501587 -7.1732526 3.3601129
-15.373608 -7.569613 3.3709891
-15.299013 -7.9971633 3.3959661
-14.973506 -8.2930317 3.3671634
-13.809526 -8.0897913 3.1484015
-14.371582 -8.8916187 3.3245001
-19.44976 -21.857679 5.7556434
-18.52397 -21.857372 5.6361866
-17.633842 -21.855061 5.5242381
-16.777914 -21.852839 5.4197435
-15.950756 -21.847198 5.3213229
-15.155444 -21.845869 5.2303758
-14.381289 -21.836723 5.1435924
-12.921767 -21.84709 4.9931903
-12.249736 -21.900188 4.9363174
-10.96767 -22.041016 4.8430166
-9.8503122 -22.450619 4.8228469
-9.3799019 -22.862484 4.8612771
-8.9093409 -25.1007 5.2395873
-8.7993402 -26.827349 5.5540648
-15.912612 -6.3493967 2.9712353
-15.238466 -6.5108981 2.8738625
-15.391411 -7.0201225 2.9338083
-15.227778 -7.8540134 2.9714627
-14.747685 -8.0627127 2.9149055
-13.981128 -8.0877953 2.8011606
-18.730938 -21.857607 4.9921484
-13.79894 -21.828339 4.4785757
-13.077041 -21.835693 4.4140401
-11.745869 -21.950552 4.3175478
-11.110347 -22.024458 4.2780914
-9.962285 -22.37183 4.2471495
-9.4716253 -22.730574 4.2706118
0.63909179 -7.2595115 1.2638562
0.83379883 -7.4174738 1.2944839
1.2392285 -7.6690807 1.3472689
1.4550048 -7.8037391 1.3766918
2.0385449 -7.7652788 1.3923315
2.2385008 -7.7595553 1.4005853
2.5601075 -7.4957352 1.3736835
2.7049217 -7.3360281 1.3559844
2.8462646 -7.1806512 1.3395724
12.637675 -21.961559 4.3942885
15.376103 -21.597528 4.5978341
16.16165 -21.579306 4.6756382
17.845898 -21.57481 4.855763
19.676708 -21.577816 5.0644436
9.8689842 -7.6994548 2.170794
17.759336 -9.009552 3.4535995
18.807646 -7.3588505 3.5025189
19.56004 -6.5840793 3.579237
18.448856 22.401606 5.0329127
16.449648 22.062494 4.7726679
3.0533495 16.573788 2.922693
2.2344141 16.584503 2.9021673
1.0227002 16.600357 2.8843889
0.22039551 16.610863 2.8810046
-2.2015283 16.642576 2.9113953
-2.6124022 16.647957 2.9225173
-3.444834 16.658861 2.950201
-4.2951856 16.670006 2.9854355
-6.5314746 16.69932 3.1097324
-7.4849463 16.711823 3.1756794
-7.9775729 16.718285 3.2125614
-25.148315 -7.7286539 4.5626807
-15.030385 -8.04039 2.9561858
-14.774447 -8.8456326 2.9863977
-19.079599 -21.858511 5.0318189
-18.167271 -21.856148 4.9289002
-16.445303 -21.848341 4.7424836
-15.633144 -21.847225 4.6589847
-14.847157 -21.843929 4.5805278
-14.08042 -21.830944 4.5052266
-12.653892 -21.86799 4.3816385
-11.990952 -21.926317 4.3340712
-11.348267 -21.99581 4.2924151
-10.730747 -22.091293 4.2592683
-10.153809 -22.254442 4.2422376
-9.2449465 -23.160751 4.3248444
-8.8636322 -25.749331 4.7227659
0.95655757 -7.4934568 1.310104
1.1601952 -7.6198859 1.3367153
1.3724902 -7.7521849 1.3653381
1.8083739 -7.9563103 1.4150211
2.7933252 -7.2387891 1.3456186
11.118174 -26.863699 5.04211
12.961864 -21.761814 4.3927994
13.576904 -21.591825 4.4233437
14.297295 -21.564663 4.4871693
15.08121 -21.596819 4.5682654
16.672529 -21.577944 4.7290969
17.518242 -21.575684 4.8198614
18.397549 -21.573338 4.9171019
19.320625 -21.578701 5.0231509
17.725508 -8.1362476 3.3824325
18.731211 -8.0565205 3.5362129
18.823524 -7.5633883 3.5181539
19.035234 -6.6009674 3.4940579
17.801495 22.289789 4.947135
15.931328 22.051128 4.7178822
1.5771729 16.593103 2.8906426
0.37163574 16.608883 2.881129
-0.43037108 16.619381 2.8831952
-0.83228517 16.624641 2.8867543
-2.8699121 16.651331 2.9303491
-3.7074656 16.662306 2.9603407
-4.1331835 16.667881 2.9781914
-4.5643406 16.673534 2.9980123
-5.0015182 16.679264 3.0198665
-5.8965964 16.691 3.0699759
-6.3559227 16.697018 3.0983999
-6.8240819 16.703157 3.1291876
-15.903261 -6.455102 2.9765756
-15.425673 -7.1464019 2.9483547
-15.483398 -7.6322021 2.9937241
-14.297163 -8.8543911 2.9164898
-13.7244 -8.964941 2.8429632
-19.431866 -21.857178 5.072032
-16.762266 -21.852509 4.7763171
-13.619433 -21.829525 4.462193
