# .PCD v0.7 - Point Cloud Data file format
VERSION 0.7
FIELDS x y z
SIZE 4 4 4
TYPE F F F
COUNT 1 1 1
WIDTH 1543
HEIGHT 1
VIEWPOINT 0 0 0 1 0 0 0
POINTS 1543
DATA ascii
14.423774 -21.57468 5.1052623
15.984242 -21.578438 5.2826395
16.803736 -21.576399 5.3798399
17.654457 -21.574282 5.4839358
18.537924 -21.570469 5.5950394
14.492973 -8.8306427 3.3385761
14.065063 -8.1112604 3.193984
14.892309 -8.1160316 3.3363996
15.229204 -7.3702631 3.3282597
16.098696 -6.3993254 3.4079404
17.583599 23.304895 5.7430358
16.578461 23.111898 5.5952678
14.724799 22.771681 5.3345475
13.86561 22.621744 5.2195249
13.316665 24.282251 5.4479337
12.781674 26.233826 5.7406211
-0.88394529 16.580578 3.2663362
-1.2860986 16.585842 3.2725332
-1.6900097 16.591127 3.2806702
-2.0961914 16.596445 3.2907665
-2.5051024 16.601797 3.30285
-3.3332226 16.612644 3.3331432
-4.1786618 16.623711 3.3719223
-4.6093016 16.629354 3.3946373
-5.0460401 16.635075 3.4196653
-5.9404688 16.646803 3.4769967
-6.3996778 16.653156 3.5095532
-6.867866 16.659658 3.544816
-7.34583 16.666315 3.582907
-8.3347406 16.680044 3.6681087
-8.7724018 15.622507 3.524595
-9.2815819 15.63353 3.5765676
-9.8064013 15.645087 3.6322896
-11.922983 16.274883 3.9687877
-18.435869 -8.0676765 3.9587305
-17.538559 -8.1846399 3.8073492
-17.225126 -9.0746422 3.8299761
-19.317934 -21.846985 5.736876
-17.502138 -21.830906 5.5042987
-15.872944 -21.88323 5.3180561
-13.212216 -22.49629 5.1322236
-12.339121 -24.989265 5.4824696
-12.236073 -26.364183 5.7176766
-3.04021 -6.9871612 1.49898
-2.9274511 -7.1977997 1.5285699
-2.6463866 -7.5283666 1.5698053
-2.475708 -7.6260324 1.5772527
-2.3034375 -7.7251868 1.585802
-1.947124 -7.1563101 1.4589562
-1.7667041 -7.1718903 1.4530194
-1.5304931 -7.8197818 1.567482
-1.3335693 -7.8085375 1.5583234
-0.2143164 -8.782053 1.7281066
8.1243896 -23.152466 4.8267927
8.5373678 -22.57132 4.747201
8.9824562 -22.120174 4.6965337
9.4659224 -21.787607 4.6730785
11.977719 -21.597424 4.8582501
13.366596 -21.577511 4.9931426
14.850102 -21.573538 5.1521606
19.05142 -21.569384 5.6612382
19.996254 -21.56739 5.7856688
14.319477 -8.933794 3.3201733
13.590493 -8.0301428 3.105315
14.406734 -8.0500221 3.24649
15.671313 -7.3237157 3.4028716
14.66645 -6.4277062 3.1500769
16.11017 -6.6018901 3.4249508
17.011753 23.194408 5.6584539
15.114555 22.841398 5.3880005
14.236928 22.6859 5.2687521
13.40019 22.54277 5.1589069
12.600356 22.410997 5.0576959
13.328452 25.105078 5.5914879
0.699458 23.557491 4.6362348
-0.30775878 16.573036 3.2607853
-0.70821774 16.578278 3.2642276
-1.5128369 16.58881 3.2768681
-1.9179492 16.594114 3.2861001
-2.7362938 16.604826 3.3105288
-3.5688231 16.615726 3.3431647
-3.9917822 16.621264 3.3626797
-4.4199462 16.626875 3.3844061
-4.85395 16.632561 3.4084141
-5.2943897 16.63833 3.4347768
-6.6616111 16.656792 3.5290303
-8.6211329 16.683636 3.6942632
-8.5539303 15.617839 3.5029485
-9.0566311 15.62864 3.5533504
-10.145034 15.708013 3.6784914
-10.837964 15.924397 3.789309
-19.22307 -7.0972753 4.0310383
-19.050312 -7.5605516 4.0318933
-18.159252 -8.241744 3.9229667
-18.178179 -8.7851782 3.9716918
-17.020126 -21.829567 5.4452806
-16.209526 -21.857531 5.3531284
-14.045815 -22.120918 5.1546984
-13.435669 -22.332895 5.1270561
-12.367768 -24.394455 5.3803501
-12.283696 -25.750656 5.6124582
-2.3791113 -7.6815605 1.5819219
-1.9734472 -6.9617724 1.4234701
-1.9113964 -7.4206901 1.5074346
-1.746958 -7.5298591 1.5206048
-1.419541 -7.8134089 1.5622025
-1.0303711 -7.7921243 1.5461972
-0.60432613 -7.2451482 1.4302032
-0.3061035 -8.7504053 1.7224188
7.6963134 -26.900036 5.5040579
7.6463232 -24.476496 5.0444555
7.9561181 -23.463781 4.8738909
8.7852097 -22.307844 4.7164044
9.2547407 -21.932875 4.6829801
9.7762737 -21.692486 4.6806579
10.360541 -21.583281 4.7096667
11.002143 -21.570086 4.7633295
11.680659 -21.596714 4.8300509
15.284389 -21.572374 5.2008762
17.762133 -21.574017 5.497334
18.650093 -21.570232 5.6094127
14.542417 -8.8012705 3.3438916
15.463589 -7.8913321 3.4151776
15.13522 -7.2690639 3.3029633
14.931372 -6.7328243 3.222084
15.51311 22.913717 5.4434347
14.616098 22.752434 5.3197856
13.761958 22.604013 5.2059178
13.319214 24.459955 5.4788518
12.689751 26.244001 5.7345257
0.26715821 16.565516 3.2591672
-0.13253418 16.570747 3.2598736
-0.53267092 16.575981 3.2624841
-0.93368161 16.58123 3.2670009
-1.33604 16.586496 3.2734363
-2.1466796 16.597107 3.2921546
-3.8058984 16.618834 3.3538659
-5.9968796 16.647585 3.4808841
-7.8958249 16.674006 3.6292627
-8.3975239 16.680832 3.6737871
-8.8346434 15.623845 3.530834
-9.8725729 15.646557 3.6394615
-10.528677 15.827048 3.7394543
-12.021879 16.307465 3.9854717
-18.940443 -7.8157969 4.0307002
-18.37438 -8.1062679 3.950706
-17.331152 -8.1510143 3.7675972
-17.133749 -9.0920134 3.8156786
-19.201704 -21.846827 5.7217302
-18.284327 -21.843969 5.6037998
-17.393555 -21.828798 5.4906378
-16.551567 -21.832663 5.3895774
-15.778496 -21.890438 5.3083072
-12.230986 -26.560863 5.752377
-3.0264697 -7.0128098 1.5025345
-2.9131737 -7.2244892 1.5323821
-2.7948291 -7.4438934 1.5641595
-2.2819726 -7.7375774 1.5869409
-1.9394385 -7.2131228 1.4693502
-1.7624999 -7.2480493 1.4673752
-1.8116064 -8.3191986 1.6748925
-1.5059668 -7.8183641 1.5662881
-1.3093311 -7.8071752 1.5572641
-1.1149169 -7.7965341 1.549324
-0.89950681 -7.5931835 1.5041637
-0.69110352 -7.3473406 1.451737
-0.39730468 -8.7190533 1.7169787
-0.18823729 -8.7910595 1.7297595
7.7232761 -28.114389 5.7355089
8.1748581 -23.075436 4.8158035
8.5922899 -22.51293 4.7402978
10.715864 -21.568964 4.7378092
12.744575 -21.57918 4.9300861
14.188755 -21.57531 5.079813
15.732778 -21.579065 5.2534442
16.543032 -21.577045 5.3485832
19.166245 -21.569143 5.6761799
14.126928 -9.2340879 3.3200471
13.721977 -8.0526142 3.129847
16.133921 -7.013432 3.460743
16.106899 -6.544404 3.4200838
16.888168 23.170763 5.6403465
15.920747 22.988729 5.5009155
15.003442 22.821423 5.3726869
13.299204 22.525854 5.1459179
12.511479 22.409443 5.0488815
13.015659 26.207672 5.7563219
0.04256836 16.568455 3.2593307
-1.9683154 16.59477 3.2873807
-2.3762889 16.600115 3.2988358
-2.7873974 16.605494 3.3123074
-3.2021093 16.610926 3.3278353
-6.254487 16.651144 3.4990404
-7.1945505 16.664206 3.5706263
-8.1762934 16.677944 3.6539106
-8.6154633 15.61915 3.509002
-10.92707 15.952665 3.8037841
-18.211592 -7.805603 3.8977537
-18.129999 -8.8288126 3.9669127
-17.460039 -9.0300016 3.866873
-19.61536 -21.847389 5.7758603
-16.113916 -21.864834 5.3431015
-15.360444 -21.931215 5.2672138
-14.638124 -22.011395 5.2001266
-13.96726 -22.143135 5.1501236
-12.861406 -22.752821 5.1414824
-12.359014 -24.558876 5.4084477
-2.9633446 -7.1307073 1.5190487
-2.3577392 -7.6938663 1.5829974
-1.9031982 -7.4813571 1.5185956
-1.7423681 -7.6133704 1.5364105
-1.5928711 -7.8234081 1.570585
-1.3951855 -7.8120227 1.5610849
-1.1998193 -7.8010798 1.5526605
-0.78058106 -7.4528232 1.4741274
-0.48793456 -8.6879883 1.7117807
-0.069360353 -8.8322163 1.7375131
7.6830711 -26.553452 5.4378128
7.6755514 -24.314461 5.0157676
9.8452682 -21.672504 4.6826706
10.4385 -21.580141 4.715764
11.764262 -21.596914 4.8379302
15.381265 -21.572117 5.2118788
17.011469 -21.57588 5.4049659
6.4264503 -7.7582183 1.9817789
18.762877 -21.569992 5.62391
14.592046 -8.7718115 3.3492596
14.764516 -8.3974447 3.3413663
15.470366 -7.8366008 3.4114914
15.043198 -7.1696115 3.2781901
14.855209 -6.6451244 3.2013469
15.399477 22.892996 5.4275537
14.508041 22.733366 5.3051615
12.847944 22.451241 5.088613
13.321792 24.639774 5.5101805
13.343735 26.17038 5.7787843
12.597963 26.254108 5.7284794
0.87803221 23.552197 4.6363683
0.21763672 16.566164 3.2591512
-0.18207519 16.571394 3.2600951
-0.58229488 16.57663 3.2629383
-1.3859668 16.587149 3.2743685
-2.1972215 16.597769 3.2935731
-2.6069188 16.603132 3.3061569
-3.4369287 16.614 3.3374803
-4.2848096 16.625105 3.3773391
-4.7169237 16.630764 3.4006224
-5.6005125 16.642342 3.4542627
-6.0534372 16.648367 3.4848192
-6.9853125 16.661291 3.5539827
-7.957334 16.67487 3.6346138
-8.4605274 16.681622 3.6795115
-8.9763279 16.688091 3.7276289
-10.615225 15.854162 3.7533405
-18.313129 -8.1447315 3.942755
-17.912983 -9.0255804 3.9458392
-19.086191 -21.84667 5.7067332
-18.172955 -21.843227 5.5896521
-14.245717 -22.064377 5.1665344
-12.672382 -23.145466 5.1909118
-12.416728 -24.037449 5.3222189
-12.320419 -25.331669 5.541338
-2.4331982 -7.6504464 1.5792669
-1.9316601 -7.2707105 1.4798993
-1.285166 -7.8058214 1.5562216
-1.0909814 -7.79528 1.5484201
-0.87288082 -7.5617471 1.4974127
-0.66631347 -7.3181319 1.4455658
-0.57806152 -8.6571913 1.7068212
-0.37156248 -8.7278919 1.718493
-0.16215821 -8.8000755 1.7314312
7.7155514 -27.761143 5.6681213
8.2251024 -22.998779 4.8049097
9.6014795 -21.743099 4.6757431
10.794673 -21.565788 4.7441711
12.14729 -21.597832 4.8745818
15.040483 -21.573029 5.1734056
16.645405 -21.576794 5.3608227
17.489994 -21.574692 5.4635663
18.368111 -21.57251 5.5736589
19.281733 -21.568899 5.691256
14.417368 -8.8755932 3.3305111
13.85561 -8.0754566 3.1548083
14.679067 -8.0874224 3.2969058
14.903793 -7.7486691 3.3044331
15.376762 -7.5290532 3.3680327
15.129204 -6.9605188 3.2760689
17.781645 23.343561 5.7726336
14.8931 22.801664 5.3575354
14.02599 22.64933 5.2406964
13.198745 22.509106 5.1330571
-0.40686524 16.574335 3.2614605
-0.8075586 16.57958 3.2653742
-1.2094433 16.584839 3.2712057
-1.612998 16.590122 3.2789714
-2.0186424 16.595428 3.2886899
-2.4270117 16.600777 3.3003955
-3.2537353 16.611601 3.3299038
-3.6731493 16.617094 3.3477948
-4.5269237 16.628277 3.3901415
-5.4045506 16.639774 3.4416797
-5.8540134 16.64566 3.4711053
-6.3116112 16.651936 3.5031524
-7.7406592 16.671839 3.6159148
-8.2386913 16.67882 3.6594856
-8.677104 15.620463 3.5151062
-9.183486 15.631393 3.5663977
-9.7052736 15.642846 3.6213882
-10.31248 15.759724 3.7049763
-11.01707 15.981313 3.8184557
-11.77271 16.225559 3.9435308
-19.853228 -21.848219 5.1197214
-18.001762 -21.840666 4.9085259
-17.124878 -21.829054 4.8116484
-12.989594 -22.662357 4.530086
-12.390732 -24.25968 4.7242608
-2.9735155 -7.0362091 1.3247516
-2.72208 -7.4205933 1.3707761
-2.3698633 -7.5715466 1.3759198
-2.1988623 -7.6695642 1.3836865
-1.8909423 -7.2514982 1.2996511
-1.8198876 -7.7390647 1.3787643
-1.432207 -7.7513194 1.367033
-0.81761718 -7.3803844 1.2877802
-0.53312498 -8.5764523 1.4902487
-0.32833007 -8.6460028 1.5005209
7.910161 -23.55954 4.309978
8.7297411 -22.362768 4.163311
9.7069283 -21.711567 4.1245356
14.423745 -21.574646 4.5007606
15.187944 -21.572596 4.5754571
18.53809 -21.570663 4.9326
19.460453 -21.56872 5.0380692
14.663833 -8.9347467 2.9779711
13.98895 -8.0673609 2.8005593
16.072554 -7.3052807 3.06181
16.067368 -6.8401914 3.028496
17.607016 22.201059 4.9140882
16.626186 22.035975 4.7873497
14.816362 21.744349 4.5632458
13.17606 21.496729 4.3726659
13.312007 24.273729 4.8011823
-1.6899951 16.591002 2.8921967
-2.5050828 16.601669 2.911752
-2.9172509 16.607067 2.9241927
-3.3331981 16.612514 2.9384575
-3.7534666 16.618017 2.9545932
-4.6092625 16.629223 2.9926717
-5.4894972 16.640751 3.0389078
-5.9404001 16.646662 3.0652738
-6.399497 16.652678 3.0939145
-6.8675098 16.658808 3.1249316
-9.9139595 16.698744 3.3679233
-10.471426 16.706053 3.4193602
-11.046548 16.713593 3.4744506
-18.950878 -6.7062879 3.4862921
-18.811815 -7.6969986 3.5249765
-17.421797 -8.1301489 3.3341913
-17.913525 -8.8920212 3.4683554
-18.396322 -21.844839 4.9528818
-17.502192 -21.830969 4.8525715
-16.654169 -21.832163 4.7621274
-15.130073 -21.954573 4.6240745
-14.416557 -22.03874 4.567203
-13.769326 -22.200468 4.5305476
-13.213559 -22.498583 4.5249987
-12.240596 -26.373922 5.0425353
-2.6128955 -7.4330945 1.3664166
-2.4442334 -7.5290732 1.3728201
-2.2739892 -7.6264396 1.3801641
-2.1019433 -7.7253361 1.3884784
-1.8529736 -7.5221057 1.3435266
-1.3227735 -7.7453079 1.362685
-1.1297314 -7.7351413 1.3557055
-0.62198728 -8.5464029 1.4860873
7.7269578 -28.460579 5.1144781
10.637124 -21.572109 4.1712546
11.297808 -21.58313 4.224874
11.977788 -21.597569 4.2830334
12.657826 -21.579376 4.3387346
14.096684 -21.575521 4.4696097
15.634204 -21.579016 4.6213508
17.277514 -21.574917 4.7935605
19.051605 -21.569582 4.9909582
14.468901 -9.0270243 2.9575932
14.934233 -8.3447714 2.9668834
14.964946 -7.8943992 2.934288
15.229057 -6.674274 2.8836203
16.052641 -6.5783157 3.0086312
19.122017 22.46454 5.1162291
17.049047 22.106585 4.841567
16.098402 21.949121 4.7206359
15.197026 21.804182 4.609251
14.339849 21.670662 4.5065656
13.522563 21.547581 4.4118328
13.303325 23.661289 4.707592
13.323676 25.09606 4.9276514
0.72477049 24.4098 4.2351556
0.092084959 16.567682 2.8733094
-0.307749 16.572912 2.8746674
-1.9179394 16.593987 2.8969841
-2.3255858 16.599321 2.906867
-3.568789 16.615599 2.9472921
-5.2943554 16.638195 3.0280557
-7.1347265 16.662312 3.1434448
-7.6183887 16.66865 3.1783969
-8.1131935 16.675131 3.2160285
-8.6201906 16.681782 3.2564795
-9.674922 16.695608 3.3464763
-10.225161 16.70282 3.3963957
-11.378032 16.717939 3.5071011
-18.879135 -7.4926157 3.5225527
-18.397699 -8.3499689 3.5038767
-17.468437 -8.9682636 3.4054024
-19.734188 -21.848057 5.1058426
-17.890644 -21.838509 4.8960023
-17.020267 -21.829746 4.8005686
-16.209867 -21.857992 4.7193875
-14.726484 -22.001417 4.591466
-14.046553 -22.122065 4.5445857
-12.926147 -22.708752 4.5315995
-12.569272 -23.376038 4.6028976
-12.371313 -24.401438 4.7446461
-12.287661 -25.758947 4.9495068
-2.9595897 -7.0620346 1.3279427
-1.6939111 -7.3011966 1.2998474
-1.6411328 -7.9390182 1.4059402
-1.214038 -7.73948 1.3586379
-0.71038085 -8.516593 1.4821267
-0.50790036 -8.5849962 1.4914639
7.6436667 -24.468018 4.4456224
8.3502293 -22.801926 4.2112622
8.7840967 -22.304987 4.1574202
10.360541 -21.583254 4.1520066
11.002299 -21.570395 4.1993866
12.353657 -21.580193 4.3124037
13.053569 -21.578318 4.3736987
15.28435 -21.572338 4.5850859
17.761889 -21.573711 4.8463531
18.650269 -21.570425 4.9452686
19.577417 -21.568474 5.051651
14.276626 -9.1180859 2.9378252
14.719458 -8.9084158 2.9838455
15.227162 -7.7706809 2.9647691
16.106567 -7.2627387 3.0641377
18.514301 22.357677 5.0342646
16.508461 22.016476 4.7723756
14.71021 21.727814 4.5505295
13.079252 21.482658 4.3618279
13.294966 23.072153 4.618082
13.314526 24.451342 4.8284183
0.26715332 16.56539 2.87324
-0.53267092 16.575857 2.8761644
-1.3360302 16.586369 2.8858216
-1.7401659 16.591658 2.8932054
-2.1466601 16.596977 2.9023218
-2.5559618 16.602337 2.9131958
-3.3850048 16.61319 2.940356
-3.8058641 16.6187 2.9567242
-4.2316456 16.624277 2.975014
-4.6630173 16.629929 2.9952905
-5.1005616 16.635662 3.0176136
-5.9968114 16.647402 3.0686963
-6.4569678 16.653429 3.0976257
-7.4051757 16.665854 3.1627624
-7.89499 16.672276 3.1992035
-9.9821291 16.699633 3.3741045
-10.541665 16.706972 3.425981
-18.946537 -7.2885504 3.5205636
-18.949184 -7.8194089 3.5550804
-18.231035 -8.0430317 3.4557509
-17.803846 -8.9040155 3.4522536
-19.202143 -21.847326 5.0443592
-17.393618 -21.828861 4.8405294
-16.551699 -21.832838 4.751461
-15.778813 -21.890898 4.6798754
-15.039765 -21.963692 4.6165094
-14.329496 -22.049225 4.5604839
-13.691201 -22.222565 4.5266862
-13.150273 -22.544855 4.5263805
-12.716025 -23.061264 4.5671277
-12.439233 -23.905643 4.673543
-12.335332 -25.170761 4.8612719
-12.235522 -26.570715 5.0731449
-2.5920703 -7.4449167 1.3671585
-2.4232323 -7.5410557 1.3736755
-1.9111279 -7.1078124 1.276459
-1.8442577 -7.5842929 1.353642
-1.2987354 -7.7439995 1.3617654
-1.1096972 -7.7600284 1.3594803
-0.59691405 -8.5548744 1.4872445
7.7190967 -28.099186 5.0536618
7.7966943 -23.818485 4.3464136
8.591177 -22.510038 4.1784821
9.041831 -22.076767 4.1373549
9.5322609 -21.762146 4.1202965
10.089478 -21.60079 4.1346416
12.062466 -21.597771 4.2902012
13.455815 -21.577238 4.4100547
15.732553 -21.57877 4.6313453
17.383413 -21.57465 4.8050265
20.116421 -21.567339 5.1147981
14.523745 -9.0010614 2.9632895
14.731704 -8.1739206 2.9217808
15.108295 -7.9123626 2.9577417
14.869038 -6.8947043 2.8424103
15.007924 -6.5239635 2.838048
15.984194 21.930506 4.7063355
12.646685 21.420614 4.3140178
13.305747 23.832066 4.7336349
13.326323 25.283176 4.9565496
-1.1595606 16.584059 2.8831258
-1.9682958 16.594643 2.8981116
-2.3762743 16.599985 2.9082119
-2.7873731 16.605366 2.9200907
-3.620913 16.616282 2.9493191
-4.044487 16.621828 2.9667645
-5.7979002 16.644794 3.0567491
-6.2543507 16.650776 3.0846694
-6.7194529 16.65687 3.1149247
-7.6790624 16.669445 3.1829121
-8.6838675 16.682615 3.2616928
-9.2057953 16.689457 3.3055012
-11.451923 16.71891 3.5144658
-18.903715 -6.5288086 3.4684112
-19.014023 -7.0847254 3.5189908
-18.860102 -7.550365 3.5231979
-18.826176 -8.0690279 3.5522006
-18.015537 -8.773077 3.4751265
-17.375313 -8.9861813 3.3924696
-19.61582 -21.847895 5.0920849
-17.780064 -21.836361 4.8835821
-16.916176 -21.830435 4.7895837
-15.360806 -21.931757 4.6436558
-12.363139 -24.567106 4.7696524
-12.272929 -25.927231 4.9747667
-2.8194139 -7.2748265 1.3530786
-2.6656103 -7.4031992 1.3645962
-2.3276563 -7.5956936 1.3777548
-2.1562157 -7.694088 1.3857614
-1.8745117 -7.3685789 1.3186053
-1.6889257 -7.3798499 1.3129447
-1.6145703 -7.9299717 1.403478
-0.76682127 -7.3214555 1.2766751
-0.6854248 -8.5250015 1.4832269
-0.27714354 -8.6634483 1.5032339
7.6778464 -26.535391 4.7906861
7.672915 -24.306101 4.4203544
8.3996925 -22.726467 4.2019434
8.8382959 -22.247383 4.1515894
9.3137054 -21.889755 4.1255951
13.864926 -21.576141 4.4478459
14.610727 -21.574142 4.5187902
15.381235 -21.572079 4.5947576
6.4218407 -7.7526608 1.7458727
18.763021 -21.570187 4.9580503
14.330756 -9.0924511 2.9433572
14.266791 -8.1143618 2.846426
15.131763 -7.6650739 2.9417212
15.145854 -7.2185354 2.9097543
16.140629 -7.2201328 3.066505
18.38312 22.334816 5.0167284
17.358793 22.158844 4.8816881
14.604692 21.711451 4.5379438
13.775288 21.58518 4.4407825
13.338784 26.160667 5.0926499
0.21763672 16.56604 2.8732278
-0.98344725 16.581755 2.8807561
-1.385957 16.587021 2.8866427
-2.6068895 16.603003 2.9146662
-3.4369042 16.613873 2.9422805
-6.0533543 16.648142 3.0721536
-6.9849167 16.660347 3.1329949
-7.4652586 16.666643 3.1671329
-7.9564795 16.673082 3.2039092
-8.97542 16.686438 3.285929
-9.5053663 16.693384 3.3314977
-10.612202 16.707895 3.432662
-18.825575 -6.2799063 3.4417028
-18.988485 -6.847578 3.5006752
-18.927465 -7.3462291 3.5210845
-17.017197 -8.0655775 3.2659295
-17.707968 -8.9222775 3.4388187
-16.961718 -9.0658045 3.3354104
-19.086636 -21.847168 5.0311384
-16.454052 -21.839355 4.7421503
-14.950815 -21.974403 4.6093473
-14.246449 -22.065527 4.5550232
-13.613271 -22.244604 4.5228682
-13.086953 -22.591164 4.5278087
-12.420244 -24.044277 4.6933713
-2.9947851 -6.9967613 1.3198986
-2.7469335 -7.383328 1.3662082
-2.4022217 -7.5530534 1.3745483
-2.2315576 -7.650785 1.3821323
-1.2747705 -7.7426987 1.3608612
-0.85725582 -7.4263921 1.2964804
-0.57178712 -8.5633688 1.4884161
8.2237253 -22.994913 4.2352695
11.466479 -21.590401 4.2396355
12.831499 -21.578911 4.3539782
13.545395 -21.577 4.4182611
14.281128 -21.575026 4.4871135
15.040454 -21.572992 4.5608344
16.645161 -21.576494 4.7260022
17.48974 -21.574387 4.8165817
13.781538 -8.0322828 2.7663932
14.772905 -8.1391249 2.9251144
14.793188 -6.8059239 2.8240159
16.046265 -6.4639482 3.0001416
18.85145 22.416782 5.0795975
17.800053 22.234074 4.9394288
16.808744 22.066345 4.8106723
15.870767 21.912096 4.6921911
14.980737 21.770081 4.5830317
14.133852 21.639238 4.4823875
12.552691 21.407309 4.3037596
13.308188 24.00453 4.7599826
-0.0069091795 16.568977 2.8734877
-1.2094336 16.584711 2.8838551
-1.6129882 16.589994 2.8906994
-2.4269922 16.600647 2.9095855
-2.8385108 16.606035 2.9216857
-4.0973191 16.622519 2.9690607
-4.5268798 16.628143 2.9887054
-6.7777147 16.657635 3.1188402
-7.2535839 16.66387 3.1518645
-7.7399216 16.67024 3.1874657
-9.2714014 16.690317 3.3111415
-9.8097458 16.697374 3.3585274
-10.364053 16.704643 3.4093001
-11.526245 16.719921 3.5219111
-19.853691 -21.848722 4.4375544
-18.910664 -21.84742 4.3433399
-18.001831 -21.840729 4.254416
-17.12501 -21.829233 4.1704688
-16.30625 -21.85112 4.0982795
-14.126011 -22.100935 3.9426963
-12.990903 -22.66464 3.926795
-12.613359 -23.290854 3.9813762
-12.394243 -24.266548 4.0958457
-12.306152 -25.600494 4.2696376
-2.6776171 -7.2993817 1.1686951
-2.5076318 -7.382103 1.17191
-2.3402686 -7.4770083 1.1776687
-2.0003417 -7.6710315 1.1916267
-1.7230517 -8.2114639 1.2611828
-0.72750974 -8.4181318 1.2700841
-0.52744138 -8.4850979 1.2778939
-0.32480469 -8.5532789 1.2866086
7.9084325 -23.554396 3.734803
8.7286177 -22.359934 3.6080372
9.1931982 -21.970114 3.5798862
10.282749 -21.586361 3.5940762
10.919536 -21.567129 3.6336839
11.597124 -21.596331 3.6846843
12.27853 -21.598433 3.7344897
12.965766 -21.578518 3.7840564
15.187915 -21.572561 3.9657054
16.803267 -21.5758 4.1106782
19.460619 -21.568918 4.3667173
14.175893 -9.1134958 2.5331986
14.566528 -8.8754635 2.5639889
14.921977 -8.1321974 2.5544546
15.862475 -7.2097917 2.6190941
15.890015 -6.7646904 2.5959356
19.73564 21.48958 4.3857293
18.656363 21.324877 4.2589979
16.681929 21.03459 4.0354381
13.288257 22.902042 3.9800193
13.307387 24.265299 4.159914
13.328354 25.758497 4.3594966
-0.08302246 16.569851 2.4907207
-0.48306641 16.575083 2.4925339
-0.88393062 16.580326 2.4958005
-1.286079 16.585588 2.5005379
-2.0961571 16.596193 2.5144663
-2.5050585 16.601545 2.5237021
-3.3331785 16.612387 2.54685
-3.7534325 16.617887 2.5608351
-4.6092334 16.629093 2.5938365
-5.4894581 16.640623 2.6339135
-5.940361 16.646528 2.6567624
-6.3994336 16.652544 2.6815856
-6.8674512 16.658672 2.7084708
-8.8462744 16.684601 2.8386469
-9.913867 16.698595 2.9190722
-11.046445 16.713442 3.0114076
-19.344736 -6.3248582 3.0592718
-18.890606 -7.2022848 3.0389116
-18.447021 -8.0725508 3.0267322
-17.30747 -8.0767946 2.8709013
-17.813189 -8.8422127 2.9893112
-17.060957 -8.9881582 2.8986285
-15.873613 -21.884142 4.0637035
-15.130449 -21.955107 4.0079541
-13.770034 -22.201609 3.9269922
-13.214878 -22.500854 3.9223754
-12.759478 -22.977348 3.9506226
-12.461557 -23.774687 4.0348325
-12.245073 -26.383596 4.3721485
-2.733999 -7.2162914 1.159953
-2.4137743 -7.4352736 1.1750478
-2.2455127 -7.5309238 1.1812564
-1.8251513 -7.4091339 1.1469935
-1.8182958 -8.2315474 1.2671478
-1.3120898 -7.6827903 1.1715554
-0.61538082 -8.4556189 1.274363
-0.41391599 -8.5232534 1.2826788
7.7227783 -28.445139 4.4305024
7.7497215 -23.916487 3.7790172
8.5351706 -22.565536 3.6264551
9.4642239 -21.783691 3.5700815
10.019799 -21.61997 3.5818415
10.637104 -21.572079 3.6153781
11.977876 -21.597712 3.7122808
15.633999 -21.578726 4.0054407
17.277281 -21.574615 4.1546955
19.051783 -21.569777 4.3258872
14.394165 -8.9803944 2.5502102
15.786665 -7.377625 2.6193042
14.852749 -6.509356 2.4375811
20.230463 21.566372 4.4447913
16.165796 20.961325 3.9789653
15.284184 20.838982 3.8846037
13.645884 20.621914 3.7169745
12.881245 20.525663 3.6425424
13.298803 23.653227 4.0788512
13.318931 25.087114 4.269453
0.75174314 25.318701 3.807445
0.092075191 16.567558 2.4903836
-0.307749 16.572788 2.4915574
-1.1097217 16.583281 2.4982803
-1.5128174 16.588556 2.5038488
-1.9179296 16.593859 2.5109041
-2.3255615 16.599194 2.5194674
-3.9917235 16.621008 2.5694182
-4.8538771 16.632298 2.6043618
-5.7418699 16.64393 2.6465137
-6.1972995 16.649895 2.6704657
-6.6612744 16.655972 2.6964331
-8.1131201 16.674995 2.7874277
-9.1402884 16.688457 2.860122
-9.6748533 16.695461 2.9004908
-10.225054 16.702673 2.943753
-10.792246 16.710108 2.9900885
-11.377939 16.717787 3.0397065
-18.824697 -6.9501934 3.0163224
-18.954741 -7.5226192 3.0653536
-18.516083 -7.8706827 3.0242493
-18.904623 -8.5800276 3.1206176
-17.384403 -8.925128 2.9373891
-19.734638 -21.848558 4.4255161
-17.890703 -21.838572 4.2435575
-17.020395 -21.829924 4.160861
-16.210215 -21.858452 4.0905528
-15.452739 -21.923243 4.031723
-14.047276 -22.123205 3.9391637
-12.927446 -22.711046 3.9281023
-12.291587 -25.767199 4.2912936
-2.6615233 -7.3231215 1.1712168
-2.4869776 -7.3937936 1.1725816
-2.3194335 -7.4888549 1.1784368
-1.9790233 -7.6832542 1.1926008
-1.6083202 -7.7802806 1.1942149
-1.1993701 -7.6459928 1.1633579
-0.98668456 -7.4617558 1.1313734
-0.70285153 -8.4263649 1.2710028
7.6857662 -26.863167 4.1999431
7.6410499 -24.459608 3.8518596
8.3488426 -22.798149 3.6494539
8.7829733 -22.302155 3.6029298
9.2530813 -21.92893 3.5776634
9.7754831 -21.690722 3.5762453
10.360532 -21.583225 3.5986929
11.002456 -21.570704 3.6398108
11.680796 -21.596996 3.6907372
14.517035 -21.57436 3.9087474
16.083725 -21.5776 4.0453348
16.906851 -21.575542 4.1202288
18.650444 -21.57062 4.2862821
14.223735 -9.0843 2.5368862
14.615659 -8.8455906 2.5679679
13.937534 -7.9823093 2.4142771
14.886167 -7.1494479 2.4822955
19.598248 21.468393 4.3694305
18.527222 21.305439 4.2440362
14.807924 20.774445 3.8347967
13.212124 20.566896 3.674438
13.290532 23.06444 4.0013194
13.309877 24.442818 4.1835098
-0.13252929 16.570498 2.4908652
-0.53266114 16.575731 2.4928594
-0.93366694 16.580978 2.4963086
-1.3360254 16.586243 2.5012264
-1.7401659 16.591534 2.507627
-2.1466358 16.596853 2.5155284
-2.5559375 16.602211 2.5249536
-3.3849852 16.613064 2.5484929
-4.6629834 16.629797 2.5961075
-5.5448585 16.641348 2.6366384
-6.4569092 16.653296 2.6848028
-7.405107 16.66572 2.7412581
-18.909458 -7.2742896 3.0454268
-18.381239 -8.1093025 3.0199044
-17.717276 -8.8607101 2.9776447
-16.97106 -9.0056829 2.8879137
-19.202572 -21.847822 4.372232
-18.28455 -21.844215 4.2819676
-17.393661 -21.828922 4.1954761
-16.55183 -21.833015 4.1182995
-14.329892 -22.049833 3.9528434
-13.69189 -22.223711 3.9236438
-13.151607 -22.547123 3.9235735
-12.442715 -23.912348 4.0518656
-12.240029 -26.5805 4.3986969
-2.8443995 -7.0539331 1.1432656
-2.5876513 -7.4322262 1.1829458
-2.3930223 -7.4470487 1.175773
-2.2245507 -7.5428691 1.1820831
-2.0542626 -7.6401443 1.1892126
-1.8163574 -7.4695501 1.1555003
-1.6193799 -7.4364848 1.1440082
-1.4911767 -7.7415934 1.1850641
-1.2870996 -7.6746163 1.169717
-0.78986329 -8.3973303 1.2678119
-0.59057128 -8.4639301 1.2753448
7.7149754 -28.08416 4.3778453
7.7949853 -23.813227 3.7663658
9.0410204 -22.074785 3.5856748
9.5318794 -21.761267 3.5710671
10.089057 -21.599916 3.5834982
10.715835 -21.568909 3.620199
11.382182 -21.587067 3.6682744
13.455786 -21.577204 3.8223474
14.188696 -21.575239 3.8815238
14.945112 -21.573212 3.9448907
19.166595 -21.569536 4.3373046
20.116606 -21.567539 4.4332242
14.840503 -8.709012 2.5864899
15.165952 -7.4820743 2.541996
15.819995 -7.3356638 2.6211846
15.881304 -6.9036188 2.6029832
20.089077 21.544348 4.4278531
18.988197 21.375092 4.2976446
16.977386 21.077044 4.0681505
14.344517 20.712746 3.7871556
13.549312 20.609568 3.7074339
13.282582 22.497698 3.9271319
13.301196 23.823938 4.1014175
13.321557 25.274103 4.2944837
0.04257324 16.568207 2.490447
-1.5628711 16.589211 2.5046411
-1.9682764 16.594517 2.5118804
-2.3762403 16.599857 2.5206332
-2.7873535 16.605238 2.5309296
-3.6208837 16.61615 2.556263
-5.3493409 16.638786 2.6271286
-5.7978611 16.644663 2.6493759
-6.2543015 16.650642 2.6735713
-7.1940088 16.662951 2.7281456
-8.683794 16.682472 2.827003
-10.863774 16.711046 2.9960539
-11.451826 16.718754 3.0460887
-18.603125 -6.424993 2.9583969
-18.81312 -8.6064072 3.1097467
-18.206036 -8.8658466 3.0438707
-17.780107 -21.836426 4.232789
-15.361186 -21.932295 4.0249262
-14.638935 -22.012621 3.9736912
-13.96872 -22.14542 3.9356694
-12.864014 -22.757433 3.9294603
-12.367241 -24.575239 4.1354003
-12.276875 -25.935566 4.3132124
-2.6453662 -7.3469696 1.1737621
-2.4663086 -7.4054971 1.1732631
-2.1291015 -7.5973392 1.1859863
-1.8468701 -7.2599421 1.1260327
-1.7748241 -7.7551823 1.1958543
-1.3758398 -7.7036734 1.1762965
-1.1747265 -7.63798 1.1615983
-0.96006346 -7.4313297 1.1263212
-0.87647945 -8.368494 1.2647858
7.6726708 -26.517509 4.149466
8.3982954 -22.722708 3.6413755
8.8371725 -22.24456 3.597877
9.3128853 -21.887793 3.5754843
10.438461 -21.580086 3.6033516
12.439272 -21.579929 3.7440932
13.141674 -21.578047 3.7976787
13.864897 -21.576107 3.8551037
14.610718 -21.574108 3.9165971
15.381215 -21.572042 3.9824345
6.4175048 -7.7474256 1.5121899
14.271743 -9.0550117 2.5406082
15.0231 -8.0712166 2.5634601
17.398149 21.138115 4.1152
16.452436 21.001869 4.0102186
14.704741 20.760605 3.8241112
13.893217 20.653769 3.7415948
13.117895 20.555084 3.6653049
12.478198 20.634033 3.6246309
13.312407 24.622414 4.2074175
0.21763672 16.565916 2.4903116
-0.18207031 16.571144 2.4910314
-0.58229005 16.576382 2.4932065
-0.98343259 16.581629 2.4968393
-1.3859472 16.586895 2.5019395
-1.7903857 16.59219 2.5085251
-3.4368749 16.613745 2.5501614
-6.5145359 16.654053 2.6880529
-7.4651952 16.666504 2.7450476
-7.9564109 16.672943 2.7769203
-8.4594679 16.679533 2.811202
-9.5052881 16.693237 2.8875048
-10.050444 16.700386 2.9298379
-11.191816 16.715345 3.0237494
-19.333612 -6.4493885 3.0635529
-18.778011 -6.7716794 3.0005336
-18.201401 -8.0950441 2.9943171
-17.622183 -8.8790522 2.9661095
-19.087055 -21.847664 4.3607683
-18.173149 -21.843473 4.2711573
-16.454399 -21.839813 4.1102805
-12.42374 -24.05102 4.0690546
-12.234921 -26.779837 4.4256144
-2.7022119 -7.2631202 1.1648637
-2.3722558 -7.4588385 1.1765103
-2.2035692 -7.5548315 1.1829215
-1.8074462 -7.5307999 1.1641358
-1.7643163 -8.2201529 1.2637488
-0.76531249 -8.4055166 1.2686965
-0.56570309 -8.4722643 1.2763402
-0.36357909 -8.540206 1.2848797
7.8399167 -23.71072 3.7538397
8.2223482 -22.991079 3.6702511
8.6448193 -22.449011 3.6159637
9.1010399 -22.033499 3.5833664
9.600708 -21.741329 3.5724874
10.794643 -21.565731 3.6250582
12.147456 -21.598118 3.7247505
12.831479 -21.578876 3.7737455
13.545376 -21.576965 3.8294616
14.281098 -21.574993 3.889138
15.831108 -21.578232 4.0228291
16.644945 -21.576197 4.0961432
17.489506 -21.574087 4.1746473
20.237251 -21.567286 4.4455857
15.255259 -7.9313951 2.5844939
15.085454 -7.3864169 2.5247917
19.948921 21.522577 4.411109
18.856636 21.355139 4.2822886
16.860258 21.060171 4.0551486
15.943227 20.930099 3.9548876
14.244067 20.699524 3.7769432
12.696812 20.502974 3.6249835
13.2848 22.655893 3.9477966
13.303617 23.996256 4.1242251
0.39277342 16.563625 2.4904535
-0.0069140624 16.568851 2.4905398
-0.40686524 16.574087 2.4920747
-3.2536767 16.611345 2.5443747
-3.6731005 16.616835 2.5580449
-4.0972853 16.622389 2.5733721
-4.5268507 16.628016 2.590399
-4.9623828 16.633718 2.6091826
-5.4044676 16.639509 2.6297772
-5.8539209 16.645395 2.6522641
-6.7776608 16.657495 2.7031915
-7.2535253 16.663731 2.7318125
-8.7476606 16.68331 2.8315585
-19.854151 -21.849224 3.7599576
-16.306581 -21.851576 3.472482
-14.815541 -21.992012 3.3771722
-13.502871 -22.293465 3.3194726
-12.992202 -22.666914 3.3274379
-12.615693 -23.29516 3.3739827
-12.231513 -27.100815 3.7867901
-2.1445165 -7.4799838 0.99102265
-1.6898974 -8.0534554 1.0480186
-0.99577147 -7.3611221 0.94604534
-0.52192384 -8.396266 1.0714046
7.6920261 -27.19202 3.5990727
7.6088619 -24.614798 3.2812796
7.9067235 -23.549282 3.1637535
8.2977781 -22.870161 3.0985103
9.7061377 -21.709814 3.0286977
10.919673 -21.56743 3.0788078
11.59729 -21.59664 3.1220157
12.278608 -21.598574 3.1641936
12.965737 -21.578484 3.206167
15.187876 -21.572527 3.3600931
17.653715 -21.573374 3.5502515
20.424047 -21.567095 3.7829735
14.783559 -8.5256109 2.1734796
14.59896 -7.9561615 2.117497
15.631577 -7.1048455 2.186815
17.682455 20.211662 3.4202042
16.743715 20.097013 3.331466
15.854536 19.991308 3.2495782
14.291255 19.923336 3.1227136
13.266528 21.644342 3.2332106
13.302807 24.256977 3.523421
5.2717919 16.536005 2.2104449
4.9534616 16.939096 2.2477002
0.31669432 16.565725 2.1101809
-0.88398433 16.58144 2.1147978
-1.2861669 16.586683 2.1188054
-1.690083 16.591948 2.124069
-2.0962889 16.597227 2.1306031
-2.5052197 16.602533 2.1384203
-2.9173925 16.607874 2.1475508
-3.3333545 16.613255 2.1580184
-3.7536082 16.618681 2.1698563
-4.1787791 16.624163 2.1831014
-5.4895802 16.641001 2.2317233
-5.9404492 16.646772 2.251066
-6.3994727 16.652641 2.2720783
-6.8674264 16.658613 2.294838
-8.3335791 16.677744 2.3744726
-8.8461962 16.68446 2.4051197
-18.65794 -6.6026268 2.5206594
-18.824657 -8.2378168 2.6170027
-19.319233 -21.848478 3.7144125
-18.396538 -21.845083 3.6373
-17.5023 -21.831093 3.5636117
-16.654448 -21.832512 3.4972301
-12.761821 -22.981575 3.3479123
-12.465005 -23.781298 3.4195995
-2.690625 -7.1018133 0.96721798
-2.5620751 -7.2885342 0.98394209
-2.2179198 -7.4383941 0.98856324
-2.1164551 -7.7786484 1.0266974
-1.9376172 -7.8656969 1.031715
-1.0008496 -8.2378225 1.0568768
-0.80594724 -8.3020716 1.0623153
7.7186179 -28.429846 3.7518725
7.7480221 -23.911228 3.2011974
8.5340967 -22.56267 3.0722473
9.4633741 -21.781763 3.0246084
10.019409 -21.619101 3.0347118
11.977954 -21.597851 3.1453807
13.366528 -21.57741 3.232635
14.096636 -21.575451 3.2823467
14.850015 -21.573429 3.3355834
15.633784 -21.578434 3.3937001
16.440395 -21.576412 3.454767
6.4649463 -7.6853724 1.2790594
19.051949 -21.569973 3.6652892
15.33311 -8.0886192 2.207871
14.906167 -7.4093676 2.1200314
15.618979 -7.2992606 2.1957221
15.647964 -6.8578629 2.1758995
20.215805 20.534737 3.6699607
18.110649 20.264929 3.4614134
17.14852 20.146078 3.3694522
16.238285 20.036564 3.2846451
14.609546 19.919172 3.1460865
13.88976 19.928589 3.0937386
13.489448 20.385506 3.1132309
13.276089 22.333998 3.3090408
13.294312 23.645267 3.4547818
13.314214 25.078234 3.6161597
6.1556396 15.991992 2.1824017
5.8319187 16.31443 2.2065561
5.443325 16.470484 2.2092535
0.092089839 16.568668 2.1102047
-1.5129101 16.589642 2.1216092
-1.9180517 16.59491 2.1275826
-2.3257079 16.600206 2.1348374
-2.7364013 16.60553 2.1433885
-3.5689452 16.616297 2.1645012
-4.854033 16.632847 2.2067053
-5.2944431 16.638498 2.2237604
-6.661284 16.655987 2.2846484
-7.1346045 16.662041 2.3084207
-8.1130562 16.674856 2.3617227
-8.6200294 16.681496 2.3914266
-9.1402149 16.688313 2.4233172
-10.224971 16.702526 2.4941738
-10.792153 16.709959 2.5334325
-11.377831 16.717634 2.5754724
-19.294765 -6.5993791 2.5971267
-19.232788 -7.1008677 2.6110897
-18.062319 -7.1684446 2.474941
-17.66328 -8.0166407 2.4704323
-17.301739 -8.8826895 2.476969
-10.381216 -7.7808118 1.6522888
-17.890741 -21.838634 3.595506
-17.020546 -21.830099 3.5254648
-16.210541 -21.858906 3.46593
-15.45311 -21.923777 3.4161
-13.439721 -22.33964 3.3203487
-12.92875 -22.71332 3.3285501
-12.378955 -24.416517 3.4864883
-2.6189208 -7.2059021 0.97646958
-2.0161669 -7.8274479 1.0294361
-1.7571093 -7.5735946 0.99018586
-1.4689257 -8.0852089 1.0465813
-0.69552732 -8.3386192 1.0656868
7.6384521 -24.45125 3.2625046
7.9509225 -23.44845 3.1533828
12.353627 -21.580124 3.1669009
13.05353 -21.578249 3.211915
13.774076 -21.576315 3.2601528
14.517007 -21.574324 3.3118155
16.0835 -21.577309 3.4275022
16.906616 -21.575243 3.4909558
17.761381 -21.573103 3.5589221
19.577787 -21.568869 3.7098591
14.83311 -8.4952269 2.177022
14.730571 -7.9708872 2.1331208
15.189175 -7.7512975 2.1718128
15.606674 -7.4954882 2.2050054
20.713558 20.600292 3.7205946
19.597738 20.454237 3.6077673
18.550053 20.320183 3.5041456
17.563286 20.196941 3.4088151
16.631029 20.083454 3.3209634
15.747582 19.978788 3.2398758
13.495601 19.933743 3.0658493
13.268599 21.793652 3.2495742
13.286128 23.05681 3.3891366
13.305268 24.43434 3.5433934
-0.13254394 16.571615 2.1106143
-0.53270018 16.576851 2.1123028
-1.3361034 16.587336 2.1193902
-1.7402782 16.5926 2.1248093
-2.5560937 16.603193 2.1394804
-3.3851612 16.613922 2.1594102
-3.8060107 16.619354 2.1714203
-4.2317872 16.624844 2.1848419
-5.5449805 16.64171 2.23403
-5.9968405 16.647495 2.253576
-6.456943 16.653376 2.274802
-7.4050584 16.665583 2.322608
-7.8948631 16.671999 2.3493676
-8.3963814 16.678566 2.37815
-8.910615 16.685305 2.4090695
-9.4387445 16.692226 2.4422424
-9.9819384 16.699341 2.4778039
-10.541474 16.706675 2.5158999
-19.324057 -6.3821182 2.5918465
-18.700111 -7.193748 2.5517778
-18.868334 -7.786046 2.599612
-18.734278 -8.2650509 2.6078589
-18.180571 -8.5505104 2.5587583
-17.63209 -8.8181162 2.5107825
-19.203012 -21.848314 3.7046041
-16.551958 -21.833187 3.4893973
-14.330293 -22.050436 3.3492758
-13.692593 -22.22484 3.3246133
-13.152925 -22.549381 3.3247192
-12.720717 -23.06978 3.3552098
-12.446181 -23.918997 3.4340365
-12.343642 -25.187761 3.5723913
-12.244512 -26.590227 3.7283118
-2.6749365 -7.1245775 0.96922618
-2.5458496 -7.3121448 0.98609895
-2.0943897 -7.789381 1.0272833
-1.7566894 -8.067029 1.051488
-1.5521728 -8.0582466 1.0451573
-1.262539 -7.5281763 0.9721719
-1.0635595 -7.4373875 0.95685589
-0.97680175 -8.2457075 1.0575095
-0.5843994 -8.375494 1.0692885
7.6013427 -25.267632 3.3605287
8.1707764 -23.063856 3.1162708
8.5890083 -22.504318 3.0677831
9.0402098 -22.072819 3.0378158
10.715816 -21.568878 3.0673327
11.382329 -21.587376 3.1081142
12.062632 -21.598057 3.1506441
12.744507 -21.579077 3.1918118
13.455767 -21.577169 3.238606
14.188696 -21.575205 3.2887478
15.732134 -21.57819 3.4010391
16.542349 -21.576157 3.4626245
17.382935 -21.574049 3.5285807
19.166761 -21.569731 3.6749578
20.116802 -21.567739 3.7562306
14.658628 -8.6022749 2.1646335
14.273413 -7.919642 2.0789239
15.360463 -8.0444241 2.208338
15.622465 -7.2440696 2.1931608
16.702894 -7.2607646 2.3195632
21.226147 20.668432 3.7732103
20.077621 20.516657 3.6559956
19.00104 20.377497 3.5484564
17.033072 20.13203 3.3585756
16.128862 20.023607 3.2746043
13.80226 19.929733 3.0874994
13.402749 20.386641 3.1072736
13.296675 23.815857 3.4738846
13.316812 25.265104 3.6373534
5.3948874 16.489174 2.2095902
4.8136473 16.00955 2.129133
0.042578124 16.569321 2.1102602
-0.35734862 16.574558 2.1114092
-0.75793457 16.579792 2.1137922
-1.5629785 16.590296 2.1222806
-1.968413 16.595566 2.1284134
-2.3763916 16.600864 2.135824
-2.7875097 16.606194 2.1445394
-4.4734912 16.627954 2.1930203
-4.908237 16.633543 2.2087348
-5.7979541 16.644951 2.2448137
-6.2543554 16.650787 2.2652938
-7.6789355 16.66917 2.3374038
-8.6837254 16.682331 2.3952556
-10.863671 16.710897 2.5384865
-18.261318 -7.8269238 2.5303664
-17.971815 -8.7517872 2.5458422
-19.616699 -21.84889 3.7396536
-18.682983 -21.846994 3.6610913
-12.532045 -23.474672 3.3890736
-2.471328 -7.4205804 0.99611235
-2.1723046 -7.7515025 1.0252583
-1.7476465 -7.6364193 0.9977116
-1.4453417 -8.0928564 1.0470085
-0.94338375 -7.3022156 0.93773299
-0.86740232 -8.2817717 1.0605279
-0.47247559 -8.4127235 1.073125
7.6675339 -26.499807 3.5134299
7.9948483 -23.348276 3.143111
8.3969183 -22.718969 3.0847704
9.8440866 -21.66987 3.0312793
16.183872 -21.577057 3.4351311
17.010767 -21.574982 3.4991283
6.4133639 -7.742424 1.2804272
19.695473 -21.568623 3.719924
14.882836 -8.4647408 2.1805956
14.864184 -7.9858427 2.1490037
15.610151 -7.4398203 2.2023449
19.464369 20.436998 3.5944457
17.444916 20.182367 3.3975375
16.519028 20.070021 3.3105595
14.840796 19.916149 3.1632802
14.113354 19.925661 3.1098011
13.409673 19.934866 3.0598466
13.270688 21.944523 3.2661433
13.288413 23.220964 3.4074118
13.307768 24.613813 3.5636358
13.328999 26.141493 3.7371614
5.9531493 16.26355 2.2057149
5.174458 16.572279 2.2111216
0.21765624 16.567026 2.1101446
-1.790498 16.593254 2.125571
-3.4370508 16.614594 2.1608222
-4.7170115 16.631086 2.201668
-5.6005421 16.642422 2.2363629
-8.4593945 16.679392 2.3818657
-8.9752731 16.686152 2.4130542
-10.050366 16.700239 2.482384
-10.612021 16.707598 2.5208056
-18.103954 -8.0517006 2.5234551
-17.537792 -8.8365345 2.5011041
-20.040409 -21.851835 3.7761786
-14.247914 -22.067801 3.3454258
-13.614673 -22.246874 3.3218081
-12.427207 -24.057747 3.4486134
-12.332099 -25.355696 3.5909631
-12.239433 -26.789719 3.7511363
-2.529541 -7.3358555 0.98827147
-1.7804883 -7.4184875 0.97164351
-1.5286474 -8.0658598 1.0455461
-1.2381738 -7.5204277 0.97068995
-1.0366601 -7.4071207 0.95255858
-0.95274901 -8.253624 1.0581539
-0.5597949 -8.3836727 1.0701146
9.6003265 -21.740459 3.0267928
10.794614 -21.565704 3.0714493
11.466811 -21.591017 3.1135542
13.545356 -21.576931 3.2446339
15.040405 -21.572922 3.3493376
15.830894 -21.577942 3.4084401
16.644712 -21.575901 3.4705486
17.489243 -21.573784 3.537061
18.367319 -21.571585 3.6082885
15.387788 -8.0002937 2.208823
15.426645 -7.5534801 2.1876016
15.62604 -7.1890988 2.1906374
16.738266 -7.2167754 2.3214719
18.872349 20.36108 3.5357654
17.867172 20.234562 3.4379232
16.020132 20.010767 3.2646587
15.167476 19.911713 3.1878686
14.429028 19.921534 3.1327877
13.316441 20.38777 3.1013658
13.280454 22.648476 3.3438101
13.319448 25.45414 3.6588244
5.7360787 16.353912 2.2072213
5.3464403 16.50775 2.2099264
0.3928076 16.564726 2.1102617
-0.0069091795 16.569971 2.1103346
-0.40688965 16.575205 2.1116378
-2.0187354 16.59622 2.1292574
-2.8386426 16.606855 2.1457093
-3.2538524 16.612226 2.1559222
-3.6732714 16.617643 2.1674981
-4.0974655 16.623112 2.1804705
-4.5270166 16.628645 2.1948876
-5.8540235 16.645668 2.2472572
-8.7475977 16.683168 2.3991175
-9.2712307 16.690029 2.4315667
-9.8095751 16.697083 2.4663663
-10.363857 16.704346 2.5036504
-10.935503 16.711838 2.5435843
-11.526015 16.719578 2.5863402
-18.911512 -21.848396 3.0206804
-18.001938 -21.840857 2.9587152
-16.306929 -21.852028 2.8502388
-12.993501 -22.669172 2.7313986
-12.313916 -25.616659 2.9711564
-12.236035 -27.110826 3.1093099
-2.0218749 -7.7536168 0.83762801
-1.8436571 -7.8401294 0.84192383
-1.6652197 -7.9358354 0.84763896
-1.1954541 -7.4750543 0.79133439
-0.90638185 -8.1816406 0.86050045
-0.71255857 -8.2452269 0.86512756
7.6880808 -27.178083 2.9525638
7.6062841 -24.606396 2.6923213
7.9050145 -23.54421 2.5962155
8.2964211 -22.866411 2.542809
8.7264309 -22.354305 2.5085466
9.1915579 -21.966215 2.4891622
9.7057467 -21.708948 2.4858248
10.28271 -21.586306 2.4994643
10.919839 -21.567734 2.5270886
15.983374 -21.577271 2.8070102
16.802807 -21.575209 2.8586612
17.653461 -21.573072 2.9139698
19.460981 -21.569309 3.0368526
15.353149 -7.8929 1.804606
15.097915 -6.8622861 1.7336385
16.736332 -7.1249824 1.9014764
22.085571 19.821213 3.1021607
20.527203 20.29327 3.0173929
19.646635 20.38303 2.9593897
16.200932 20.428097 2.7254965
13.886802 20.380127 2.5779977
13.262358 21.637537 2.6529531
13.279526 22.886993 2.7660553
3.3145068 6.405683 0.75394619
3.1181786 6.3999491 0.74419904
2.9292529 6.399838 0.73575318
2.7531297 6.8731122 0.77397645
2.2425048 6.4888515 0.71767455
2.0686376 6.4887505 0.71193618
1.897456 6.4886527 0.70669597
1.7286377 6.488555 0.70193785
1.2343115 6.4882746 0.69041336
1.0728173 6.4881816 0.68744934
0.59523922 6.4879141 0.68106049
0.43770996 6.4878263 0.67974502
-0.032514647 6.4875665 0.67818391
-0.34585938 6.4873953 0.67912018
-0.66080564 6.4872246 0.68164915
-0.81935054 6.4871392 0.68351823
-1.1395264 6.486968 0.68849593
-1.6305419 6.4867072 0.6991806
-1.93979 6.3948174 0.69855785
-2.1095068 6.3947282 0.70390439
-2.2819433 6.394639 0.7097491
-2.4604149 6.4024758 0.71699905
-2.6706102 6.4782367 0.73248714
-2.8552928 6.4781399 0.74005097
-8.8469677 16.685911 1.9742702
-9.9142818 16.69928 2.0301294
-11.046465 16.713461 2.0942612
-18.499531 -6.5465708 2.0513654
-19.213736 -7.8614488 2.1701288
-18.055223 -7.9011054 2.0602109
-18.733803 -8.7424164 2.1610827
-17.633207 -8.7528753 2.057888
-20.282562 -21.852156 3.1166515
-18.396645 -21.845205 2.9854739
-17.502348 -21.831158 2.9249852
-15.874263 -21.885044 2.8261962
-15.131176 -21.956167 2.7874322
-14.417759 -22.040554 2.7531793
-12.468447 -23.787817 2.8075418
-2.5215967 -7.1733732 0.7948491
-2.3899853 -7.3619933 0.80912369
-2.2379835 -7.5056748 0.81874156
-2.0973926 -7.7085814 0.8351115
-1.5598437 -7.9697385 0.84892392
-1.2955908 -7.5861735 0.80450225
-1.0717285 -7.3380003 0.77521664
-0.99067378 -8.154089 0.8586551
-0.79771972 -8.2172604 0.8630293
7.7144971 -28.414696 3.0778623
7.7463326 -23.906008 2.6269355
8.1189499 -23.137003 2.5632141
9.462534 -21.779848 2.4823444
10.018999 -21.618233 2.4907618
10.637075 -21.572025 2.5142832
11.978023 -21.597992 2.581713
14.849995 -21.573395 2.7378104
17.276802 -21.574018 2.8892715
6.4641452 -7.6844091 1.0497077
19.052105 -21.570166 3.008456
14.826762 -8.2847223 1.7754632
14.959985 -7.8917871 1.7681026
15.3652 -7.637537 1.7936877
15.39517 -7.1946707 1.776402
16.611713 -7.2802329 1.8959533
21.500513 19.828861 3.0574527
21.039761 20.364811 3.060925
17.375492 20.412733 2.8022172
15.759028 20.43388 2.6975112
14.937553 20.366381 2.640249
14.201616 20.376005 2.5963202
13.271821 22.326818 2.7151511
13.289848 23.637306 2.8346963
13.309536 25.069427 2.9670653
2.8249266 6.3997769 0.73127562
5.9212351 16.564301 1.8388568
2.1444678 6.4887958 0.71438736
1.6347607 6.4885025 0.69947082
1.4692334 6.4884076 0.69543499
1.3055127 6.4883146 0.69184816
1.1433935 6.4882221 0.68869579
0.82306153 6.4880414 0.68366134
0.66445798 6.4879522 0.68176419
0.34942871 6.4877777 0.67918044
0.036049806 6.4876056 0.67819107
-0.43413085 6.4873481 0.67966962
-1.3932763 6.4868326 0.6935637
-1.5578662 6.4867449 0.69737136
-2.0348437 6.3947673 0.70150173
-2.2060547 6.3946781 0.70712537
-2.590874 6.4782767 0.72935498
-3.1518211 6.4779887 0.75307369
-8.6208496 16.683075 1.963044
-9.140913 16.689589 1.9891864
-9.6753321 16.696287 2.0172229
-10.22537 16.703176 2.0472708
-11.377817 16.717615 2.1139166
-18.157681 -8.2410202 2.0844591
-17.935112 -8.6677055 2.0823133
-19.735552 -21.849552 3.0778346
-18.79711 -21.847878 3.0128224
-17.020689 -21.830275 2.8936849
-15.453491 -21.924307 2.8039665
-14.727705 -22.003239 2.7678053
-13.441059 -22.341862 2.7255821
-12.382993 -24.424469 2.862606
-2.4482031 -7.2785082 0.80274826
-2.1596484 -7.6186533 0.82779586
-1.9998926 -7.7642789 0.83813125
-1.7967968 -7.7446485 0.83108932
-1.3991699 -7.7012262 0.81822705
-1.1677442 -7.4443479 0.78771132
-0.88247555 -8.1894703 0.86104244
7.6753955 -26.826931 2.9168751
7.6358542 -24.442978 2.6769259
8.780776 -22.296553 2.5049987
9.2514305 -21.925035 2.4876125
10.360502 -21.583172 2.5026772
11.002778 -21.571308 2.5313501
11.680962 -21.597281 2.5667288
17.761127 -21.572802 2.9210875
18.650757 -21.571005 2.9809158
14.492133 -7.8418584 1.7225051
15.352143 -7.8344626 1.8017287
15.381938 -7.3875566 1.7837847
21.955219 19.822918 3.0921512
20.931948 19.836298 3.0145679
18.619701 20.39646 2.8869634
13.248432 20.623425 2.5623796
3.0945458 6.3999348 0.74311918
2.9061573 6.3998246 0.73475003
1.7078955 6.488543 0.70138121
1.5415088 6.4884491 0.69714737
0.73383301 6.4879913 0.68254483
0.57569826 6.4879031 0.68087524
0.26127928 6.4877286 0.67874223
-0.051894531 6.4875565 0.67819595
-0.20848145 6.4874701 0.67851669
-0.52255368 6.4873004 0.6803444
-0.68040037 6.4872136 0.68185836
-1.1595117 6.4869571 0.68885952
-1.3217285 6.4868708 0.6920352
-1.6511669 6.4866962 0.69970745
-1.9606787 6.394805 0.69919461
-2.130703 6.3947186 0.70459962
-2.3035059 6.394628 0.71050811
-2.693296 6.4782243 0.73339295
-3.0676024 6.4780326 0.74926692
-9.4393749 16.693333 2.0046997
-10.541762 16.707138 2.0650842
-18.583481 -6.6388168 2.0628631
-19.036469 -7.3231421 2.1321421
-17.880903 -7.8885665 2.0430017
-18.43545 -8.6703815 2.1296465
-20.16103 -21.851843 3.1079977
-15.779799 -21.89225 2.8210046
-15.04102 -21.965517 2.7829018
-12.723046 -23.073999 2.754425
-12.347768 -25.196184 2.9331627
-12.248969 -26.599899 3.0612752
-2.3733642 -7.3858542 0.81096357
-2.2208643 -7.5303512 0.82070613
-2.0775146 -7.7266488 0.83639312
-1.8998339 -7.8128381 0.84051555
-1.7240088 -7.9169512 0.84699416
-1.2669336 -7.5543437 0.80072248
-0.77367187 -8.2251539 0.86361206
-0.57839352 -8.2893782 0.86863768
7.7068014 -28.05443 3.0413177
7.5970459 -25.253357 2.7567275
7.7915869 -23.802839 2.6181469
8.1694183 -23.060055 2.5573809
8.587925 -22.501482 2.5176883
9.5311079 -21.759521 2.4832735
12.744496 -21.579042 2.6197984
14.188666 -21.575171 2.6993639
14.945053 -21.573141 2.7434325
16.542114 -21.575863 2.8420508
17.3827 -21.573751 2.8961775
18.256351 -21.571558 2.9541788
20.116987 -21.567936 3.0831041
14.876235 -8.2541161 1.7784268
15.368892 -7.582191 1.7914666
16.64687 -7.2364111 1.897488
21.373774 19.830519 3.0478506
20.915991 20.366428 3.0517626
19.918226 20.353771 2.9769771
18.055874 20.32559 2.8420117
16.452026 20.424812 2.741612
14.845043 20.36759 2.6346438
14.112123 20.37718 2.5910807
13.402632 20.386459 2.5503933
13.257251 21.265707 2.6196091
13.292192 23.807783 2.850363
3.3763232 6.4057183 0.75694168
2.9881396 6.3998737 0.73833907
6.3171825 16.55912 1.8526931
2.1229737 6.4887824 0.71368438
1.9509618 6.4886847 0.70828915
1.4488721 6.4883952 0.69496763
