# .PCD v0.7 - Point Cloud Data file format
VERSION 0.7
FIELDS x y z
SIZE 4 4 4
TYPE F F F
COUNT 1 1 1
WIDTH 1496
HEIGHT 1
VIEWPOINT 0 0 0 1 0 0 0
POINTS 1496
DATA ascii
18.106592 -6.5241995 -1.9024154
18.271494 -6.0896826 -1.9037449
20.165478 -5.6559215 -2.0702057
20.553965 -4.1891527 -2.0734558
20.657969 -3.6935894 -2.0743532
20.827305 -2.6946807 -2.0758657
20.98329 -1.1821002 -2.0774167
21.008984 -0.67557555 -2.0777407
21.021435 -0.16858397 -2.0779674
21.020721 0.33869568 -2.0780973
21.006748 0.84579772 -2.0781295
20.979549 1.3523523 -2.0780642
20.93919 1.8580176 -2.0779018
20.739305 3.3659105 -2.0768321
20.646582 3.8642981 -2.0762823
18.80415 4.468071 -1.9104774
18.550917 5.3654504 -1.9088523
18.406973 5.8086095 -1.9079107
15.185156 6.4595675 -1.6311646
14.023896 6.3694444 -1.522495
11.854018 6.4562035 -1.3342491
11.203349 6.4570932 -1.2781799
10.604917 6.4579124 -1.227326
10.051885 6.4586668 -1.1810195
8.941865 6.3751488 -1.0855125
8.1937304 6.4599533 -1.0313655
6.7425289 6.4619236 -0.92313522
6.122705 6.4627609 -0.87998414
5.5569725 6.4635253 -0.8425597
5.2914696 6.4638829 -0.82571763
4.5532179 6.4648752 -0.78161567
4.3238964 6.4651828 -0.76881069
4.1018357 6.4654794 -0.75685424
3.6296093 6.3823242 -0.72575271
3.2830908 6.4820628 -0.71822494
3.0890038 6.4823203 -0.709786
2.7136817 6.4828172 -0.69468045
-12.365596 6.1788559 -1.6815014
-12.502954 5.8748789 -1.6804096
-12.633213 5.5680442 -1.6793689
-12.756376 5.2585192 -1.6783799
-13.352802 4.4044127 -1.7103362
-14.405122 3.9921923 -1.8183109
-14.491445 3.6419995 -1.8175822
-14.70208 2.5817332 -1.8157495
-14.801958 1.868518 -1.8148243
-14.903832 0.4330664 -1.8136921
-14.908833 0.073332518 -1.8135595
-14.905659 -0.28639343 -1.8134872
-14.894316 -0.64594418 -1.8134749
-14.874789 -1.005155 -1.8135229
-14.847104 -1.3638355 -1.8136313
-14.811264 -1.7218292 -1.8137997
-14.767261 -2.0789614 -1.8140284
-14.654897 -2.7899029 -1.8146663
-14.510278 -3.4953358 -1.8155428
-14.425913 -3.8455377 -1.8160706
-14.125053 -4.884059 -1.8180085
-14.008969 -5.2256308 -1.818772
-13.885093 -5.5646276 -1.8195937
-13.250175 -6.0675797 -1.7727293
-12.47835 -6.0825229 -1.6886151
-12.108144 -6.6432848 -1.6799817
-11.951978 -6.9379215 -1.6810528
-11.619189 -7.5166721 -1.6833482
-11.442768 -7.8005023 -1.6845711
-11.259727 -8.08041 -1.6858439
-11.070151 -8.3562756 -1.687166
-10.671753 -8.8952742 -1.689955
-10.463096 -9.1581068 -1.6914207
-10.248227 -9.4162989 -1.6929336
-10.390849 -11.0362 -1.8438565
-9.8662348 -11.54791 -1.8475817
-9.0340815 -12.270539 -1.8535146
-8.7451363 -12.498859 -1.8555806
-8.4506149 -12.72066 -1.8576895
-8.1506538 -12.93581 -1.85984
-7.5350094 -13.345613 -1.8642625
-5.5727782 -14.401699 -1.8784246
-5.2305079 -14.551126 -1.8809042
-2.554004 -7.6826053 -0.98481154
-2.3786082 -7.7769828 -0.98926425
-4.1812449 -14.951634 -1.8885207
-3.4646289 -15.177732 -1.8937354
-3.1017237 -15.278205 -1.8963799
-2.7360449 -15.370188 -1.899047
-1.2491796 -15.651411 -1.9099166
-0.49410644 -15.738909 -1.9154512
1.4140821 -15.798843 -1.9294809
2.1809814 -15.758284 -1.9351366
2.5643065 -15.724036 -1.9379672
3.3295751 -15.627542 -1.9436258
4.0914259 -15.493554 -1.9492692
4.4705124 -15.412543 -1.9520812
4.8480272 -15.322159 -1.9548839
5.2180128 -15.205639 -1.955519
5.5495801 -14.984126 -1.9436859
5.834199 -14.656722 -1.9189239
6.1773777 -14.491141 -1.9162058
7.2542772 -14.093769 -1.928161
7.6084518 -13.944362 -1.9322826
7.9599023 -13.786555 -1.9364691
8.308423 -13.620316 -1.9407198
8.9958887 -13.262746 -1.9494048
5.8053513 -7.7282224 -1.1757632
10.000171 -12.664207 -1.9628648
10.326928 -12.448296 -1.9674587
10.64935 -12.224284 -1.9721029
10.967226 -11.992253 -1.976795
11.280336 -11.752252 -1.9815326
11.891514 -11.248644 -1.9911366
12.48122 -10.714133 -2.000896
12.767475 -10.435525 -2.0058272
12.284892 -9.0889511 -1.8588805
12.732666 -8.5014992 -1.8623328
13.150801 -7.8910632 -1.8655733
13.719677 -6.9356933 -1.870015
14.550038 -6.0775414 -1.9180827
16.025112 -4.9422302 -2.0399196
16.260317 -4.1673684 -2.0418572
16.363018 -3.7754149 -2.0427177
16.455698 -3.3808103 -2.043505
16.610624 -2.5847356 -2.0448573
16.724569 -1.7813205 -2.0459099
16.766045 -1.3775457 -2.0463228
16.8179 -0.56728208 -2.0469203
16.828203 -0.16135742 -2.0471044
16.828085 0.24473876 -2.0472116
16.817509 0.65069699 -2.0472417
16.796553 1.0562572 -2.0471954
16.723392 1.8650317 -2.0468724
16.671259 2.2676752 -2.0465958
16.608852 2.6687944 -2.0462434
16.536158 3.0681157 -2.0458145
16.45326 3.465354 -2.0453103
16.360214 3.8602331 -2.0447304
15.30747 4.4013124 -1.9374691
14.629238 4.9820347 -1.879884
14.498027 5.3310752 -1.879011
11.243608 6.4567685 -1.5771669
10.641953 6.4576011 -1.5141913
10.086191 6.4583716 -1.456867
9.5706739 6.4590831 -1.4045148
8.9712305 6.3748813 -1.3387347
8.5447798 6.3876219 -1.2977234
7.8243847 6.4602451 -1.2342623
7.0983005 6.4612427 -1.1675924
6.7635202 6.4617004 -1.1378448
5.851953 6.4629455 -1.0605525
5.5744824 6.463325 -1.0382341
4.8060155 6.4643674 -0.97984403
4.3384619 6.4650011 -0.94707519
4.115962 6.4653015 -0.93229514
3.6427684 6.3821554 -0.89389241
3.2957909 6.4818954 -0.8845368
3.1014209 6.4821544 -0.87410229
2.5433984 6.4829001 -0.84710705
2.1889844 6.4833703 -0.83238387
2.0161474 6.4835973 -0.82592541
1.8458788 6.4838233 -0.82003891
1.6779199 6.4840441 -0.81470841
1.1855907 6.4846911 -0.80188102
0.86481446 6.4851098 -0.79584008
0.7060498 6.4853172 -0.79354292
0.54810059 6.4855223 -0.79171932
0.39079589 6.4857264 -0.79036278
0.23393066 6.485929 -0.78946936
-0.23582031 6.4865341 -0.78955138
-0.39272949 6.4867358 -0.79049963
-0.70813477 6.4871411 -0.7937907
-1.0269287 6.4875464 -0.79897809
-1.3506787 6.4879565 -0.80612332
-1.4953516 6.4043579 -0.79998779
-1.8253661 6.4047751 -0.81010932
-2.1298339 6.3021421 -0.80919784
-2.2993066 6.2983398 -0.81559658
-2.4584472 6.2610021 -0.81820691
-2.6328759 6.2570887 -0.82576001
-2.8256884 6.2865319 -0.83840132
-3.0081103 6.2824388 -0.84729141
-3.1945457 6.2782555 -0.85687453
-3.3853564 6.2739735 -0.86718917
-3.5809374 6.2695861 -0.87827206
-3.7615967 6.2317638 -0.88543409
-4.6215329 6.2124696 -0.94186515
-4.854619 6.2072387 -0.95855606
-5.1235056 6.2349753 -0.98164982
-5.6383643 6.2234216 -1.0215161
-5.8974657 6.2018652 -1.0410364
-6.8120556 6.1970849 -1.1202124
-7.4916162 6.1818357 -1.1814853
-8.2077637 6.1319957 -1.2462733
-8.6216164 6.1227088 -1.2862974
-9.1116648 6.1454797 -1.3368922
-10.097705 6.1233521 -1.4365011
-10.591972 6.0784898 -1.485513
-11.245366 6.0975976 -1.556057
-12.583667 5.6871142 -1.6797655
-12.70957 5.3786058 -1.6787565
-12.828325 5.0675082 -1.6777995
-14.001094 4.3897104 -1.784862
-14.458984 3.7777417 -1.8178573
-14.54038 3.4264624 -1.8171648
-14.61372 3.0735638 -1.8165308
-14.678984 2.7192059 -1.8159561
-14.736133 2.3635602 -1.8154407
-14.785175 2.0068219 -1.8149847
-14.858769 1.2907116 -1.8142523
-14.883301 0.93167663 -1.813976
-14.907876 -0.14720702 -1.8135079
-14.88334 -0.86620176 -1.8134969
-14.826098 -1.5833977 -1.8137274
-14.785229 -1.9408777 -1.813933
-14.736264 -2.297374 -1.8141984
-14.614003 -3.0067821 -1.8149095
-14.540761 -3.3593411 -1.8153547
-14.459492 -3.7102344 -1.8158593
-14.370234 -4.0592923 -1.8164234
-13.933949 -5.4337606 -1.8192687
-13.569868 -6.0613437 -1.8078471
-12.768228 -6.076931 -1.7200876
-12.313417 -6.229207 -1.678581
-12.166767 -6.5283794 -1.6795808
-12.013212 -6.8243079 -1.6806322
-11.852841 -7.1168466 -1.6817349
-11.331338 -7.9725652 -1.6853455
-11.144287 -8.2500114 -1.6866485
-10.950751 -8.523324 -1.6880003
-10.750825 -8.7923574 -1.6894003
-10.54458 -9.0569363 -1.6908479
-10.739892 -10.668009 -1.8413852
-10.2327 -11.195514 -1.8449783
-9.9696627 -11.450715 -1.8468462
-9.7005415 -11.700065 -1.848761
-9.1443748 -12.180481 -1.8527267
-8.5652294 -12.635621 -1.8568684
-8.2673826 -12.853364 -1.8590028
-7.6557126 -13.268489 -1.8633946
-7.0237889 -13.655611 -1.8679429
-6.3728418 -14.013696 -1.8726389
-6.040493 -14.181514 -1.8750405
-5.7040086 -14.34176 -1.8774747
-5.3633738 -14.49423 -1.8799413
-2.621206 -7.6454968 -0.98315048
-2.4469287 -7.7411761 -0.98757237
-4.3183985 -14.90407 -1.8875239
-3.2424901 -15.240333 -1.8953538
-1.7686719 -15.569772 -1.9061145
0.11899902 -15.78323 -1.9199522
0.50051755 -15.798796 -1.9227563
0.88284177 -15.805209 -1.9255688
1.2657909 -15.802424 -1.9283884
2.032583 -15.769036 -1.9340414
3.1817088 -15.649114 -1.9425317
3.5635448 -15.590451 -1.9453579
5.0778122 -15.259779 -1.9562962
6.0370703 -14.536822 -1.91471
6.7589011 -14.286968 -1.9225562
7.8242283 -13.848634 -1.9348413
8.5205173 -13.514262 -1.9433562
8.8639307 -13.334534 -1.9477057
9.8725929 -12.745558 -1.9611011
10.200967 -12.532811 -1.9656748
11.469883 -11.601196 -1.9844592
12.074619 -11.088061 -1.9941124
12.657397 -10.544218 -2.0039153
11.9577 -9.4820957 -1.8563675
12.194961 -9.1998482 -1.858189
12.864028 -8.3167572 -1.863349
13.650356 -7.0614548 -1.8694712
13.827011 -6.7350297 -1.8708584
14.190859 -6.0837464 -1.8781434
15.151435 -6.0670938 -1.9853145
15.839013 -5.471633 -2.038409
15.975093 -5.0906401 -2.0395119
16.10141 -4.7060909 -2.040544
16.217896 -4.3182588 -2.0415049
16.324453 -3.927402 -2.0423932
16.421034 -3.533797 -2.0432091
16.583828 -2.7394006 -2.0446188
16.705727 -1.9372244 -2.0457299
16.751245 -1.5339166 -2.0461721
16.786371 -1.1295147 -2.0465386
16.811142 -0.72426695 -2.0468287
16.829374 0.087595209 -2.047179
16.805899 0.89939451 -2.0472226
16.778564 1.3045502 -2.0471292
16.740801 1.7088604 -2.0469589
16.692675 2.1120331 -2.0467119
16.486553 3.3119135 -2.0455146
16.397417 3.707716 -2.0449636
16.298193 4.1010203 -2.044338
14.267827 5.8863392 -1.8774645
14.113813 6.22542 -1.8764212
13.782148 6.8916039 -1.8743932
10.868999 6.4572873 -1.5378507
9.1506443 6.3746338 -1.3565646
8.6980953 6.3765025 -1.3119078
7.5931344 6.4605637 -1.2127295
7.2326169 6.4610572 -1.17971
6.8910398 6.4615269 -1.1490967
6.2575145 6.4623938 -1.0942268
5.1502781 6.463901 -1.0053476
4.6592822 6.4645667 -0.96931905
4.2012253 6.4651866 -0.93789405
3.7221484 6.3820481 -0.89870656
3.1760838 6.4820542 -0.87804937
2.7970507 6.4825621 -0.85881835
2.6134765 6.4828062 -0.85024613
2.4334276 6.4830456 -0.84232974
2.08271 6.4835095 -0.82835472
1.7426562 6.4839597 -0.81670594
1.4112744 6.4843955 -0.80723524
1.2482568 6.4846091 -0.80327678
1.0867382 6.4848194 -0.79982156
0.9265039 6.4850292 -0.79685754
0.76737791 6.4852366 -0.79437512
0.60913575 6.4854431 -0.79236901
0.29458007 6.4858508 -0.78976089
-0.018632812 6.4862561 -0.78899968
-0.17518555 6.4864559 -0.78930771
-0.64689451 6.4870615 -0.79300803
-0.96490723 6.4874668 -0.79782414
-1.1255566 6.4876709 -0.80095679
-1.2875732 6.4878759 -0.8045845
-1.5956396 6.4044847 -0.80286461
-2.233413 6.2998204 -0.81305283
-2.5649951 6.2586107 -0.82276464
-3.1218944 6.2798862 -0.85308087
-3.8867528 6.2289562 -0.89310598
-4.1176267 6.257544 -0.91118962
-4.3341651 6.2526865 -0.92544419
-4.5577245 6.2476697 -0.94070858
-4.7634473 6.2092857 -0.95196271
-5.0016894 6.203939 -0.96936697
-5.2770066 6.2315307 -0.9932884
-6.6885595 6.1998572 -1.1093761
-6.9754686 6.1596484 -1.1319736
-8.0974798 6.1682396 -1.2382141
-10.430317 6.1158886 -1.4707854
-11.574863 6.0564342 -1.5890772
-12.397261 6.1104074 -1.6812501
-12.533012 5.8057675 -1.6801698
-12.783222 5.1881833 -1.6781635
-13.585468 4.3991427 -1.7370393
-14.425332 3.9131873 -1.8181411
-14.586293 3.2102959 -1.816769
-14.654692 2.856499 -1.8161715
-14.714975 2.5013378 -1.8156332
-14.767168 2.1449964 -1.8151541
-14.874804 1.0706629 -1.8140757
-14.894316 0.71136838 -1.8138363
-14.908837 -0.0079882806 -1.8135378
-14.903823 -0.36769652 -1.8134789
-14.869238 -1.0862957 -1.8135421
-14.839711 -1.444826 -1.8136641
-14.702231 -2.5153775 -1.814391
-14.640181 -2.8699527 -1.8147532
-14.570064 -3.2230978 -1.8151753
-14.405732 -3.9244423 -1.8161981
-14.099497 -4.9614954 -1.818176
-13.855996 -5.6408849 -1.8197874
-13.722636 -5.9764881 -1.8206798
-12.073457 -6.7101746 -1.6802192
-11.751162 -7.2944336 -1.682436
-11.579897 -7.581182 -1.6836202
-10.828945 -8.6887655 -1.6888528
-10.332808 -11.095194 -1.844268
-10.072187 -11.352657 -1.8461179
-9.8053999 -11.604291 -1.8480145
-9.2538328 -12.089456 -1.8519453
-8.3832569 -12.769885 -1.8581719
-8.0820942 -12.98351 -1.860332
-7.7756739 -13.190336 -1.8625323
-7.4641356 -13.390181 -1.8647723
-6.8262353 -13.76852 -1.869367
-4.1008787 -14.978849 -1.8891052
-3.7434423 -15.094189 -1.8917054
-2.6529932 -15.389782 -1.8996533
-2.284121 -15.471223 -1.9023466
-1.9129003 -15.543991 -1.9050598
-1.1641552 -15.663066 -1.9105394
0.35276365 -15.793838 -1.9216701
0.73480958 -15.803818 -1.9244796
1.8841991 -15.778384 -1.9329467
2.6509082 -15.715016 -1.938607
3.0337403 -15.669313 -1.941437
3.7971387 -15.549846 -1.9470881
4.1772509 -15.476077 -1.9499056
4.933115 -15.300439 -1.9555162
5.2967868 -15.165315 -1.9540172
5.6181054 -14.918769 -1.9391557
6.2591991 -14.463859 -1.9170846
6.6198974 -14.337976 -1.9210159
6.9784274 -14.203592 -1.9250172
7.3345604 -14.060749 -1.9290866
8.7314453 -13.405075 -1.9460156
9.0727148 -13.220232 -1.9504014
9.7444086 -12.82571 -1.9593451
10.074385 -12.616116 -1.9638985
11.65748 -11.447219 -1.9874009
11.959277 -11.189756 -1.9922324
12.255669 -10.924583 -1.9971023
12.831343 -10.371518 -2.0069463
12.10395 -9.3098202 -1.8574899
12.562812 -8.7316389 -1.8610214
12.781416 -8.4336348 -1.8627098
12.992578 -8.1299191 -1.8643451
13.196128 -7.820682 -1.8659256
13.579804 -7.1864758 -1.8689185
14.094522 -6.1988945 -1.8729703
15.634433 -5.9937425 -2.0367639
15.783779 -5.6180749 -2.0379632
15.923559 -5.238512 -2.0390933
16.053658 -4.8553114 -2.0401528
16.173988 -4.4687214 -2.0411415
16.284384 -4.079 -2.042058
16.384857 -3.6864238 -2.042902
16.555473 -2.893806 -2.044369
16.734858 -1.6901605 -2.04601
16.774004 -1.2861371 -2.0464058
16.829071 -0.069558717 -2.0471349
16.790365 1.1478583 -2.0471742
16.712519 1.9561456 -2.0468166
16.658072 2.358479 -2.0465231
16.518301 3.1580901 -2.045707
16.433119 3.5548217 -2.0451858
16.337803 3.9491343 -2.0445893
14.724628 4.7095494 -1.8805134
14.467138 5.4094858 -1.8788046
13.848555 6.7638817 -1.8747526
12.445493 6.4551024 -1.7054074
11.103271 6.456964 -1.5623965
10.512519 6.4577808 -1.5007647
9.9663038 6.4585376 -1.4446183
8.8685646 6.3750219 -1.3285894
7.3697901 6.4608688 -1.1921909
6.3753562 6.4622326 -1.1042323
5.7881885 6.4630322 -1.0553694
5.5133543 6.463407 -1.0334009
4.9959278 6.4641113 -0.99377412
4.7515526 6.4644418 -0.97591251
4.2875538 6.4650693 -0.94364613
3.811621 6.3974204 -0.90584636
3.3966992 6.3824863 -0.87947279
3.2514403 6.4819541 -0.88211101
2.8690965 6.4824657 -0.86231685
2.6840723 6.4827123 -0.8534838
2.5027149 6.482954 -0.84531814
2.3246777 6.4831905 -0.83778858
2.1496825 6.4834213 -0.83087331
1.9774511 6.4836483 -0.82454532
1.6402539 6.4840927 -0.81357819
1.4748046 6.4843116 -0.80890393
1.3111572 6.4845262 -0.80474895
0.98837888 6.4849472 -0.79794645
0.82883787 6.4851575 -0.79527998
0.51249999 6.4855676 -0.79137236
0.19851074 6.4859738 -0.78933197
-0.11458496 6.4863791 -0.78913486
-0.42825195 6.4867821 -0.79077798
-0.90307128 6.4873877 -0.79674309
-1.696665 6.4046116 -0.80594045
-1.8632079 6.4048214 -0.81138825
-2.4975977 6.2601233 -0.81986076
-3.2372899 6.2772961 -0.85914183
-3.4291503 6.2729917 -0.86962628
-4.9084668 6.2060313 -0.96249157
-6.8853221 6.1954417 -1.1266867
-7.181582 6.1550241 -1.1505235
-8.299057 6.1299472 -1.2550386
-8.7655268 6.1532483 -1.3027397
-9.1881399 6.1243968 -1.3431904
-9.6991796 6.1322961 -1.3958569
-10.218559 6.1206408 -1.4489206
-11.387285 6.0944128 -1.5710717
-12.481313 5.9240003 -1.6805818
-12.612734 5.6176109 -1.6795329
-12.73705 5.308507 -1.6785356
-12.854175 4.9968309 -1.6775905
-12.964091 4.6827369 -1.6766976
-14.390478 4.0483532 -1.8184336
-14.478106 3.6984668 -1.8176954
-14.55768 3.3468351 -1.8170161
-14.629199 2.9935901 -1.8163955
-14.747934 2.2830255 -1.8153324
-14.795116 1.9260504 -1.8148899
-14.83415 1.5681775 -1.8145074
-14.887724 0.85045224 -1.8139219
-14.906738 -0.22852844 -1.8134946
-14.878496 -0.94736934 -1.813511
-14.852114 -1.3061529 -1.8136097
-14.817558 -1.6642675 -1.8137686
-14.774868 -2.0215478 -1.8139877
-14.665161 -2.7328994 -1.8146058
-14.598145 -3.0866246 -1.8150048
-14.44002 -3.7893147 -1.8159817
-14.028178 -5.1708207 -1.8186452
-13.381616 -6.0650187 -1.7871499
-12.280864 -6.2971115 -1.6788026
-11.977553 -6.8907418 -1.6808771
-11.815649 -7.1824894 -1.6819912
-11.289624 -8.0356216 -1.6856358
-10.704761 -8.8525543 -1.6897234
-10.283227 -9.3750763 -1.6926869
-10.683867 -10.728762 -1.8417816
-9.3623781 -11.997482 -1.8511708
-9.0800734 -12.233203 -1.853186
-8.7920113 -12.46256 -1.8552451
-8.498374 -12.685412 -1.8573472
-6.9511571 -13.697571 -1.8684663
-6.2981248 -14.052304 -1.8731787
-5.964829 -14.21842 -1.8755877
-5.6273727 -14.37689 -1.8780295
-2.5819824 -7.6671576 -0.9841103
-2.4070458 -7.7620797 -0.98854911
-4.2383299 -14.931985 -1.8881059
-3.8821385 -15.050542 -1.8906962
-3.5227294 -15.160771 -1.8933123
-2.4271533 -15.440752 -1.901302
-2.0568504 -15.51686 -1.9040073
-1.6842675 -15.58424 -1.9067318
-1.3096386 -15.6428 -1.9094738
-0.55508786 -15.7332 -1.9150038
-0.17557128 -15.764903 -1.9177889
0.20515625 -15.787538 -1.9205853
0.58688474 -15.801045 -1.9233916
0.96938473 -15.805386 -1.9262058
1.3524365 -15.800508 -1.9290267
1.7358105 -15.786349 -1.9318522
2.1192627 -15.762946 -1.9346811
2.5026317 -15.730181 -1.9375116
2.8856397 -15.6881 -1.9403421
3.2680907 -15.63668 -1.9431708
3.6497264 -15.57589 -1.945996
4.4096093 -15.426226 -1.9516293
4.7873926 -15.337322 -1.9544337
7.5516357 -13.968987 -1.9316146
7.9035449 -13.812523 -1.9357911
8.2525434 -13.647624 -1.9400316
8.5984564 -13.47436 -1.9443344
8.9410744 -13.292731 -1.9486974
9.2802143 -13.102801 -1.9531192
5.769238 -7.742559 -1.1745278
10.27461 -12.48359 -1.9667158
10.597758 -12.260881 -1.9713522
11.230288 -11.791408 -1.9807674
12.141625 -11.028108 -1.9952133
12.476259 -8.8453951 -1.8603539
13.317095 -7.6284771 -1.8668672
14.398862 -6.0801563 -1.9012549
15.383965 -6.0630364 -2.011415
15.870615 -5.3858423 -2.0386643
16.004498 -5.0040231 -2.0397515
16.128593 -4.6187086 -2.0407674
16.242817 -4.2301559 -2.0417118
16.441469 -3.4444759 -2.0433834
16.525639 -3.0478525 -2.0441084
16.599657 -2.6490784 -2.0447595
16.663422 -2.2484207 -2.0453355
16.716919 -1.8461621 -2.0458364
16.792885 -1.0379852 -2.0466106
16.815254 -0.63258421 -2.0468836
16.827246 -0.22670287 -2.0470798
16.770922 1.3960394 -2.0470974
16.73081 1.8001165 -2.0469098
16.680361 2.2029908 -2.0466456
16.619579 2.6043811 -2.0463052
16.274389 4.1895423 -2.0441866
15.519292 4.3970337 -1.9621005
14.649507 4.9255433 -1.880018
14.519726 5.2751474 -1.8791559
14.381123 5.6211681 -1.8782278
14.233784 5.9633617 -1.8772345
13.742768 6.9658813 -1.8741785
12.008647 6.455708 -1.6584516
11.345181 6.4566283 -1.5878838
10.172764 6.4582505 -1.4657413
9.6511135 6.458972 -1.4126261
8.5995016 6.3766379 -1.3022654
8.2858105 6.4596105 -1.2779982
7.5098729 6.4606771 -1.2050416
6.4953756 6.4620676 -1.1145198
6.1896729 6.4624863 -1.0885099
5.8977389 6.462883 -1.0642921
5.6183395 6.463264 -1.0417205
5.35041 6.4636288 -1.0206691
4.6059618 6.4646387 -0.9655484
4.3749218 6.4649525 -0.9495489
3.8929589 6.3973107 -0.91093653
3.4735155 6.3823829 -0.88389343
3.3041992 6.4364586 -0.88007993
3.1323876 6.4821129 -0.8757298
2.9417479 6.4823666 -0.8659209
2.3931885 6.483098 -0.84062791
2.217041 6.4833322 -0.83347702
2.0437744 6.483562 -0.82692498
1.374292 6.4844446 -0.80629575
1.2116259 6.4846568 -0.8024528
1.050415 6.484868 -0.79910958
0.57346678 6.4854879 -0.79198134
0.41606444 6.485693 -0.79054922
0.10250977 6.4860983 -0.7890749
-0.054003906 6.4863009 -0.78902858
-0.2105957 6.4865012 -0.78944212
-1.4691503 6.404325 -0.79926586
-1.6328125 6.404531 -0.80397397
-1.93625 6.3064857 -0.80247468
-2.4306688 6.2616248 -0.81704938
-2.6045849 6.2577233 -0.8245036
-2.7966845 6.2871823 -0.83703339
-2.9784961 6.283103 -0.84581494
-3.1642625 6.2789354 -0.85528427
-3.3543553 6.2746701 -0.86548024
-3.5491455 6.2703004 -0.87643546
-3.7291014 6.2324924 -0.88347596
-3.9334569 6.2279077 -0.89601958
-4.8165526 6.2080932 -0.9557938
-5.0837936 6.2358651 -0.97867352
-5.3345408 6.2302403 -0.99770558
-5.5953956 6.2243872 -1.0180982
-6.1185594 6.1788778 -1.0577592
-6.4485397 6.2052426 -1.0885974
-7.0506835 6.1579614 -1.1387187
-7.4341698 6.183125 -1.1762047
-7.7996678 6.1749244 -1.2101015
-8.1870899 6.1662292 -1.2467558
-8.553237 6.1242433 -1.2796338
-9.4576559 6.1039462 -1.3692464
-12.428559 6.0417991 -1.6810015
-12.689799 5.4284449 -1.6789154
-14.354438 4.1832533 -1.8187349
-14.445161 3.8340869 -1.8179742
-14.527832 3.4830823 -1.8172719
-14.60248 3.13044 -1.8166287
-14.727495 2.420893 -1.8155196
-14.777822 2.0643139 -1.8150542
-14.897602 0.6300897 -1.8137906
-14.908422 -0.089318849 -1.8135192
-14.901557 -0.44899353 -1.8134741
-14.863291 -1.1673785 -1.8135644
-14.744697 -2.2400789 -1.8141515
-14.625039 -2.9499087 -1.8148434
-14.553101 -3.3027229 -1.8152789
-14.185303 -4.6958847 -1.8176152
-14.073535 -5.0388031 -1.8183465
-13.95393 -5.3792124 -1.8191363
-13.826509 -5.7169809 -1.8199842
-13.691367 -6.0519357 -1.8208898
-12.891957 -6.0745358 -1.7335659
-12.336367 -6.1807752 -1.678425
-12.038388 -6.7769113 -1.6804595
-11.540235 -7.6454735 -1.6838951
-10.982344 -8.4796209 -1.6877795
-10.783427 -8.7493467 -1.6891717
-10.578183 -9.0146685 -1.6906118
-10.366714 -9.2754259 -1.692099
-10.779599 -10.624613 -1.8411047
-10.53021 -10.892044 -1.842869
-10.012403 -11.410069 -1.8465426
-9.4700727 -11.904608 -1.8504028
-9.1899996 -12.142728 -1.8524009
-8.0132809 -13.030862 -1.8608259
-7.0753808 -13.625542 -1.8675711
-6.7529197 -13.809443 -1.8698957
-6.4258642 -13.986008 -1.8722559
-5.4184861 -14.47022 -1.8795422
-2.6490819 -7.6300969 -0.98248577
-2.47521 -7.7261167 -0.98686993
-4.0203662 -15.005659 -1.8896906
-3.6621873 -15.119121 -1.8922969
-3.3009131 -15.2242 -1.8949281
-2.9367332 -15.320847 -1.897583
-1.8286963 -15.559202 -1.9056754
0.057700194 -15.779856 -1.9195019
0.82127929 -15.804781 -1.9251158
1.2041454 -15.803478 -1.9279344
1.5874268 -15.792928 -1.9307584
1.9708886 -15.77311 -1.9335861
2.354326 -15.743969 -1.9364163
3.1201756 -15.657695 -1.9420763
3.5021434 -15.600525 -1.9449033
4.2629929 -15.458102 -1.9505416
5.0181346 -15.278234 -1.9561477
5.3735008 -15.11952 -1.9518635
5.6847167 -14.849553 -1.934159
6.7011423 -14.308339 -1.9219143
7.0591455 -14.172047 -1.9259311
7.7676854 -13.87408 -1.9341671
10.473232 -12.34804 -1.9695522
10.793628 -12.120393 -1.9742181
11.420302 -11.641152 -1.9836892
11.726152 -11.389699 -1.9884895
12.026748 -11.130491 -1.9933298
12.611362 -10.589089 -2.0031214
12.157241 -9.2456837 -1.8578991
12.388652 -8.9582376 -1.8596791
13.241084 -7.7500505 -1.8662753
13.621157 -7.1135263 -1.8692425
13.968877 -6.4575663 -1.8719766
14.130239 -6.122817 -1.8732535
15.81623 -5.5325823 -2.0382249
15.953837 -5.1522131 -2.0393391
16.081734 -4.7682123 -2.0403829
16.307987 -3.9905062 -2.0422552
16.406162 -3.5973189 -2.0430825
16.572206 -2.8036296 -2.0445163
16.697435 -2.0019987 -2.0456514
16.78142 -1.194638 -2.0464847
16.823847 -0.3838098 -2.0470128
16.829443 0.022230225 -2.0471623
16.824619 0.42830017 -2.0472348
16.701103 2.0472448 -2.0467567
16.644325 2.4492426 -2.0464461
16.499941 3.2479992 -2.0455959
16.314854 4.037899 -2.0444438
16.051279 4.3862596 -2.0240927
14.814653 4.4351368 -1.881103
14.697324 4.7893357 -1.8803338
14.291831 5.8314075 -1.8776267
12.281504 6.4553308 -1.6877403
10.965537 6.4571543 -1.5479475
10.385376 6.4579577 -1.48762
9.8484421 6.4586997 -1.4326205
9.3495216 6.4593897 -1.3823187
8.7674656 6.3751612 -1.3186231
8.0381489 6.4599509 -1.2544001
6.9447851 6.4614539 -1.1538676
6.6176367 6.4618993 -1.1250985
4.9399023 6.4641857 -0.98963058
4.697495 6.4645138 -0.97203976
4.463418 6.4648328 -0.95561165
3.3521924 6.3825464 -0.87694883
3.2073436 6.4820127 -0.87972456
3.0150146 6.4822702 -0.86963087
2.8269384 6.482522 -0.86026013
2.110503 6.4834738 -0.82939053
1.9388622 6.4836998 -0.82319397
1.769668 6.483923 -0.81756264
1.2743896 6.4845753 -0.80388045
0.95222163 6.4849963 -0.79730201
0.63454586 6.4854102 -0.79265958
0.47690916 6.4856138 -0.79104805
0.31982911 6.4858179 -0.78990161
0.1630957 6.4860206 -0.78921711
-0.46380371 6.4868274 -0.79107982
-0.62145507 6.4870286 -0.79270315
-0.77984864 6.4872313 -0.79479635
-0.93916988 6.4874339 -0.79736596
-1.2614013 6.487843 -0.80396712
-1.4247216 6.4880505 -0.80801839
-1.5692528 6.4044518 -0.80208999
-2.2061181 6.3004308 -0.81201994
-2.5369043 6.2592406 -0.8215456
-2.7128124 6.2552938 -0.82937956
-2.9076855 6.2846909 -0.84233546
-3.0918798 6.2805591 -0.85153526
-3.4731786 6.2720041 -0.8721028
-4.0834131 6.2583127 -0.90898681
-4.7258935 6.2101278 -0.94927025
-5.236362 6.2324424 -0.99018687
-5.7606788 6.2206774 -1.0313187
-6.0077438 6.1813645 -1.0485365
-6.2981739 6.1748471 -1.0729016
-6.9224606 6.1608386 -1.1272464
-8.0344143 6.1696558 -1.2322263
-8.8647804 6.1510205 -1.3124874
-9.272871 6.1080933 -1.3506883
-10.341479 6.1178818 -1.4615971
-12.374761 6.1591358 -1.6814288
-12.511636 5.8549938 -1.6803403
-12.879658 4.9260411 -1.677384
-13.419086 4.4029136 -1.7179399
-14.317192 4.3178439 -1.8190449
-14.410986 3.9694262 -1.8182616
-14.644238 2.9135187 -1.8162637
-14.70583 2.5585558 -1.8157156
-14.804663 1.8452374 -1.8147982
-14.841836 1.4871832 -1.8144293
-14.870889 1.1284558 -1.8141198
-14.908881 0.049898069 -1.813553
-14.905185 -0.30981812 -1.8134844
-14.893295 -0.66936278 -1.8134761
-14.764101 -2.1021707 -1.8140455
-14.581909 -3.166373 -1.8151031
-14.505029 -3.5182009 -1.8155754
-14.32725 -4.2164493 -1.816698
-14.001138 -5.247807 -1.8188238
-13.744595 -5.9226642 -1.8205323
-12.098198 -6.6625743 -1.6800499
-11.778095 -7.2479472 -1.6822501
-11.607895 -7.5352807 -1.6834264
-11.43103 -7.8188505 -1.6846528
-11.247573 -8.0985126 -1.6859286
-10.65836 -8.9125156 -1.6900489
-10.234037 -9.4329529 -1.6930336
-10.87439 -10.519668 -1.8404348
-10.62747 -10.789204 -1.8421806
-10.374155 -11.053225 -1.8439748
-10.114536 -11.311608 -1.845817
-9.8487396 -11.564191 -1.8477062
-9.5768604 -11.810815 -1.8496417
-7.1988621 -13.552404 -1.8666816
-6.8782763 -13.739155 -1.8689916
-6.2231688 -14.090524 -1.8737202
-5.2081056 -14.560588 -1.8810666
-4.5116944 -14.834621 -1.8861196
-4.1581054 -14.95953 -1.888689
-3.801162 -15.076169 -1.8912853
-3.4410694 -15.184536 -1.8939071
-2.3436522 -15.458715 -1.9019117
-1.5997363 -15.598245 -1.9073504
-1.2247314 -15.654799 -1.9100956
-0.46945313 -15.741157 -1.915632
-0.089648433 -15.770823 -1.9184197
0.67324215 -15.802835 -1.9240266
1.0558789 -15.805076 -1.9268426
1.4390185 -15.798113 -1.9296646
1.8224609 -15.781872 -1.9324913
2.2059326 -15.756341 -1.9353207
2.5892382 -15.721498 -1.9381514
2.972163 -15.677304 -1.9409817
3.3544335 -15.62376 -1.9438097
5.2411914 -15.195427 -1.9552572
5.8509326 -14.631747 -1.9168549
6.2009716 -14.483313 -1.9164588
6.5620165 -14.358792 -1.9203787
7.2773924 -14.084332 -1.9284267
7.9826465 -13.775996 -1.9367436
9.0180273 -13.25055 -1.9496914
9.3563375 -13.058734 -1.9541262
5.8273191 -7.7321568 -1.1777986
10.021538 -12.650388 -1.9631622
10.348051 -12.433967 -1.9677595
10.670185 -12.209432 -1.9724069
12.065815 -9.3552742 -1.8571969
12.299911 -9.0701962 -1.858996
12.746762 -8.4819708 -1.8624418
13.163872 -7.8708434 -1.8656749
13.73122 -6.9144917 -1.8701055
14.068793 -6.2529078 -1.8727665
15.760386 -5.6788087 -2.0377748
16.033388 -4.9172235 -2.0399871
16.461351 -3.3550255 -2.0435534
16.543251 -2.957896 -2.0442619
16.614965 -2.5586734 -2.0448961
16.676405 -2.1576297 -2.0454552
16.727568 -1.7550397 -2.045939
16.818895 -0.54083675 -2.0469346
16.828516 -0.13495788 -2.0471137
16.827715 0.27113709 -2.0472159
16.816475 0.67708558 -2.0472412
16.794813 1.082608 -2.0471895
16.667534 2.2938194 -2.0465753
16.604433 2.6948388 -2.0462177
16.4475 3.4911206 -2.0452745
16.250063 4.2779174 -2.0440309
15.22331 4.4030128 -1.9276884
14.743808 4.6526413 -1.8806394
14.620952 5.0048642 -1.879829
13.875791 6.7106004 -1.8748989
11.853511 6.455924 -1.6418686
11.202881 6.4568262 -1.5728754
10.604502 6.4576535 -1.5103014
10.051498 6.4584188 -1.4533192
9.5384274 6.4591284 -1.4012681
8.544795 6.4085593 -1.2992517
8.1934519 6.4597387 -1.2691652
7.799458 6.4602795 -1.2319286
6.7423291 6.4617295 -1.1359849
5.2913327 6.4637108 -1.0161095
4.3237891 6.4650207 -0.94608313
4.101738 6.4653196 -0.93136948
3.8453565 6.3973742 -0.90794688
3.6295264 6.3821726 -0.89309764
3.4285741 6.3824439 -0.88129699
3.2830126 6.4819117 -0.88383454
3.0889306 6.4821715 -0.87344998
2.8992577 6.4824243 -0.86380339
2.713618 6.4826732 -0.85486114
2.5316796 6.4829149 -0.84658927
-10.606533 4.9837937 -1.6941311
-10.718052 4.7239442 -1.6932411
-10.823496 4.4617343 -1.6923951
-11.964028 4.2690635 -1.8363528
-12.058486 3.9774828 -1.83558
-12.226992 3.3885534 -1.8341827
-12.481704 2.1918261 -1.8319893
-12.528056 1.8895935 -1.8315675
-12.567471 1.5864446 -1.8311965
-12.599888 1.282539 -1.8308771
-12.625322 0.97800416 -1.8306087
-12.64374 0.67302549 -1.830392
-12.655151 0.36772582 -1.8302267
-12.65956 0.062268674 -1.8301128
-12.656953 -0.24318664 -1.8300508
-12.576435 -1.4620287 -1.8303188
-12.494302 -2.0675409 -1.8307621
-11.98957 -4.1456623 -1.8339239
-11.890293 -4.4353156 -1.8345774
-11.671742 -5.0077372 -1.8360337
-11.048891 -6.062108 -1.8218669
-10.465239 -6.0748997 -1.749294
-9.9992237 -6.1316252 -1.6956412
-9.5471821 -6.8514228 -1.6987768
-9.0452833 -7.5395575 -1.7022879
-8.683979 -7.9790401 -1.7048303
-8.1035986 -8.6069002 -1.7089353
-7.479238 -9.1942911 -1.7133745
-7.3998971 -10.576199 -1.8659946
-7.1494284 -10.762007 -1.8677887
-6.8944287 -10.942064 -1.8696177
-6.6350145 -11.1163 -1.8714808
-6.1034665 -11.446787 -1.8753054
-5.8315868 -11.602832 -1.877265
-5.2763085 -11.896001 -1.8812742
-4.4166503 -12.286971 -1.8874978
-2.5503368 -7.6715469 -1.1686906
-3.5284228 -12.617222 -1.8939477
-3.2266943 -12.713388 -1.8961432
-2.9224217 -12.802482 -1.8983591
-2.3068457 -12.959142 -1.9028485
-1.3684229 -13.139243 -1.9097079
-1.0522851 -13.184402 -1.9120229
-0.41602537 -13.252055 -1.9166882
0.22431152 -13.28923 -1.9213916
0.5455566 -13.296283 -1.9237542
0.86726069 -13.295598 -1.9261224
1.1892773 -13.287153 -1.9284949
2.7969775 -13.12777 -1.9403712
3.116704 -13.072399 -1.9427394
3.7528026 -12.938164 -1.9474572
4.6955905 -12.678312 -1.9544661
5.6193848 -12.347425 -1.9611318
6.1473389 -11.943186 -1.9418145
6.7408543 -11.675166 -1.9489001
7.3235497 -11.378808 -1.9561934
7.8940525 -11.054421 -1.9636813
5.8046188 -7.7272544 -1.3971299
8.4510059 -10.702358 -1.97135
8.7239943 -10.516093 -1.9752475
8.9930763 -10.323061 -1.979185
8.5492134 -9.3482513 -1.8313142
9.007329 -8.9419041 -1.8347945
9.2289257 -8.7299967 -1.836482
9.4453659 -8.5124254 -1.8381332
9.6564741 -8.2893143 -1.8397465
10.062095 -7.8270321 -1.8428552
10.256309 -7.5881157 -1.8443484
10.626884 -7.0954843 -1.8472073
10.802944 -6.8420615 -1.8485707
11.136021 -6.3217883 -1.8511609
11.344741 -6.083118 -1.8609066
12.007177 -6.0699453 -1.9449644
12.731397 -5.6824517 -2.0154784
12.871914 -5.3765931 -2.0165942
13.004726 -5.0671158 -2.0176542
13.246821 -4.4381328 -2.0196037
13.355937 -4.1190372 -2.0204918
13.456923 -3.797147 -2.0213208
13.549775 -3.4726837 -2.0220909
13.710747 -2.8168633 -2.0234504
13.778726 -2.4859536 -2.0240388
13.838301 -2.1533411 -2.0245659
14.008642 -0.47252378 -2.0262673
14.017031 -0.13440308 -2.0264192
14.016787 0.20385253 -2.0265076
13.990551 0.87980038 -2.0264945
13.964536 1.2170471 -2.0263927
13.835268 2.2231226 -2.0257092
13.775195 2.5558484 -2.0253556
13.706723 2.8868816 -2.0249398
13.629858 3.2159996 -2.0244615
13.544673 3.5429735 -2.0239217
13.349653 4.1896372 -2.0226583
12.082393 4.442822 -1.8609936
11.966699 4.7310801 -1.8602189
11.71375 5.2979894 -1.858508
11.432695 5.8508554 -1.8565865
11.281884 6.1215734 -1.8555485
10.960606 6.6509237 -1.8533807
10.791211 6.9097667 -1.8523962
9.5703125 6.4588428 -1.6690964
8.2196341 6.4594836 -1.5112579
6.76332 6.4615064 -1.3522029
6.4449902 6.4619455 -1.3193566
5.5743308 6.4631457 -1.2338297
5.0522947 6.4638619 -1.1859992
3.8589208 6.3971996 -1.0800173
3.2957177 6.4817443 -1.0511793
3.1013427 6.4820056 -1.0387806
2.9114013 6.4822607 -1.027262
2.5433447 6.4827538 -1.0066992
2.1889355 6.4832273 -0.98920345
2.0161035 6.4834571 -0.98152816
1.6778857 6.4839039 -0.96819848
1.3479687 6.4843392 -0.95742565
0.86479491 6.484973 -0.94577587
-0.07918945 6.486196 -0.93772429
-0.23582031 6.4863987 -0.93830317
-1.1880664 6.4876132 -0.95345479
-2.1298292 6.3021274 -0.96166694
-2.6328712 6.2570724 -0.98135108
-3.0080957 6.282423 -1.0069381
-3.3853416 6.2739573 -1.0305865
-3.5809374 6.2695704 -1.0437573
-4.4198046 6.2507467 -1.1066905
-4.6215134 6.2124524 -1.1193337
-4.8546042 6.2072215 -1.1391685
-5.123486 6.2349558 -1.1666129
-5.3758006 6.2292943 -1.1894826
-6.1651807 6.1778111 -1.2617095
-6.4976659 6.2041187 -1.2987313
-9.1116304 6.1454554 -1.5887896
-9.5359621 6.1021628 -1.6366235
-10.675595 4.824779 -1.6935804
-10.804755 4.5724988 -1.6960683
-11.14687 4.4032907 -1.7325855
-11.925673 4.3813453 -1.836665
-12.022724 4.0905628 -1.8358732
-12.113022 3.797749 -1.8351306
-12.273178 3.2066448 -1.8337944
-12.342983 2.9086461 -1.8332011
-12.405893 2.6092131 -1.8326583
-12.461899 2.3085022 -1.8321661
-12.510947 2.0066607 -1.8317246
-12.651879 -0.43036926 -1.8300383
-12.637954 -0.7355206 -1.8300594
-12.617026 -1.0402722 -1.8301324
-12.589111 -1.3444897 -1.8302568
-12.554214 -1.6480097 -1.8304329
-12.46354 -2.2523422 -1.8309393
-12.407817 -2.5528708 -1.8312695
-12.345176 -2.852097 -1.831651
-12.275659 -3.149873 -1.8320832
-12.199302 -3.4460478 -1.8325665
-11.929502 -4.323483 -1.8343186
-11.599458 -5.1812096 -1.8365196
-11.346567 -5.7400932 -1.8382323
-11.210415 -6.0152345 -1.839161
-10.685532 -6.0700912 -1.7765657
-9.7624798 -6.5223703 -1.6972796
-9.6083393 -6.7602835 -1.6983509
-9.4486227 -6.9947233 -1.6994641
-9.1127539 -7.4526987 -1.7018144
-8.755517 -7.8952689 -1.7043262
-8.569067 -8.1104603 -1.7056412
-8.3775339 -8.3214645 -1.7069948
-7.1261034 -9.4923 -1.7158942
-7.4955759 -10.502784 -1.8653098
-7.2468796 -10.690769 -1.8670905
-6.4738522 -11.220164 -1.8726394
-5.9372654 -11.543196 -1.8765031
-5.662993 -11.695395 -1.8784814
-5.3849072 -11.841268 -1.8804895
-4.8178854 -12.113627 -1.8845905
-2.6174316 -7.6345105 -1.1667212
-2.4435496 -7.7304721 -1.1720321
-3.6444628 -12.578105 -1.8931041
-3.3437793 -12.677007 -1.895291
-3.0404637 -12.76886 -1.8974991
-2.1164551 -13.001339 -1.9042386
-1.8043017 -13.064244 -1.9065194
-1.4903516 -13.119758 -1.9088156
-0.85777342 -13.208352 -1.9134483
-0.53949708 -13.241335 -1.9157821
-0.22012694 -13.266724 -1.9181262
0.10016113 -13.284451 -1.9204791
1.0646533 -13.291348 -1.9275765
2.0306737 -13.22827 -1.9347039
2.3521385 -13.1916 -1.9370799
2.672998 -13.147104 -1.9394535
2.9931004 -13.094761 -1.9418237
3.9466796 -12.89077 -1.948897
4.5748973 -12.715766 -1.9535677
5.1952491 -12.509783 -1.9581888
5.7908983 -12.240784 -1.9575807
6.330327 -11.864061 -1.9439635
6.6268115 -11.729258 -1.9475125
6.9206686 -11.587334 -1.9511142
7.4997754 -11.282346 -1.9584686
7.7846775 -11.119354 -1.9622179
5.7501707 -7.8054867 -1.401507
8.3443747 -10.772617 -1.9698528
8.6188087 -10.588978 -1.9737344
8.691699 -9.2262173 -1.8323956
9.1437988 -8.8126717 -1.8358334
9.5754242 -8.3763008 -1.8391267
9.7831831 -8.1498652 -1.8407162
10.907778 -6.6844549 -1.8493843
11.073599 -6.4237981 -1.8506743
12.674946 -5.7997966 -2.0150316
12.954268 -5.1872849 -2.017251
13.082294 -4.87569 -2.0182762
13.418808 -3.922025 -2.0210071
13.602646 -3.2725787 -2.0225332
13.81625 -2.2822406 -2.0243692
13.870649 -1.9486871 -2.0248585
13.953959 -1.2777704 -2.0256505
14.003091 -0.60329098 -2.0261917
14.01789 0.072962642 -2.0264807
13.904565 1.7592694 -2.0260956
13.856259 2.0939722 -2.0258291
13.799448 2.42729 -2.0254998
13.660581 3.0888743 -2.0246539
13.389927 4.0653429 -2.0229218
12.335078 4.4054198 -1.893495
11.341049 6.0172753 -1.8559562
11.186098 6.285542 -1.854887
11.024424 6.5495872 -1.8537478
10.85751 6.8101306 -1.8527832
9.7653265 6.4585705 -1.6925143
9.1503029 6.3744006 -1.6121173
8.697793 6.3762779 -1.5590433
8.3792334 6.4592614 -1.5294458
7.9743795 6.4598241 -1.4835761
6.89082 6.461328 -1.3655719
6.5663233 6.4617786 -1.331784
5.9624166 6.4626107 -1.2711244
5.1501417 6.4637289 -1.1947465
4.9001708 6.4640722 -1.1726081
4.2011228 6.4650254 -1.1145884
3.9828076 6.465322 -1.097748
3.7220557 6.3818955 -1.0680183
3.5186522 6.3821702 -1.0535452
3.3205712 6.3824377 -1.0400578
3.1760058 6.4819055 -1.0434713
2.7969873 6.4824142 -1.020617
1.742622 6.4838195 -0.97057372
1.2482275 6.4844713 -0.954615
1.0867138 6.4846826 -0.95050782
0.76736325 6.4850998 -0.9440363
0.45159668 6.4855113 -0.93982542
-0.018627929 6.4861178 -0.93764663
-0.331958 6.4865222 -0.93892789
-0.48912597 6.4867234 -0.94039184
-1.125537 6.4875326 -0.95185721
-1.2875488 6.4877377 -0.95616734
-1.451123 6.4879441 -0.96107936
-1.9282421 6.4047642 -0.96693301
-2.0649414 6.3035836 -0.95890468
-2.2334082 6.2998033 -0.96624893
-2.3917871 6.2624803 -0.9690969
-2.7560985 6.2880759 -0.99249959
-2.9370458 6.2840161 -1.0027542
-3.3109667 6.2756271 -1.0257372
-3.504663 6.2712817 -1.0385493
-3.6836767 6.2334948 -1.046711
-3.8867431 6.2289391 -1.0613879
-4.1176219 6.2575269 -1.0828769
-4.5577097 6.2476511 -1.1179582
-4.7634373 6.2092662 -1.1313326
-5.2769871 6.2315125 -1.1804454
-5.5354686 6.2257113 -1.2043055
-6.68854 6.1998353 -1.3184042
-7.7151952 6.1767955 -1.4287285
-8.4583397 6.126349 -1.5097924
-9.9918652 6.1875391 -1.698976
-10.131704 5.940814 -1.6978811
-10.742412 4.6648693 -1.6930461
-10.884087 4.4174485 -1.6980925
-11.985971 4.20332 -1.8361738
-12.078881 3.9112952 -1.8354123
-12.165014 3.617312 -1.8346999
-12.316792 3.0241308 -1.8334247
-12.382378 2.7252362 -1.8328624
-12.575405 1.5178076 -1.8311199
-12.646938 0.60403562 -1.8303502
-12.659565 -0.0067810058 -1.8300945
-12.625957 -0.92240536 -1.8300979
-12.600732 -1.2268347 -1.8302026
-12.483247 -2.1357372 -1.8308253
-12.303369 -3.0348206 -1.8319099
-12.229677 -3.3316355 -1.8323733
-12.149121 -3.6267552 -1.8328876
-12.061791 -3.9200408 -1.8334525
-11.9677 -4.2113404 -1.8340673
-11.866909 -4.5004811 -1.8347323
-11.759458 -4.7873645 -1.8354467
-11.524712 -5.3536897 -1.8370239
-10.912787 -6.0651059 -1.804852
-10.339628 -6.0776305 -1.7338128
-9.8206244 -6.4294086 -1.6968765
-9.5110645 -6.9044266 -1.6990286
-9.1794338 -7.3652506 -1.7013469
-9.0054979 -7.5900326 -1.7025675
-8.8262739 -7.8108826 -1.7038276
-7.8536081 -8.8520279 -1.7107099
-7.2120166 -9.4219809 -1.7152808
-7.5905662 -10.428541 -1.8646303
-6.8361568 -10.981977 -1.870036
-6.3111377 -11.321786 -1.8738101
-6.0423484 -11.48261 -1.8757457
-5.492959 -11.785593 -1.8797088
-4.9286962 -12.062976 -1.8837885
-4.6413231 -12.19184 -1.8858694
-2.5110254 -7.6932406 -1.1698914
-3.4604297 -12.639564 -1.8944424
-2.8533056 -12.821648 -1.8988627
-2.5461082 -12.901943 -1.9011025
-1.6120361 -13.099162 -1.9079254
-1.2970849 -13.150105 -1.91023
-0.66279298 -13.229472 -1.9148779
-0.34382322 -13.257797 -1.917218
-0.02387207 -13.278487 -1.9195677
0.61824214 -13.296814 -1.9242892
0.94003904 -13.294371 -1.9266586
1.5841943 -13.266171 -1.9314075
1.906162 -13.240358 -1.9337841
2.8693407 -13.115945 -1.9409071
4.1399755 -12.840437 -1.9503332
4.7659473 -12.655918 -1.9549899
5.3835983 -12.440486 -1.9595937
5.6852441 -12.313656 -1.9606532
6.2149267 -11.914327 -1.9426044
7.0994334 -11.496827 -1.9533474
7.3886571 -11.343549 -1.9570303
7.6748047 -11.183263 -1.9607614
8.2371731 -10.841864 -1.9683617
8.513052 -10.660851 -1.9722275
8.8323488 -9.1019411 -1.8334639
9.2783203 -8.6813021 -1.8368585
9.4935589 -8.4624701 -1.8385011
9.7034473 -8.2381458 -1.8401059
9.9078026 -8.0084276 -1.8416711
10.106494 -7.7734737 -1.8431964
10.299399 -7.5334225 -1.8446802
10.667232 -7.0386095 -1.8475195
10.841904 -6.784152 -1.8488729
11.010195 -6.525187 -1.8501806
12.763828 -5.6136479 -2.0157354
13.033681 -4.996695 -2.0178859
13.156895 -4.6830602 -2.0188766
13.272202 -4.3662701 -2.0198097
13.478642 -3.7240224 -2.0215001
13.569653 -3.398998 -2.0222566
13.652407 -3.0716486 -2.022953
13.726855 -2.7422118 -2.0235889
13.850591 -2.0779552 -2.0246766
13.940497 -1.40794 -2.0255165
13.996269 -0.73399717 -2.0261066
14.011284 -0.39612061 -2.0263071
14.017715 -0.057939451 -2.0264444
14.00478 0.61839718 -2.0265296
13.957485 1.293189 -2.026361
13.920986 1.6294055 -2.0261819
13.760459 2.6308289 -2.0252669
13.690068 2.9614458 -2.024837
13.611313 3.2900982 -2.0243447
13.524272 3.6165612 -2.0237911
12.68456 4.3971324 -1.9407543
12.056924 4.5082569 -1.8608236
11.544756 5.6386595 -1.8573546
11.399194 5.912385 -1.8563561
11.087842 6.4479489 -1.8542072
10.92288 6.7098227 -1.8531628
10.752011 6.9676685 -1.8521663
9.4588575 6.4589987 -1.6557778
8.1281538 6.4596105 -1.500895
7.7379293 6.4601526 -1.4572026
7.0208836 6.4611497 -1.3793302
6.6899805 6.4616075 -1.3445669
5.7880321 6.4628515 -1.2541913
5.5132079 6.4632297 -1.2280846
4.9957957 6.4639401 -1.1809949
4.5155368 6.4645958 -1.1399413
4.287446 6.4649072 -1.1214234
3.8115282 6.3972645 -1.0765017
2.502661 6.4828076 -1.0045732
2.1496336 6.4832788 -0.98740751
1.9774072 6.4835081 -0.97988892
1.8076806 6.4837327 -0.97304553
1.6402197 6.4839535 -0.96685606
1.4747753 6.4841733 -0.96130019
1.311123 6.4843893 -0.9563629
0.98835444 6.4848108 -0.94827938
0.82881832 6.4850192 -0.94510895
0.67025876 6.4852271 -0.94250804
0.51249021 6.4854321 -0.94046628
0.19851074 6.4858398 -0.93804139
0.041938476 6.4860411 -0.9376514
-0.11457519 6.4862437 -0.9378072
-0.42824706 6.4866452 -0.93976009
-0.58575195 6.4868469 -0.94156373
-1.0632226 6.4874549 -0.95034665
-1.2246826 6.4876585 -0.95442891
-1.3876318 6.487865 -0.95910734
-1.6966259 6.4044738 -0.95777583
-1.863169 6.4046826 -0.96425235
-2.0004199 6.3050303 -0.9562425
-2.3255565 6.263967 -0.96592313
-2.6727588 6.2561765 -0.98348171
-2.8665869 6.2855968 -0.99869353
-3.8074803 6.2307177 -1.0555863
-4.6734958 6.2112851 -1.1237
-5.6992235 6.2220373 -1.2197697
-5.9438868 6.1827769 -1.239836
-7.5731249 6.179985 -1.4130462
-8.2990284 6.1299243 -1.49151
-8.7654877 6.1532235 -1.5482031
-9.1900339 6.1256661 -1.5966102
-10.588008 5.025372 -1.6942787
-10.806919 4.5040793 -1.6925284
-11.315971 4.3988829 -1.7551123
-11.948213 4.3157911 -1.8364816
-12.132495 3.7312877 -1.8349696
-12.357827 2.841084 -1.833074
-12.52107 1.9382995 -1.8316319
-12.621699 1.0270447 -1.8306484
-12.653789 0.41686645 -1.8302499
-12.649345 -0.49939573 -1.8300384
-12.633828 -0.80444211 -1.8300716
-12.611323 -1.1090875 -1.8301558
-12.581826 -1.4131573 -1.8302921
-12.451562 -2.3203933 -1.8310093
-12.096387 -3.8067851 -1.8332278
-11.690297 -4.9620328 -1.8359094
-11.316358 -5.8025546 -1.8384379
-10.556026 -6.0729218 -1.7605129
-10.022031 -6.092196 -1.6954838
-9.7281399 -6.5764389 -1.6975181
-9.4117527 -7.0472279 -1.6997215
-9.2452927 -7.2772312 -1.7008855
-9.0734425 -7.5035 -1.7020903
-8.8962498 -7.725894 -1.7033353
-8.5262203 -8.1585388 -1.7059437
-8.3335352 -8.3685598 -1.707306
-7.725903 -8.9720039 -1.7116179
-7.2970996 -9.350914 -1.7146734
-7.07583 -9.5330257 -1.7162536
-7.4397607 -10.545761 -1.8657092
-6.9357662 -10.913486 -1.8693211
-6.4140377 -11.257918 -1.8730698
-6.1468358 -11.421095 -1.874993
-5.8755956 -11.578152 -1.8769476
-5.0389795 -12.011326 -1.8829904
-4.4635253 -12.267526 -1.8871578
-3.5767186 -12.601071 -1.8935966
-2.9715428 -12.788635 -1.8980012
-2.3566895 -12.94761 -1.9024845
-2.0460303 -13.016213 -1.9047531
-1.7334863 -13.077436 -1.9070373
-0.7859326 -13.216479 -1.9139749
0.17267577 -13.287372 -1.9210119
0.49383301 -13.295676 -1.9233738
1.1374658 -13.289033 -1.9281131
2.4247167 -13.18222 -1.9376167
3.7018211 -12.950115 -1.9470788
4.0180469 -12.872548 -1.9494271
4.9562402 -12.593144 -1.9564073
5.2647948 -12.484573 -1.9587073
5.5709715 -12.368313 -1.960992
5.8483887 -12.189869 -1.954511
6.693491 -11.697794 -1.9483221
7.2770944 -11.403692 -1.9555993
7.5644627 -11.246099 -1.9593121
7.8486376 -11.081538 -1.9630722
8.406743 -10.731696 -1.9707266
8.6803122 -10.546523 -1.9746176
8.9500437 -10.354588 -1.9785486
8.5115185 -9.3799143 -1.8310283
8.9711914 -8.9754658 -1.8345196
9.4108934 -8.5478125 -1.8378699
9.6228762 -8.3255854 -1.8394893
10.030308 -7.8649926 -1.8426111
10.414707 -7.3838048 -1.8455687
10.597968 -7.1358409 -1.8469836
10.775039 -6.8831573 -1.8483543
10.94582 -6.6259189 -1.8496799
11.110186 -6.3642864 -1.8509594
11.896538 -6.0721569 -1.9308556
12.708081 -5.7313104 -2.0152938
12.983887 -5.1171403 -2.0174875
13.338902 -4.1705885 -2.0203528
13.535405 -3.5250599 -2.021971
13.621347 -3.1985898 -2.0226908
13.699028 -2.8699372 -2.0233498
13.768373 -2.5393233 -2.0239484
13.925752 -1.5379162 -2.0253735
13.98813 -0.86461729 -2.0260119
14.01625 -0.188833 -2.0263989
14.017417 0.14941712 -2.0264976
14.009955 0.4875946 -2.0265326
13.993936 0.8254742 -2.0265048
13.785435 2.5024309 -2.0254166
13.642793 3.1631622 -2.0245428
13.051894 4.3883896 -1.9906017
12.15392 4.4156613 -1.8693706
11.735151 5.2528782 -1.8586535
11.599195 5.5317383 -1.8577271
11.456327 5.8069348 -1.8567486
11.306597 6.0782642 -1.8557189
11.150151 6.3456063 -1.8546385
10.987246 6.6088524 -1.8535342
9.0449362 6.374547 -1.599651
8.5992041 6.3764148 -1.5475875
8.285532 6.4593921 -1.5187509
7.5096335 6.4604712 -1.4320544
7.1535788 6.4609656 -1.3934876
6.8160496 6.4614329 -1.3577173
6.4951854 6.4618773 -1.3244835
6.189497 6.4622998 -1.2935758
5.6181884 6.4630871 -1.2379731
3.8928611 6.3971543 -1.0825541
3.6755955 6.381958 -1.0646597
3.1323144 6.4819627 -1.0407161
2.9416797 6.4822202 -1.0290576
2.755161 6.4824696 -1.0182447
2.5724218 6.4827147 -1.008237
2.3931346 6.482954 -0.99900031
2.0437305 6.4834204 -0.98271513
1.7047704 6.4838681 -0.96917433
1.5385693 6.484087 -0.96337581
1.3742627 6.4843063 -0.95820194
1.0503955 6.4847302 -0.94966072
0.89042968 6.4849386 -0.94626862
0.57345212 6.4853539 -0.94119054
0.41605467 6.4855576 -0.93948835
-0.21058594 6.4863672 -0.93817228
-0.36744139 6.486567 -0.93921065
-0.52472657 6.4867697 -0.94079953
-0.84136719 6.4871726 -0.94564939
-1.1620312 6.4875803 -0.95277929
-1.3243847 6.4877844 -0.95722425
-1.6327783 6.4043932 -0.95544302
-2.1027977 6.3027344 -0.9605065
-2.7966747 6.2871652 -0.99474776
-3.164248 6.2789197 -1.0164378
-3.5491259 6.2702842 -1.0415752
-3.7290967 6.2324753 -1.0499384
-3.9334471 6.2278905 -1.0648483
-4.1659765 6.2564416 -1.0866055
-4.8165379 6.208075 -1.1358849
-5.0837841 6.2358484 -1.1630783
-6.760366 6.1982236 -1.3258801
-7.7996435 6.174901 -1.4381099
-8.1870556 6.1662059 -1.4816705
-8.5532131 6.1242185 -1.5207423
-10.023984 6.1320286 -1.698725
-11.029101 4.4063535 -1.7169261
-12.007558 4.1374927 -1.8359972
-12.098945 3.8449962 -1.8352468
-12.332221 2.9566765 -1.8332931
-12.58293 1.4491351 -1.8310465
-12.634517 0.84017271 -1.8305044
-12.64977 0.53502381 -1.8303108
-12.658012 0.22963317 -1.8301688
-12.653452 -0.38125426 -1.8300396
-12.640664 -0.68645203 -1.8300525
-12.51956 -1.9020272 -1.8306202
-12.47186 -2.203872 -1.8308909
-12.417241 -2.5045934 -1.8312129
-12.355708 -2.8040395 -1.8315861
-12.041122 -3.986078 -1.8335868
-11.734242 -4.8518729 -1.8356152
-11.618667 -5.1357574 -1.8363904
-11.496528 -5.4170251 -1.8372145
-11.367866 -5.695538 -1.8380873
-10.77917 -6.0680408 -1.7882015
-10.216196 -6.0803046 -1.7186521
-9.9343605 -6.2419991 -1.6960891
-9.7867527 -6.4837785 -1.6971114
-9.6335106 -6.7222404 -1.6981758
-9.3103657 -7.1886559 -1.7004302
-8.7850389 -7.8602433 -1.704118
-8.5994387 -8.0761213 -1.7054267
-8.212944 -8.4951563 -1.70816
-8.0122509 -8.6980963 -1.7095833
-7.8067236 -8.8964758 -1.7110432
-6.7776804 -11.021574 -1.8704559
-6.5163231 -11.193125 -1.8723339
-6.2507324 -11.358671 -1.8742449
-5.7073679 -11.671329 -1.878161
-5.4298925 -11.818237 -1.8801645
-2.4716406 -7.714973 -1.1711284
-3.0894287 -12.754553 -1.8971426
-2.1664891 -12.990532 -1.9038732
-1.8546386 -13.054623 -1.9061515
-1.2256738 -13.160588 -1.910753
-0.90888184 -13.202332 -1.9130737
-0.59079099 -13.236544 -1.9154059
0.048564453 -13.282102 -1.9200999
1.0128369 -13.292734 -1.9271948
1.3349072 -13.280781 -1.9295688
1.6569971 -13.26101 -1.9319447
2.6214013 -13.154782 -1.9390718
2.9416406 -13.103713 -1.9414425
4.2110987 -12.821138 -1.9508618
5.1456833 -12.527497 -1.9578193
5.4528122 -12.414189 -1.9601101
5.7480226 -12.273244 -1.9591851
5.9885936 -12.0228 -1.9417126
6.2823777 -11.885091 -1.9433973
7.1650782 -11.462801 -1.9541757
7.7390528 -11.146054 -1.9616114
8.0211964 -10.977235 -1.9653997
