# .PCD v0.7 - Point Cloud Data file format
VERSION 0.7
FIELDS x y z
SIZE 4 4 4
TYPE F F F
COUNT 1 1 1
WIDTH 1494
HEIGHT 1
VIEWPOINT 0 0 0 1 0 0 0
POINTS 1494
DATA ascii
-1.3612012 5.0794272 -1.7644612
-1.4825976 5.0426135 -1.7635881
-2.3012891 4.705874 -1.7576787
-2.4130273 4.6468506 -1.7568694
-2.523252 4.5852036 -1.7560699
-2.739043 4.4541869 -1.7545027
-2.8778515 4.4363742 -1.7743238
-3.3443115 4.4191184 -1.8595151
-3.5099363 4.412601 -1.8918593
-3.6319189 4.3464561 -1.9005225
-3.834331 4.1629758 -1.8990381
-4.0276365 3.9702208 -1.8976165
-4.2114305 3.7686462 -1.8962606
-4.4684277 3.4507799 -1.8943561
-4.7019286 3.115761 -1.8926153
-4.7743602 3.0005651 -1.8920726
-4.8440084 2.8837311 -1.8915493
-4.9108496 2.7653089 -1.8910458
-5.2974753 1.8976165 -1.8880901
-5.3809619 1.6393329 -1.8874354
-5.4521241 1.3774798 -1.8868676
-5.5108299 1.112641 -1.8863879
-5.5903268 0.57627809 -1.885697
-5.6109958 0.30594176 -1.8854868
-5.6188669 0.034956053 -1.8853678
-5.6066599 -0.37144041 -1.8853601
-5.5961962 -0.50658447 -1.885403
-5.5825486 -0.64146602 -1.885469
-5.5657077 -0.77597654 -1.8855575
-5.5456982 -0.91005611 -1.8856689
-5.5225244 -1.0436486 -1.8858029
-5.4961963 -1.1766583 -1.8859593
-5.4341502 -1.4406683 -1.8863398
-5.359663 -1.7015131 -1.8868097
-5.317822 -1.8305596 -1.8870776
-5.1740918 -2.2114017 -1.8880125
-5.1202002 -2.3360159 -1.8883673
-5.0633688 -2.4593332 -1.8887434
-5.0036426 -2.5812969 -1.8891402
-4.8755126 -2.8209088 -1.8899972
-4.8072166 -2.9384177 -1.8904562
-4.7361326 -3.0542953 -1.8909354
-4.6623192 -3.1684849 -1.8914346
-4.5857859 -3.2809322 -1.8919536
-4.506577 -3.3915622 -1.8924918
-4.3403563 -3.6071341 -1.8936255
-3.9778416 -4.0138073 -1.8961128
-3.8812206 -4.1100388 -1.8967785
-3.7822948 -4.2039838 -1.8974612
-3.6811426 -4.2955842 -1.8981602
-3.5778027 -4.3847828 -1.8988754
-3.3647754 -4.5557823 -1.9003528
-2.9149706 -4.866785 -1.903484
-2.6791601 -5.0060425 -1.905131
-2.5587597 -5.0714612 -1.9059733
-2.3132617 -5.1936517 -1.9076933
-2.1883008 -5.2503562 -1.9085701
-2.0619824 -5.3040771 -1.9094572
-1.8054785 -5.4024591 -1.9112612
-1.4121289 -5.5268736 -1.9140337
-1.2790234 -5.5620594 -1.9149734
-0.87475586 -5.6484132 -1.9178326
-0.73864257 -5.6707196 -1.9187968
-0.46474609 -5.7055154 -1.9207394
-0.32714844 -5.717978 -1.9217166
-0.18921874 -5.7271261 -1.9226966
-0.051035155 -5.7329516 -1.9236795
0.50260741 -5.7229133 -1.9276249
0.64082032 -5.7120433 -1.9286118
1.3268945 -5.6076713 -1.9335223
1.4624902 -5.5768414 -1.9344952
1.5974121 -5.5427113 -1.9354641
2.1282032 -5.3736024 -1.9392837
2.5148242 -5.2131376 -1.9420745
2.6410742 -5.1533775 -1.9429877
2.7659082 -5.0905347 -1.9438914
3.1310351 -4.8838487 -1.9465399
3.2493651 -4.809021 -1.9474002
3.9188671 -4.3007984 -1.9522866
4.3215427 -3.9091232 -1.9552457
4.4161716 -3.8051023 -1.9559438
4.5977049 -3.5901387 -1.9572868
4.6845117 -3.4793367 -1.9579309
4.7686133 -3.3663909 -1.9585561
5.0767479 -2.8946819 -1.9608603
5.1464648 -2.7721126 -1.9613855
5.3373828 -2.3944767 -1.9628332
5.4490333 -2.1351967 -1.9636886
5.5000587 -2.0035367 -1.9640826
5.5478516 -1.8706378 -1.9644541
5.5923338 -1.7365655 -1.9648019
5.6713867 -1.4653002 -1.9654281
5.7058887 -1.3282465 -1.9657059
5.7370019 -1.1903778 -1.9659594
5.7890329 -0.91248959 -1.9663947
5.8098927 -0.77265686 -1.9665757
5.8587403 -0.209328 -1.9670547
5.8622656 -0.06794861 -1.9671127
5.8622851 0.073493652 -1.9671459
5.8588181 0.21487975 -1.9671541
5.8518848 0.3561511 -1.9671377
5.8275976 0.63793397 -1.9670303
5.7894235 0.91816586 -1.9668237
5.7064452 1.3340667 -1.9663293
5.6719823 1.4711785 -1.966116
5.63416 1.6073736 -1.9658782
5.5008006 2.0096967 -1.9650221
5.4497852 2.1414502 -1.9646893
5.3381543 2.4008977 -1.9639547
5.277617 2.5284557 -1.9635531
5.2139745 2.6544518 -1.9631294
5.1472459 2.7788298 -1.9626831
4.5982618 3.5975671 -1.9589638
4.5087304 3.706284 -1.9583514
4.3218946 3.9168615 -1.9570698
4.2246971 4.0186048 -1.9564012
4.1250877 4.1179013 -1.9557149
4.0230861 4.2146935 -1.9550109
3.9188182 4.3089194 -1.9542903
3.8122947 4.4005356 -1.9535528
2.1963964 4.8608313 -1.7897477
2.0775585 4.9101024 -1.7889128
1.9575585 4.9564524 -1.788069
1.8365625 4.9998474 -1.7872173
1.5917382 5.0776987 -1.7854917
1.3436718 5.1435108 -1.7837404
0.84017575 5.2385521 -1.7801765
0.71319336 5.2546363 -1.7792759
0.4584375 5.2775474 -1.777467
0.33083984 5.2843676 -1.7765597
0.20318359 5.2881064 -1.7756515
-0.052050781 5.286334 -1.7738333
-0.17948242 5.2808299 -1.7729243
-0.30665037 5.2722631 -1.7720168
-0.43351561 5.2606406 -1.7711103
-0.56000978 5.2459726 -1.7702061
-0.81154293 5.2075534 -1.7684057
-0.93646485 5.1838365 -1.7675105
-1.6694043 4.9796619 -1.762243
-1.7881738 4.9355383 -1.7613869
-2.0221875 4.8389087 -1.7596978
-2.6916015 4.4842138 -1.7548475
-2.8143456 4.4422421 -1.7644845
-2.9610252 4.4334226 -1.7888415
-3.4355712 4.4155502 -1.8772044
-3.9854541 4.0138807 -1.897927
-4.1713719 3.8142383 -1.8965564
-4.2606931 3.7112083 -1.8958963
-4.3474998 3.6061242 -1.8952535
-4.5924659 3.27916 -1.8934329
-4.7424655 3.0520329 -1.8923117
-4.813364 2.9359119 -1.8917798
-4.9467282 2.6989136 -1.8907748
-5.2295704 2.081671 -1.8886166
-5.2772412 1.9545275 -1.8882475
-5.4696679 1.3042542 -1.8867258
-5.4988475 1.1717871 -1.8864871
-5.5248728 1.0386865 -1.8862708
-5.5477633 0.90500611 -1.8860766
-5.5674706 0.77085203 -1.8859049
-5.5839939 0.63626951 -1.885756
-5.5973434 0.50135499 -1.8856295
-5.6075048 0.36616883 -1.8855258
-5.6144581 0.2307788 -1.8854446
-5.6182275 0.095278315 -1.8853863
-5.6161375 -0.17580566 -1.8853381
-5.6102929 -0.31122679 -1.8853482
-5.6012449 -0.44648436 -1.8853811
-5.5890136 -0.58148497 -1.8854368
-5.5735888 -0.71616268 -1.8855155
-5.554985 -0.85045528 -1.8856165
-5.5332274 -0.98426938 -1.8857403
-5.449028 -1.3821801 -1.8862475
-5.4147167 -1.5133996 -1.8864613
-5.3773093 -1.6437768 -1.8866973
-5.2932763 -1.9017624 -1.8872356
-5.0305614 -2.5272057 -1.8889612
-4.9692187 -2.6483879 -1.88937
-4.9049902 -2.7681234 -1.8897995
-4.8379588 -2.8863244 -1.8902495
-4.695488 -3.1178875 -1.8912101
-4.3782325 -3.5598419 -1.8933668
-4.0200782 -3.9702706 -1.895822
-3.7264404 -4.2551155 -1.8978471
-3.6240625 -4.3453937 -1.8985553
-3.3041992 -4.6014481 -1.9007735
-3.1935449 -4.6817045 -1.901543
-2.9664745 -4.8343039 -1.9031247
-2.6125293 -5.0427008 -1.9055971
-2.49125 -5.1065288 -1.906446
-2.244082 -5.2254882 -1.9081787
-1.991289 -5.3325992 -1.9099542
-1.0703321 -5.6104407 -1.9164485
-0.38842773 -5.7128406 -1.9212812
-0.25062498 -5.7234626 -1.92226
-0.11253906 -5.7307696 -1.9232419
0.02573242 -5.7347479 -1.9242257
0.57933593 -5.7172947 -1.9281726
0.71747071 -5.7045727 -1.9291594
1.2662988 -5.6203327 -1.9330878
1.4022363 -5.5909677 -1.9340627
1.5374805 -5.5583038 -1.9350336
1.6719433 -5.5223546 -1.9359995
1.9382714 -5.4406681 -1.9379153
2.200537 -5.3460698 -1.9398053
2.5850487 -5.1803579 -1.9425824
2.7105565 -5.1188798 -1.9434905
3.0778027 -4.9162064 -1.9461532
3.5433202 -4.6047897 -1.9495413
3.6549022 -4.5198612 -1.9503556
3.7644141 -4.4321909 -1.951156
4.180459 -4.0552182 -1.9542068
4.2786427 -3.9546542 -1.9549295
4.6462207 -3.5289006 -1.9576465
4.8140821 -3.3028185 -1.9588946
4.8938379 -3.1866951 -1.9594897
4.9707618 -3.0686071 -1.9600651
3.2095897 4.3461204 -1.9492477
3.1026366 4.4205909 -1.9485034
2.95083 4.4276881 -1.9196877
2.6571093 4.4367552 -1.8658178
2.5160253 4.4408288 -1.8414646
2.378418 4.4446168 -1.8187082
2.2462695 4.4526525 -1.7992936
2.0166211 4.5282016 -1.7883898
1.9059472 4.5735373 -1.7876123
1.7942969 4.6161547 -1.7868271
1.6816698 4.656024 -1.7860341
1.4538476 4.7274594 -1.7844281
1.3387696 4.7589893 -1.7836159
1.1066601 4.8135877 -1.7819755
0.98975581 4.8366356 -1.7811483
0.87238282 4.8568358 -1.7803172
0.75463867 4.8741784 -1.7794825
0.39962891 4.9090247 -1.7769623
0.043544922 4.9180431 -1.7744284
-0.075068355 4.9153209 -1.7735829
-0.3117578 4.9013095 -1.7718939
-0.54725587 4.8759298 -1.7702109
-0.7810449 4.8392811 -1.7685373
-1.0125977 4.7914743 -1.7668769
-1.1273535 4.7634301 -1.7660531
-1.2413671 4.732656 -1.765234
-1.3545409 4.6991639 -1.7644202
-1.4668261 4.6629834 -1.763612
-1.5781542 4.6241393 -1.76281
-1.6884277 4.582655 -1.762015
-2.0164745 4.450913 -1.7629461
-2.1411719 4.4380383 -1.7777933
-2.4070799 4.4295945 -1.8188517
-2.5446973 4.4249415 -1.8416188
-2.6857421 4.4199829 -1.8659832
-2.8305371 4.4146986 -1.892037
-2.9568748 4.3756785 -1.9053369
-3.1620018 4.2246547 -1.9038409
-3.2617285 4.1455612 -1.9031122
-3.3595214 4.0641441 -1.9023967
-3.4553075 3.9804516 -1.901695
-3.5490379 3.894536 -1.9010075
-3.6406543 3.8064427 -1.9003345
-3.7301319 3.7162194 -1.8996762
-3.9024119 3.5296299 -1.8984057
-4.0655222 3.3351805 -1.8971988
-4.2191062 3.1333287 -1.896058
-4.2922363 3.029773 -1.8955131
-4.3628612 2.9245386 -1.8949856
-4.4309473 2.8176842 -1.8944758
-4.4964499 2.709276 -1.8939841
-4.55936 2.5993688 -1.8935103
-4.6196337 2.4880278 -1.8930552
-4.7321143 2.2613013 -1.8922013
-5.003252 1.5533526 -1.8901056
-5.0709033 1.3098608 -1.889567
-5.1003904 1.1870062 -1.8893284
-5.1505661 0.93942136 -1.8889134
-5.1712451 0.81482667 -1.8887371
-5.2301559 0.18658081 -1.8881713
-5.2329931 0.060356446 -1.8881217
-5.2328563 -0.065891109 -1.8880934
-5.2236085 -0.31820312 -1.8881005
-5.2145066 -0.44412658 -1.8881359
-5.2024217 -0.56979859 -1.8881929
-5.1693749 -0.82013363 -1.88837
-5.0976806 -1.1920605 -1.8887939
-5.0679345 -1.3148119 -1.8889773
-5.0352926 -1.4368347 -1.8891814
-4.9997654 -1.5580676 -1.8894061
-4.8760691 -1.9163339 -1.8902038
-4.7795606 -2.1500003 -1.8908367
-4.7271729 -2.2650878 -1.891183
-4.6720653 -2.3789196 -1.891549
-4.4906883 -2.7122781 -1.8927631
-4.3567233 -2.9271102 -1.8936672
-4.2859325 -3.0321202 -1.894147
-4.212656 -3.1354492 -1.8946447
-4.0587692 -3.3368292 -1.8956939
-3.8954053 -3.5307901 -1.8968122
-3.8102832 -3.6248415 -1.8973967
-3.6333396 -3.806838 -1.8986144
-3.4478319 -3.9803348 -1.8998953
-3.3519824 -4.0637641 -1.9005585
-3.2541308 -4.1449203 -1.9012365
-3.0526757 -4.3002048 -1.9026351
-2.9491796 -4.374248 -1.903355
-2.7368944 -4.5149055 -1.9048343
-2.6282325 -4.5814362 -1.9055926
-2.1781836 -4.8213091 -1.9087421
-2.062119 -4.8745279 -1.9095563
-1.9447753 -4.9249773 -1.9103802
-1.340996 -5.134613 -1.9146316
-0.58796871 -5.2890239 -1.9199587
-0.46041992 -5.3041677 -1.9208636
-0.33249024 -5.3162436 -1.9217718
-0.075771481 -5.3311539 -1.9235967
0.43907225 -5.3237882 -1.9272653
0.69598633 -5.3014603 -1.9291002
0.95176756 -5.2667136 -1.93093
1.2058203 -5.2195959 -1.9327503
2.0725975 -4.9586277 -1.9389843
2.3113964 -4.857213 -1.9407088
2.5451953 -4.7442102 -1.9424
2.7734082 -4.6198645 -1.9440544
3.5202734 -4.0994534 -1.9494946
3.619453 -4.0148411 -1.9502207
3.7166111 -3.9277978 -1.950933
3.8116503 -3.8383741 -1.9516307
3.9044921 -3.7466223 -1.9523133
3.9950879 -3.6525936 -1.9529803
4.0833983 -3.5563426 -1.9536318
4.2529001 -3.3574109 -1.9548852
4.3339844 -3.2548475 -1.9554865
4.4125485 -3.1502948 -1.9560705
4.488574 -3.0438151 -1.9566367
4.6326952 -2.8253412 -1.9577138
4.7007422 -2.7134764 -1.9582247
4.8285155 -2.4848156 -1.9591879
4.888164 -2.3681664 -1.9596399
5.1427341 -1.764519 -1.9615934
5.1846681 -1.6402215 -1.9619211
5.259326 -1.3886731 -1.9625113
5.2920117 -1.2615716 -1.9627737
5.371172 -0.8758868 -1.9634271
2.678828 -0.10996155 -0.96728987
2.6685936 0.14818786 -0.96426773
5.3588672 0.95356321 -1.9637654
5.2745118 1.3382202 -1.9632541
5.2401366 1.4649042 -1.9630389
5.2026267 1.5906903 -1.962801
5.1620603 1.715498 -1.9625411
5.1184473 1.8392571 -1.9622592
5.0718164 1.9618853 -1.9619557
4.9140625 2.3222656 -1.960916
4.5938768 2.8935344 -1.9587686
4.5216212 3.002758 -1.9582794
4.3692088 3.2156427 -1.9572436
4.0343261 3.6174121 -1.954952
3.8526757 3.8053453 -1.9537021
3.7585351 3.8958764 -1.9530526
3.6622069 3.9840491 -1.9523871
3.5637889 4.0698118 -1.9517061
3.4633594 4.1531129 -1.9510101
3.1504588 4.3877845 -1.9488363
3.0184667 4.4254909 -1.9326739
2.7210643 4.434845 -1.8771913
2.5783691 4.4390516 -1.8520974
2.1759472 4.4607067 -1.790614
1.9553223 4.5537024 -1.7879592
1.7318945 4.6386242 -1.7863879
1.5048046 4.712533 -1.7847875
1.3900585 4.7453065 -1.7839781
0.9246875 4.8481979 -1.7806876
0.80708981 4.8668165 -1.7798544
0.68912107 4.8825707 -1.7790179
0.57086915 4.8954639 -1.7781787
0.33376953 4.9126377 -1.7764941
0.21507812 4.916925 -1.7756497
0.096347652 4.9183383 -1.7748045
-0.022304688 4.9168859 -1.773959
-0.49499023 4.882556 -1.7705847
-0.61233395 4.8668857 -1.7697451
-0.84556639 4.8271275 -1.7680749
-0.96131831 4.8030686 -1.7672448
-1.1907421 4.7466846 -1.7655978
-1.3042871 4.7143979 -1.7647816
-1.6395215 4.601439 -1.7623678
-1.8579102 4.5129676 -1.7607919
-2.0849121 4.4426661 -1.7705792
-2.3468847 4.4315686 -1.8092134
-2.4830272 4.4270482 -1.8312958
-2.6225488 4.4222279 -1.8549391
-3.0145507 4.3347373 -1.9049166
-3.2175829 4.1810422 -1.9034348
-3.3162498 4.1006556 -1.9027133
-3.4129345 4.0179672 -1.9020056
-3.5075879 3.9330347 -1.9013116
-3.6905859 3.7566247 -1.8999673
-3.8648584 3.5718346 -1.898683
-3.9486132 3.476433 -1.8980644
-4.0300441 3.3790953 -1.8974618
-4.1091161 3.2798853 -1.8968756
-4.2600098 3.0760612 -1.8957534
-4.3317432 2.9715655 -1.8952181
-4.5316944 2.6484504 -1.8937188
-4.5931349 2.5377429 -1.8932556
-4.7080221 2.3121936 -1.8923848
-4.7614012 2.1974781 -1.8919779
-4.8120313 2.0815594 -1.8915904
-4.8599072 1.9644891 -1.8912222
-4.9049802 1.8463446 -1.8908737
-4.9472361 1.7271862 -1.890545
-4.9866405 1.6070813 -1.8902363
-5.0568552 1.3642999 -1.8896798
-5.0876269 1.241756 -1.8894321
-5.1624122 0.87032712 -1.888813
-5.1975293 0.62021911 -1.8885047
-5.2207761 0.36877501 -1.8882806
-5.2320995 0.11653137 -1.8881413
-5.2314792 -0.13595337 -1.8880869
-5.2081738 -0.51391232 -1.8881649
-5.1944385 -0.63942444 -1.8882335
-5.0159326 -1.5042236 -1.8893036
-4.9787989 -1.6249847 -1.88954
-4.8504004 -1.9816257 -1.8903713
-4.7508249 -2.2140274 -1.8910264
-4.6969285 -2.3284271 -1.8913836
-4.6403122 -2.441539 -1.8917605
-4.5810251 -2.553297 -1.8921568
-4.4545407 -2.7725222 -1.8930066
-4.3177443 -2.9856021 -1.8939313
-4.1709228 -3.1920526 -1.8949288
-4.01437 -3.3914223 -1.8959974
-3.9325633 -3.4883008 -1.8965576
-3.6734619 -3.7670696 -1.898338
-3.5827 -3.8558571 -1.8989637
-3.4898241 -3.9424887 -1.899605
-3.1989892 -4.188962 -1.901619
-2.9954588 -4.3416014 -1.9030331
-2.7847071 -4.4844809 -1.9045007
-2.5672166 -4.6172495 -1.9060187
-2.4560449 -4.6797614 -1.9067959
-1.9971484 -4.9028721 -1.9100124
-1.7598926 -4.9978518 -1.91168
-1.3957422 -5.1188903 -1.9142452
-0.8976953 -5.2391696 -1.9177645
-0.51722658 -5.2978086 -1.9204605
-0.38947263 -5.3112521 -1.9213673
-0.26135743 -5.3216224 -1.9222772
-0.13298827 -5.3289065 -1.9231898
-0.0043945312 -5.3330984 -1.9241047
0.25308594 -5.3321824 -1.9259387
0.51043946 -5.3188396 -1.9277748
0.63889647 -5.3075037 -1.9286922
1.1494824 -5.2311444 -1.9323465
1.4017578 -5.1744604 -1.9341563
1.6512207 -5.1055589 -1.9359491
1.8972753 -5.0245709 -1.9377203
2.0188477 -4.9795952 -1.9385966
2.1393359 -4.9316583 -1.9394659
2.3768065 -4.8270035 -1.9411814
2.4936328 -4.7703404 -1.9420267
2.6091015 -4.710825 -1.942863
3.0559473 -4.4449377 -1.9461073
3.1635547 -4.3716846 -1.9468907
3.2693846 -4.2958045 -1.9476621
3.3733885 -4.2173276 -1.9484211
3.4754589 -4.1363168 -1.949167
3.6736326 -3.9668243 -1.9506178
4.1314158 -3.5019853 -1.9539863
4.4550586 -3.0914273 -1.9563869
4.5296288 -2.9839129 -1.956943
4.6708102 -2.7634637 -1.9579998
4.7373142 -2.6506655 -1.9584997
4.9200583 -2.3027883 -1.9598821
4.9752245 -2.1839056 -1.9603028
5.0767965 -1.9421741 -1.9610825
5.1230955 -1.8194757 -1.9614407
5.1663866 -1.6956629 -1.9617779
5.2438083 -1.4449579 -1.9623877
5.3087792 -1.1906781 -1.9629095
5.3612204 -0.93345517 -1.9633429
2.676621 -0.073987424 -0.96604925
2.6709473 0.055066526 -0.96383983
5.3454199 1.0251886 -1.9636862
5.3186913 1.1537415 -1.963526
5.2888184 1.2815832 -1.9633429
5.2558203 1.4086419 -1.9631375
5.219697 1.5348358 -1.9629095
5.0929294 1.9074633 -1.9620935
4.9391208 2.2695775 -1.9610822
4.75916 2.619184 -1.959882
4.6935349 2.7326109 -1.9594408
4.5540919 2.9543829 -1.9584994
4.4040136 3.168941 -1.9574804
4.3251071 3.2733519 -1.9569429
4.1597753 3.4761364 -1.9558127
3.984834 3.6704674 -1.9546118
3.8938963 3.7643175 -1.953986
3.705332 3.9451098 -1.9526852
3.6078417 4.0319529 -1.9520111
3.4067383 4.1982665 -1.9506174
3.1979101 4.3544493 -1.9491665
2.7857909 4.4328785 -1.8889074
2.5007324 4.4412599 -1.8388822
1.8937109 4.5783644 -1.7875262
1.669209 4.6602464 -1.7859464
1.555625 4.697052 -1.785146
1.4412109 4.7310681 -1.784339
1.2102344 4.7906885 -1.7827079
1.0938183 4.8162622 -1.7818847
0.7416504 4.8759131 -1.7793903
0.62351561 4.8900805 -1.7785524
0.38658202 4.9098105 -1.7768694
-0.088124998 4.9148459 -1.7734898
-0.20655273 4.9089475 -1.7726449
-0.32474607 4.9002051 -1.7718011
-0.67728513 4.8569727 -1.7692803
-0.79387695 4.836937 -1.7684454
-0.90988278 4.8141127 -1.7676138
-1.0252734 4.7885242 -1.766786
-1.3669434 4.6953111 -1.7643309
-1.4791406 4.6588402 -1.7635233
-1.5903808 4.6197009 -1.7627221
-1.9176855 4.486587 -1.7603599
-2.0299902 4.4493017 -1.764437
-2.1555274 4.4376035 -1.7799057
-2.9683592 4.3676209 -1.9052533
-3.0716405 4.2930455 -1.9045002
-3.1730566 4.2160645 -1.9037601
-3.272578 4.1367111 -1.9030328
-3.3701658 4.055038 -1.9023187
-3.4657323 3.9710972 -1.9016186
-3.5592237 3.8849401 -1.9009326
-3.6506152 3.7966161 -1.9002612
-3.8268602 3.6136534 -1.8989635
-3.9941015 3.4226439 -1.897728
-4.1519675 3.2240295 -1.8965572
-4.3001318 3.0182664 -1.8954542
-4.3704734 2.9128544 -1.8949286
-4.4382763 2.8058245 -1.8944207
-4.5035057 2.6972442 -1.893931
-4.5661278 2.5871789 -1.8934594
-4.6261034 2.4756896 -1.8930062
-4.6833982 2.3628356 -1.8925719
-4.7379932 2.2486718 -1.8921566
-4.8389502 2.0167131 -1.8913835
-4.8852682 1.8990442 -1.8910263
-5.0072803 1.5400323 -1.8900738
-5.0742869 1.2963709 -1.8895397
-5.1296873 1.0498687 -1.8890878
-5.152988 0.92572689 -1.8888929
-5.2166357 0.4248004 -1.8883232
-5.225112 0.29882261 -1.8882334
-5.2306104 0.17268859 -1.8881649
-5.23313 0.046459962 -1.8881177
-5.2291942 -0.20599182 -1.8880868
-5.2227488 -0.33207092 -1.8881035
-5.213325 -0.45797119 -1.8881413
-5.167212 -0.83386779 -1.8883822
-5.1217041 -1.082268 -1.8886484
-5.0945554 -1.2056091 -1.8888131
-5.0644822 -1.3282812 -1.8889986
-5.0315185 -1.4502215 -1.8892051
-4.9569626 -1.6916289 -1.88968
-4.8710446 -1.9293127 -1.8902365
-4.72124 -2.2776799 -1.8912224
-4.6658349 -2.391371 -1.8915905
-4.4835792 -2.7242649 -1.8928111
-4.4175978 -2.8322933 -1.8932558
-4.3490577 -2.9387524 -1.8937191
-3.9692383 -3.4454336 -1.8963063
-3.3412988 -4.0728121 -1.9006326
-3.0413768 -4.3084712 -1.9027138
-2.9376757 -4.3822474 -1.9034351
-2.832207 -4.4535589 -1.9041696
-2.7250097 -4.5223575 -1.9049171
-2.5057225 -4.652266 -1.9064486
-2.3937695 -4.7132864 -1.9072317
-2.2803223 -4.7716475 -1.9080261
-2.1654687 -4.8273034 -1.9088312
-1.5722754 -5.0638394 -1.9130009
-1.3274121 -5.138413 -1.9147274
-1.2036426 -5.1712985 -1.9156013
-1.0790429 -5.20122 -1.9164817
-0.95368165 -5.2281504 -1.9173683
-0.70107418 -5.2729807 -1.9191569
-0.57393551 -5.2908435 -1.9200583
-0.4463574 -5.3056479 -1.9209634
-0.19012696 -5.3260455 -1.9227835
0.45322263 -5.3228812 -1.9273663
0.58176756 -5.3129306 -1.928284
0.71010739 -5.2998686 -1.9292011
0.96580076 -5.264442 -1.9310305
1.0930371 -5.2420859 -1.9319417
1.2197461 -5.2166452 -1.9328501
1.595996 -5.1219397 -1.9355519
1.719873 -5.0842872 -1.9364429
1.8428613 -5.0436277 -1.9373283
1.9648827 -4.9999757 -1.9382076
2.2057323 -4.9037828 -1.9399452
2.6725879 -4.6765757 -1.9433231
3.1158886 -4.4046106 -1.9465437
3.4302831 -4.1726742 -1.9488367
3.5312598 -4.0902624 -1.9495752
3.7271874 -3.9180694 -1.9510106
3.8219628 -3.8283865 -1.9517065
3.9145606 -3.7363873 -1.9523873
4.0049314 -3.642108 -1.9530529
4.0929785 -3.5456176 -1.9537023
4.2619629 -3.3462214 -1.9549524
4.3427634 -3.2434399 -1.9555517
4.5698924 -2.9234414 -1.9572439
4.7080469 -2.7010643 -1.9582795
4.7730274 -2.5873513 -1.9587688
4.8945603 -2.3552325 -1.9596884
5.0046091 -2.1173391 -1.9605274
5.1891112 -1.6264795 -1.9619558
5.2630758 -1.3747205 -1.9625411
5.2954197 -1.2475336 -1.9628012
5.3506541 -0.99090695 -1.9632543
2.6790624 0.091137081 -0.96712172
2.665293 0.15510559 -0.96322048
5.3025193 1.2247949 -1.9634271
5.2708883 1.3522069 -1.9632316
5.2361522 1.4788024 -1.9630138
5.1574121 1.7291718 -1.9625113
5.0165429 2.0965991 -1.9615933
4.9636035 2.2166114 -1.9612443
4.8490329 2.452481 -1.9604832
4.7874608 2.5681927 -1.9600717
4.7230759 2.6823394 -1.9596395
4.6559176 2.7948511 -1.9591876
4.5134959 3.014677 -1.9582243
4.3605175 3.2271314 -1.9571844
4.2802048 3.3304491 -1.9566363
4.1974025 3.4317334 -1.9560702
4.0245605 3.6279895 -1.9548849
3.9346385 3.7228308 -1.9542667
3.7480273 3.9056995 -1.9529802
3.6514647 3.9936121 -1.9523128
3.4521778 4.1621265 -1.9509326
3.3495409 4.2426462 -1.9502205
3.1386621 4.395947 -1.9487542
3.0016406 4.4260402 -1.929425
2.7051659 4.4353232 -1.8743458
2.562871 4.4394946 -1.8494375
2.2890038 4.4476428 -1.8046832
2.1626172 4.463479 -1.7894146
2.053457 4.5124168 -1.7886485
1.9431542 4.5586572 -1.7878737
1.7194922 4.6429811 -1.7863004
1.4922167 4.7162766 -1.7846987
1.2618555 4.7783971 -1.7830726
0.91174805 4.8503895 -1.780596
0.79410154 4.8686914 -1.7797624
0.32073241 4.9132504 -1.7764013
0.083291017 4.9183154 -1.7747114
-0.035361327 4.9165516 -1.7738659
-0.2721875 4.9044471 -1.7721765
-0.39023438 4.8941259 -1.7713335
-0.50792968 4.8809681 -1.7704921
-0.62523437 4.8649879 -1.769653
-0.74204099 4.8461986 -1.7688165
-0.85833007 4.8246155 -1.7679833
-0.9740234 4.8002477 -1.7671537
-1.2032812 4.7432618 -1.7655078
-1.4293164 4.6753979 -1.7638819
-2.2283204 4.4353528 -1.7908105
-2.3617284 4.4310851 -1.8115695
-2.9218163 4.4000096 -1.9055922
-3.0258887 4.3265333 -1.9048339
-3.1281738 4.2506113 -1.9040878
-3.326997 4.09166 -1.9026347
-3.4234667 4.008728 -1.9019283
-3.5178857 3.9235523 -1.9012361
-3.6102147 3.8361804 -1.9005581
-4.0388718 3.3682628 -1.8973963
-4.1940722 3.1676264 -1.8962443
-4.2680225 3.0646386 -1.8956937
-4.3394823 2.9599621 -1.8951603
-4.4084277 2.8536389 -1.8946444
-4.7140284 2.2996204 -1.8923391
-4.7671094 2.1847746 -1.8919343
-4.9908009 1.593805 -1.8902035
-5.0908346 1.2282238 -1.8894061
-5.1183691 1.10492 -1.8891814
-5.1429882 0.98103023 -1.8889772
-5.1646433 0.85660583 -1.8887939
-5.1833639 0.73170227 -1.8886316
-5.2118993 0.48079041 -1.8883699
-5.2285399 0.22882995 -1.8881927
-5.2332325 -0.023613282 -1.8881005
-5.2259812 -0.27599183 -1.8880935
-5.2068014 -0.52775145 -1.8881716
-5.192749 -0.65322143 -1.8882425
-5.1757374 -0.77832764 -1.8883343
-5.1557617 -0.90301329 -1.8884475
-5.1328464 -1.0271887 -1.888582
-5.0782275 -1.2737836 -1.8889135
-5.0119772 -1.5175629 -1.8893286
-4.6339159 -2.4539099 -1.8918033
-4.5121045 -2.6757109 -1.8926191
-4.379868 -2.8915768 -1.8935107
-4.309917 -2.9971416 -1.8939843
-4.0852051 -3.3036134 -1.8955134
-4.0054932 -3.4021747 -1.8960583
-3.9234033 -3.4988496 -1.8966203
-3.8390379 -3.5935669 -1.897199
-3.572583 -3.8655014 -1.8990334
-3.3842969 -4.0360799 -1.9003347
-3.1879883 -4.1976118 -1.9016954
-3.0869532 -4.2748661 -1.9023969
-2.9840233 -4.3497286 -1.9031124
-2.555078 -4.624259 -1.9061036
-2.4437792 -4.6864591 -1.9068817
-2.3309863 -4.7460122 -1.9076713
-2.216748 -4.8028736 -1.9084716
-1.7466992 -5.0027528 -1.9117727
-1.6262403 -5.0456696 -1.9126208
-1.3822168 -5.1228337 -1.9143407
-0.37538084 -5.3125439 -1.9214672
0.009765625 -5.3333721 -1.9242054
0.7812109 -5.2912793 -1.9297096
0.90904295 -5.273397 -1.9306242
1.2898145 -5.2011981 -1.9333529
1.5406152 -5.1377168 -1.9351537
1.9107324 -5.0197668 -1.9378172
2.2717481 -4.8750086 -1.9404221
2.3897264 -4.8209043 -1.941275
2.5064063 -4.7639289 -1.9421192
2.6217382 -4.7041006 -1.9429547
2.7356153 -4.6414618 -1.9437802
2.8479686 -4.5760446 -1.9445956
2.9587598 -4.5078745 -1.9454005
3.2809179 -4.2872896 -1.9477463
3.384707 -4.2085376 -1.9485039
3.4865918 -4.1272359 -1.9492483
3.6843164 -3.9572103 -1.9506961
3.7800586 -3.8685777 -1.9513986
4.0540819 -3.5888166 -1.9534153
4.2252049 -3.3913014 -1.9546801
4.5376759 -2.9719644 -1.9570031
4.6782517 -2.7511284 -1.9580557
4.868506 -2.4073992 -1.9594907
4.9262695 -2.2897635 -1.9599295
4.9811325 -2.1707327 -1.9603479
5.0330663 -2.050354 -1.9607458
5.0820408 -1.9287256 -1.961123
5.1280274 -1.8059045 -1.9614789
5.1709862 -1.6819623 -1.9618138
5.247695 -1.4310418 -1.9624187
5.3120017 -1.1765972 -1.9629359
5.3394532 -1.0482293 -1.9631612
5.36374 -0.91922116 -1.963364
2.6748438 -0.066833496 -0.96534222
2.6734667 0.062221069 -0.9648025
2.6759276 0.12692139 -0.96651471
5.3665233 0.91026306 -1.9638097
5.3155565 1.1678461 -1.9635067
5.1759958 1.6738189 -1.9626306
5.1333885 1.7979321 -1.9623562
5.0391407 2.042788 -1.9617418
4.9875193 2.1633708 -1.9614023
4.9329686 2.2826378 -1.9610416
4.8152146 2.5168986 -1.9602574
4.7520704 2.6317523 -1.9598345
4.3954391 3.1805298 -1.9574221
4.2345505 3.3869238 -1.9563242
3.8837304 3.7745056 -1.953916
3.7902832 3.8658214 -1.9532717
3.5969822 4.0413609 -1.9519359
3.3954492 4.20713 -1.9505392
3.2917578 4.2862315 -1.949819
3.1862109 4.3627429 -1.9490852
2.917666 4.4287477 -1.9134021
2.769707 4.4333715 -1.8859771
2.6257226 4.4376755 -1.8603135
2.3485644 4.4454136 -1.8139044
2.1021483 4.4909678 -1.7889905
1.9923437 4.5384169 -1.7882195
1.881494 4.5831528 -1.7874403
1.5430664 4.7009301 -1.7850573
1.428584 4.7346411 -1.7842498
1.0809765 4.8189039 -1.7817938
0.6104883 4.8914647 -1.77846
0.49208984 4.9024487 -1.7776192
0.017431641 4.9176917 -1.7742422
-0.21957031 4.9081287 -1.7725521
-0.45561522 4.8871717 -1.770866
-0.92261714 4.8114328 -1.7675226
-1.3793261 4.6914268 -1.7642417
-1.4914355 4.6546607 -1.7634349
-1.6025488 4.615232 -1.7626343
-1.9295019 4.4812584 -1.7602746
-2.1698828 4.4371619 -1.7820359
-2.3019824 4.4330187 -1.8021545
-3.1841016 4.2074413 -1.9036793
-3.2834277 4.1278358 -1.9029535
-3.3807859 4.045908 -1.902241
-3.5693896 3.8753259 -1.9008582
-3.6605518 3.7867577 -1.9001881
-3.7495313 3.6960814 -1.8995334
-4.0829101 3.3133092 -1.8970699
-4.5105371 2.6852045 -1.8938781
-4.5728517 2.5749805 -1.8934087
-4.6325293 2.4633257 -1.8929577
-4.7438278 2.2360241 -1.8921121
-4.7953954 2.1205053 -1.8917179
-4.8902001 1.8860217 -1.8909881
-4.9333887 1.7671978 -1.8906529
-5.0459032 1.4051758 -1.8897673
-5.1064792 1.1598675 -1.8892787
-5.1754103 0.78733397 -1.8887011
-5.2065721 0.53671998 -1.8884208
-5.23104 0.158797 -1.8881587
-5.2324171 -0.093683466 -1.88809
-5.2286377 -0.21987304 -1.8880876
-5.183672 -0.7227118 -1.8882908
-5.0913868 -1.2191387 -1.8888324
-5.0610008 -1.3417401 -1.8890203
-5.02771 -1.4635931 -1.8892291
-4.8659811 -1.9422766 -1.8902696
-4.7682567 -2.1754453 -1.8909112
-4.601172 -2.5160303 -1.8920219
-4.5401268 -2.6268549 -1.892431
-4.2700148 -3.055017 -1.894255
-4.0412498 -3.3585522 -1.8958137
-3.6133349 -3.8263617 -1.8987525
-3.3306103 -4.0818295 -1.9007064
-3.132129 -4.240788 -1.902083
-3.0300488 -4.3167129 -1.9027925
-2.8204882 -4.4612532 -1.9042513
-2.7131152 -4.5297723 -1.905
-2.6041014 -4.5957389 -1.9057611
-2.3813379 -4.7198453 -1.9073187
-2.1527538 -4.833261 -1.9089204
-2.0363867 -4.8858762 -1.9097369
-1.7999414 -4.9827347 -1.9113983
-1.6799608 -5.026926 -1.9122425
-1.558916 -5.0682464 -1.913095
-1.4368457 -5.1066747 -1.9139555
-1.3138379 -5.1421776 -1.9148233
-1.189961 -5.1747355 -1.9156979
-0.93985349 -5.2309332 -1.917466
-0.81376952 -5.2545285 -1.9183587
-0.68709958 -5.275095 -1.919256
-0.55992186 -5.2926221 -1.9201576
-0.43228516 -5.3070898 -1.9210633
-0.30430663 -5.3184891 -1.9219722
0.33870116 -5.3291235 -1.9265492
0.85221678 -5.2817349 -1.9302175
0.97984374 -5.2621331 -1.9311309
1.4850781 -5.152895 -1.9347547
1.6096679 -5.1179438 -1.9356502
1.7334667 -5.0799613 -1.9365406
2.3373828 -4.8453369 -1.9408964
2.570586 -4.7310743 -1.942584
2.6851366 -4.6696758 -1.9434141
2.7981834 -4.6054926 -1.9442341
3.2341602 -4.3215032 -1.9474053
3.4415038 -4.1637244 -1.9489187
3.5422754 -4.0810308 -1.9496558
3.6410253 -3.9958835 -1.9503788
4.102529 -3.5348623 -1.953773
4.1879587 -3.4359806 -1.9544044
4.4295216 -3.1270123 -1.9561967
4.5777636 -2.911387 -1.9573027
4.715332 -2.6886251 -1.9583343
4.8418946 -2.4592602 -1.9592891
4.9570899 -2.2238629 -1.9601644
5.0103126 -2.1040835 -1.9605713
5.1079297 -1.8606936 -1.961323
5.152236 -1.737246 -1.9616674
5.2316895 -1.4872015 -1.9622915
5.2667966 -1.3607647 -1.962571
5.2987695 -1.2334771 -1.9628283
5.3276267 -1.1054351 -1.9630636
2.6792967 -0.095729366 -0.96726227
2.6606836 0.033355713 -0.96000922
2.6793261 0.098267213 -0.96730596
2.6615624 0.16198486 -0.96202344
5.353652 0.98198909 -1.9637347
5.3279881 1.1107678 -1.9635822
5.29917 1.2388531 -1.9634067
5.2321286 1.4926782 -1.9629883
5.193965 1.6182488 -1.9627457
5.1084471 1.8663524 -1.9621943
4.9014354 2.3482373 -1.9608321
4.7805176 2.5808446 -1.9600252
4.6483688 2.8071282 -1.9591366
4.5053415 3.0265617 -1.9581689
4.429873 3.1335437 -1.9576565
4.3518066 3.2386065 -1.9571249
4.2712107 3.3416967 -1.9565748
3.9245994 3.7331395 -1.9541975
3.7375097 3.9154956 -1.9529073
3.4409473 4.1711206 -1.9508548
3.2333887 4.3290234 -1.9494133
3.1268456 4.4040818 -1.9486719
2.9848731 4.4265842 -1.9262022
2.8350291 4.4313536 -1.8979558
2.689326 4.4357972 -1.8715214
2.5474315 4.4399366 -1.8467953
2.4090722 4.4437876 -1.8236881
2.1506348 4.4690003 -1.7893306
2.0413282 4.5176377 -1.7885635
1.9309472 4.5635829 -1.787788
1.4795996 4.7199879 -1.7846099
1.364707 4.7521434 -1.7837991
1.2490917 4.7814918 -1.7829826
1.1328613 4.8080115 -1.7821609
1.0160937 4.8317027 -1.7813348
0.78113282 4.8705282 -1.7796704
0.66310543 4.8856554 -1.7788333
0.54481447 4.8979187 -1.7779937
0.30764648 4.9138269 -1.7763083
0.070224606 4.9182653 -1.7746185
-0.52087891 4.8793468 -1.7703995
-0.98668945 4.7973986 -1.7670628
-1.101621 4.7699728 -1.7662379
-1.4416796 4.6713486 -1.7637931
-1.663789 4.5922084 -1.7621928
-1.7732617 4.5486984 -1.761403
-1.8816308 4.5025988 -1.7606204
-2.242871 4.434896 -1.7930266
-2.5134473 4.4260144 -1.8363639
-2.9333692 4.3920422 -1.905508
-3.3377099 4.0826488 -1.9025563
-3.5281494 3.9140379 -1.9011607
-3.620244 3.8264356 -1.9004844
-3.7979736 3.6448584 -1.8991765
-3.883496 3.551007 -1.8985455
-4.0476561 3.3574145 -1.8973312
-4.2023387 3.1563721 -1.8961828
-4.3472018 2.9483325 -1.8951026
-4.4158545 2.8418431 -1.8945888
-4.545444 2.6242034 -1.8936154
-4.6063085 2.5131824 -1.8931559
-4.6645117 2.4007726 -1.8927152
-4.772788 2.1720507 -1.891891
-5.0638766 1.3373828 -1.8896235
-5.1212254 1.091319 -1.8891578
-5.1455078 0.96736449 -1.888956
-5.2131395 0.46694028 -1.8883578
-5.2226124 0.34103575 -1.8882611
-5.229116 0.21494018 -1.8881854
-5.225234 -0.2898657 -1.8880955
-5.2053905 -0.54157346 -1.8881783
-5.1533837 -0.91670287 -1.8884615
-5.0748777 -1.2872747 -1.8889343
-5.0428805 -1.4094739 -1.8891336
-5.007998 -1.5308838 -1.8893539
-4.9702392 -1.6514611 -1.8895947
-4.9296436 -1.7711157 -1.8898561
-4.8862205 -1.8897913 -1.8901376
-4.7909617 -2.1239626 -1.8907615
-4.7391891 -2.2393277 -1.8911035
-4.6846876 -2.3534441 -1.8914649
-4.5676122 -2.5777206 -1.8922466
-4.5050974 -2.6877468 -1.8926662
-4.4399853 -2.796294 -1.8931047
-4.0765529 -3.3145502 -1.8955724
-3.9142234 -3.5093703 -1.8966831
-3.8295996 -3.6038756 -1.8972639
-3.6536767 -3.7867968 -1.8984743
-3.1769531 -4.2062311 -1.9017718
-3.0757031 -4.2832303 -1.9024751
-2.9726074 -4.3578162 -1.9031919
-2.7611132 -4.499599 -1.9046654
-2.6528027 -4.5667038 -1.9054211
-2.5429003 -4.6312366 -1.9061887
-2.4314356 -4.6931453 -1.9069682
-2.0883203 -4.8628054 -1.9093723
-1.9712695 -4.913877 -1.910194
-1.7334863 -5.0076122 -1.9118658
-1.6129102 -5.0502162 -1.9127146
-1.3686913 -5.1267438 -1.9144361
-1.2451757 -5.1606102 -1.9153079
-1.1208594 -5.1915307 -1.9161862
-0.99575192 -5.21947 -1.9170707
-0.36129883 -5.3137975 -1.9215673
0.53874022 -5.316608 -1.9279768
0.92308593 -5.2712364 -1.9307247
1.0504785 -5.2499146 -1.9316369
1.3036718 -5.1980247 -1.9334522
1.4293652 -5.1674714 -1.9343545
1.8017774 -5.05758 -1.9370325
1.9241406 -5.014925 -1.9379139
2.0454493 -4.9692979 -1.9387884
2.2847948 -4.8691912 -1.9405164
2.4026368 -4.8147788 -1.9413683
2.5191796 -4.7574854 -1.9422115
2.6343455 -4.6973453 -1.943046
2.7480469 -4.6343937 -1.9438703
2.8602538 -4.5686765 -1.9446847
3.0798047 -4.4290347 -1.946281
3.1870117 -4.3551974 -1.9470618
3.3960254 -4.199708 -1.9485863
3.4976757 -4.1181269 -1.9493294
3.5973339 -4.0340776 -1.9500587
3.6949511 -3.9475732 -1.9507741
3.7904785 -3.8586731 -1.9514751
3.8837988 -3.7674551 -1.9521611
3.9749119 -3.6739287 -1.9528316
4.1502342 -3.4802456 -1.9541255
4.2343259 -3.3801913 -1.9547476
4.3159766 -3.2780733 -1.9553529
4.3951173 -3.1739593 -1.9559408
4.6170311 -2.8502471 -1.9575967
2.8942871 4.1237254 -1.9469504
2.6900389 4.2554016 -1.9455264
2.3665233 4.4223962 -1.9383436
2.2329102 4.4261537 -1.915818
2.1021776 4.4296398 -1.8948188
1.7252636 4.4385657 -1.8403023
1.4846972 4.443347 -1.8104513
0.92374998 4.5140452 -1.7806032
0.7043457 4.5493698 -1.7790487
0.48368162 4.5740147 -1.7774829
0.3730371 4.5823255 -1.7766969
0.04064453 4.5911841 -1.7743316
-0.2910547 4.5759897 -1.7719656
-0.51097655 4.5525851 -1.770394
-0.6203711 4.5369287 -1.7696111
-1.0540625 4.4537573 -1.7687026
-1.1660058 4.4454112 -1.7760454
-1.395664 4.436738 -1.797411
-1.5132519 4.4339366 -1.8105407
-2.0026758 4.4203773 -1.8753979
-2.1306641 4.4163499 -1.8949515
-2.3593163 4.3417139 -1.9095848
-2.4624023 4.2818565 -1.9088366
-2.5639942 4.2195811 -1.9080986
-2.8591602 4.0185986 -1.9059497
-2.9541893 3.9470215 -1.9052562
-3.047451 3.8732226 -1.9045749
-3.4018164 3.5567248 -1.9019773
-3.485498 3.472501 -1.9013617
-3.6466358 3.2982922 -1.9001735
-3.7240233 3.2083941 -1.8996016
-3.7992187 3.1167161 -1.8990446
-3.9429004 2.9282031 -1.8979774
-4.0113034 2.8314781 -1.8974676
-4.0773826 2.7331817 -1.8969741
-4.1410789 2.6333654 -1.8964975
-4.2612453 2.4294121 -1.8955941
-4.3176417 2.3253887 -1.8951681
-4.4229102 2.1135466 -1.8943691
-4.5179639 1.8970361 -1.8936418
-4.5615964 1.7871814 -1.8933054
-4.6766796 1.451961 -1.8924078
-4.739995 1.2243841 -1.891904
-4.7924509 0.99411619 -1.8914768
-4.8145652 0.87813717 -1.8912922
-4.8643408 0.5275659 -1.8908561
-4.8753757 0.41004881 -1.8907501
-4.8890867 0.17441344 -1.8905977
-4.8916211 -0.061594848 -1.8905247
-4.8886862 -0.17957519 -1.8905182
-4.8829832 -0.29745299 -1.8905313
-4.8744726 -0.41516295 -1.8905646
-4.8490868 -0.6498242 -1.8906907
-4.8126364 -0.88304073 -1.890896
-4.7902589 -0.99894714 -1.8910284
-4.765151 -1.1143017 -1.8911804
-4.737319 -1.2290356 -1.8913519
-4.6375828 -1.5689026 -1.8919832
-4.5989943 -1.6805365 -1.8922321
-4.5577683 -1.7912408 -1.8924998
-4.418447 -2.1171558 -1.893416
-4.3668799 -2.2235253 -1.8937587
-4.1971726 -2.5350015 -1.8948948
-4.0718503 -2.7357063 -1.8957406
-4.0056105 -2.8338068 -1.8961896
-3.9370604 -2.9303255 -1.8966554
-3.8662109 -3.0252161 -1.8971379
-3.6402881 -3.2995534 -1.8986831
-3.4789402 -3.473316 -1.8997918
-3.3951757 -3.5573082 -1.9003688
-3.2216845 -3.7192662 -1.9015667
-2.9472461 -3.9464335 -1.9034685
-2.75542 -4.0868516 -1.9048018
-2.4553516 -4.2800984 -1.9068938
-2.3522949 -4.3397207 -1.9076141
-2.2477832 -4.3968863 -1.9083451
-1.9262207 -4.5532861 -1.9105989
-1.8165624 -4.6002836 -1.911369
-1.7057519 -4.6446576 -1.9121478
-1.4809766 -4.7254291 -1.9137298
-1.3671288 -4.7617731 -1.9145321
-1.2524121 -4.7953954 -1.9153415
-1.0205274 -4.8543644 -1.9169793
-0.90351558 -4.8796773 -1.9178066
-0.78588867 -4.9021802 -1.9186392
-0.66769528 -4.9218578 -1.9194764
-0.54901367 -4.9386978 -1.9203178
-0.42991209 -4.9526834 -1.9211627
-0.31045899 -4.9638038 -1.9220109
-0.19071288 -4.9720483 -1.9228617
-0.070742182 -4.9774103 -1.9237149
0.16955078 -4.9794574 -1.9254259
0.40988281 -4.9699035 -1.9271399
0.52988279 -4.9607749 -1.9279965
0.76920897 -4.9338212 -1.9297073
1.2431836 -4.8452659 -1.9331036
1.3602929 -4.8159637 -1.9339443
1.4767187 -4.7838168 -1.9347812
1.5923632 -4.7488451 -1.9356129
1.9340625 -4.6271477 -1.9380747
2.0459571 -4.5810547 -1.9388824
2.1567481 -4.5322413 -1.9396828
2.266377 -4.4807262 -1.9404756
2.8957911 -4.1166248 -1.945043
3.0932715 -3.9751096 -1.9464825
3.189414 -3.9007399 -1.9471846
3.3761914 -3.7450001 -1.9485509
3.6417968 -3.4945536 -1.9505011
3.808496 -3.3169284 -1.9517295
3.8885937 -3.2250676 -1.9523214
4.2543259 -2.7375243 -1.9550396
4.383574 -2.5304036 -1.9560083
4.444375 -2.4244921 -1.9564661
4.5025878 -2.3170943 -1.9569056
4.5581541 -2.2082849 -1.9573267
4.6612401 -1.9866695 -1.9581125
4.2838573 2.6982653 -1.9565153
4.1467676 2.9003582 -1.9555858
3.9999902 3.0953996 -1.9545858
3.9231153 3.19013 -1.9540604
3.8439355 3.2829266 -1.9535182
3.5933104 3.54916 -1.9517951
3.5055761 3.6336753 -1.95119
3.3240819 3.7960827 -1.9499353
3.2304785 3.8738756 -1.9492868
3.1350195 3.949331 -1.9486244
2.9388573 4.093071 -1.9472607
2.8382518 4.161273 -1.94656
2.5270801 4.3507566 -1.944388
2.420459 4.4087596 -1.943642
2.2919922 4.4245176 -1.9256479
1.9041601 4.4345407 -1.865032
1.5375781 4.4423594 -1.8166698
1.4192187 4.444519 -1.8030233
0.86300778 4.5249171 -1.7801732
0.75330079 4.5424328 -1.7793957
0.53286129 4.569459 -1.7778322
0.20078124 4.5899243 -1.7754718
0.089941405 4.5913916 -1.7746828
-0.020781249 4.5901828 -1.773894
-0.24196288 4.5797558 -1.7723161
-0.35222656 4.5705566 -1.7715287
-0.4621582 4.5587072 -1.770743
-0.57174802 4.5442185 -1.7699591
-0.78955078 4.5073791 -1.7683994
-1.2284961 4.4404283 -1.7804676
-1.3438574 4.4379148 -1.7919396
-1.4607421 4.4352098 -1.8045545
-1.5792577 4.4322839 -1.8183386
-1.8219726 4.4257264 -1.8495884
-1.9465234 4.4220824 -1.8671495
-2.0734179 4.4181776 -1.8860766
-2.2028906 4.4139967 -1.9064296
-2.5189648 4.2475891 -1.9084258
-2.7188377 4.1180115 -1.9069722
-2.816328 4.0497165 -1.906262
-2.9121387 3.9791467 -1.9055634
-3.2773633 3.6748888 -1.9028912
-3.3639355 3.5935607 -1.9022557
-3.4485204 3.5102208 -1.9016339
-3.5310545 3.424917 -1.9010262
-3.6115136 3.3377013 -1.9004328
-3.6898582 3.24862 -1.8998542
-3.7660351 3.1577282 -1.8992904
-3.9117088 2.9707227 -1.8982095
-4.3478661 2.2670946 -1.8949394
-4.4977145 1.9455853 -1.8937973
-4.6242285 1.6144214 -1.8928192
-4.7268457 1.2752661 -1.8920094
-4.7556443 1.1607281 -1.8917776
-4.805068 0.92980647 -1.8913718
-4.8434715 0.69685119 -1.8910441
-4.8708105 0.46236998 -1.8907948
-4.8869967 0.22688903 -1.8906248
-4.8216944 -0.83130676 -1.8908436
-4.8005514 -0.94743836 -1.890967
-4.7500391 -1.178064 -1.8912731
-4.7206931 -1.2924237 -1.8914555
-4.6886473 -1.4060748 -1.8916574
-4.6539111 -1.5189465 -1.8918785
-4.488452 -1.9613934 -1.8929539
-4.3371677 -2.2820404 -1.8939567
-4.2816992 -2.3864625 -1.8943275
-4.1633544 -2.5912888 -1.8951226
-4.1005516 -2.6915681 -1.8955466
-3.9678466 -2.8875759 -1.896446
-3.8980126 -2.9831979 -1.8969212
-3.825913 -3.077157 -1.8974128
-3.6750391 -3.2598774 -1.8984448
-3.5963573 -3.348531 -1.8989844
-3.4327049 -3.520175 -1.9001101
-3.260957 -3.6839366 -1.9012951
-3.172168 -3.7627454 -1.9019092
-3.0814941 -3.8394394 -1.902537
-2.9889941 -3.9139757 -1.9031787
-2.7009668 -4.1241989 -1.9051809
-2.5007617 -4.2527862 -1.906577
-2.39833 -4.3134918 -1.9072922
-2.2944629 -4.371757 -1.9080185
-2.1891797 -4.4275422 -1.9087554
-2.0825586 -4.4808149 -1.9095024
-1.9746484 -4.5315423 -1.910259
-1.7551953 -4.6252398 -1.9118001
-1.1883692 -4.8128705 -1.9157934
-0.83830076 -4.8925133 -1.9182681
-0.72035152 -4.9134507 -1.9191034
-0.48295897 -4.9468136 -1.9207863
-0.24402343 -4.9687352 -1.9224828
-0.0040917969 -4.9791389 -1.9241892
0.23626952 -4.9779682 -1.9259014
0.83541989 -4.9242883 -1.930181
1.0728906 -4.8825617 -1.931882
1.1908789 -4.8573837 -1.9327282
1.3082714 -4.8293548 -1.9335709
1.5410058 -4.7647557 -1.9352435
1.996289 -4.6019015 -1.9385238
2.1075976 -4.5542951 -1.9393276
2.2177539 -4.5039783 -1.940124
2.3266993 -4.4509807 -1.9409121
2.4343653 -4.3953228 -1.9416919
2.6456249 -4.276166 -1.9432242
2.8509569 -4.1467786 -1.9447168
2.9512694 -4.07833 -1.9454472
3.0499218 -4.007431 -1.9461662
3.1468456 -3.9341214 -1.9468735
3.3352928 -3.7804451 -1.9482515
3.603574 -3.532934 -1.9502199
4.2242088 -2.7827137 -1.9548146
4.2912207 -2.6806939 -1.9553157
4.3557029 -2.5770378 -1.9557989
4.4176464 -2.4718051 -1.9562647
4.5337501 -2.2568676 -1.9571416
4.5878415 -2.1473045 -1.9575523
4.6559472 2.0048754 -1.9590038
4.5522165 2.22632 -1.9583166
4.4963474 2.3350389 -1.957944
4.3766794 2.5481396 -1.9571414
4.1781054 2.8559911 -1.9557987
4.1069727 2.9552166 -1.9553152
4.0334668 3.0526409 -1.9548144
3.716455 3.4232554 -1.9526429
3.544873 3.5963366 -1.9514612
3.4560058 3.6796422 -1.9508477
3.2723827 3.8395469 -1.949577
3.1777344 3.916045 -1.9489208
2.9830859 4.0619321 -1.9475684
2.8832128 4.1312327 -1.9468733
2.6786621 4.2623558 -1.9454468
2.0879591 4.4300075 -1.8925979
1.7118261 4.4388537 -1.8385298
1.4716699 4.4435825 -1.8089491
1.1294531 4.4709044 -1.7820582
1.0208496 4.4949098 -1.7812903
0.80216795 4.5349655 -1.7797421
0.58199215 4.5643702 -1.7781808
0.47152343 4.5750647 -1.7773966
0.36085936 4.583075 -1.7766103
0.1392578 4.5910692 -1.7750338
0.028398437 4.5910487 -1.7742443
-0.082255855 4.5883546 -1.7734556
-0.41328123 4.5643039 -1.7710925
-0.52301759 4.5509925 -1.7703079
-0.63237303 4.5350428 -1.7695253
-0.74126953 4.5164747 -1.7687454
-1.2923633 4.4390488 -1.786693
-1.4085351 4.4364405 -1.7987998
-1.5262988 4.4336119 -1.8120571
-1.6458203 4.4305592 -1.8265089
-1.7672753 4.4272704 -1.8421975
-1.8908203 4.4237366 -1.8591703
-2.2663574 4.3929114 -1.9102588
-2.3707421 4.3352418 -1.9095019
-2.5750682 4.2125807 -1.9080181
-2.8697166 4.0108275 -1.9058726
-3.0576074 3.8649669 -1.9045005
-3.1488476 3.7887573 -1.9038329
-3.2382176 3.7104137 -1.9031783
-3.411123 3.5475512 -1.901909
-3.494575 3.4631128 -1.9012948
-3.6552637 3.288482 -1.9001098
-3.7324023 3.1983929 -1.8995395
-3.950542 2.9176323 -1.8979205
-4.0186963 2.8207304 -1.8974125
-4.0845165 2.7222643 -1.8969209
-4.1479588 2.6222856 -1.8964458
-4.2675781 2.4180243 -1.8955462
-4.3237009 2.3138611 -1.8951223
-4.3773146 2.2084148 -1.894716
-4.4284129 2.1017432 -1.8943272
-4.6069627 1.664085 -1.8929538
-4.6450291 1.5522254 -1.8926566
-4.6804442 1.4395099 -1.8923781
-4.7131491 1.3260021 -1.8921188
-4.7431688 1.2117755 -1.8918784
-4.8656931 0.5146417 -1.8908435
-4.8764305 0.39709595 -1.8907397
-4.8895164 0.16142821 -1.8905915
-4.8881931 -0.19255859 -1.8905185
-4.8821726 -0.3104187 -1.890534
-4.861753 -0.54555786 -1.8906248
-4.8302197 -0.77948421 -1.890795
-4.8102927 -0.89582336 -1.8909097
-4.7876315 -1.0116736 -1.8910443
-4.7622166 -1.1269635 -1.8911984
-4.7032423 -1.355603 -1.8915652
-4.4621921 -2.0215032 -1.893127
-4.4128904 -2.1289246 -1.893453
-4.3066797 -2.3401613 -1.8941603
-4.1905274 -2.5462003 -1.8949395
-4.0646677 -2.7465847 -1.8957893
-3.9293699 -2.9408514 -1.8967078
-3.6316357 -3.3093092 -1.8987423
-3.4698193 -3.4826586 -1.8998545
-3.3858299 -3.5664325 -1.9004333
-3.1220703 -3.805578 -1.9022561
-2.9368553 -3.9543991 -1.9035405
-2.8416307 -4.0254908 -1.9042022
-2.7446485 -4.0943151 -1.9048768
-2.646045 -4.1608329 -1.9055636
-2.54583 -4.2250023 -1.9062625
-2.4440918 -4.2867789 -1.9069726
-2.3408594 -4.3461351 -1.9076941
-2.0228124 -4.5092878 -1.9099212
-1.6934961 -4.6493793 -1.9122339
-1.4684863 -4.7295632 -1.9138179
-1.0076855 -4.8572884 -1.9170699
-0.89059567 -4.8822913 -1.9178981
-0.77291012 -4.9044852 -1.9187311
-0.41678709 -4.9540472 -1.9212559
-0.29728514 -4.9648542 -1.9221045
-0.17751953 -4.9727793 -1.9229556
-0.057539061 -4.9778233 -1.9238091
0.1827832 -4.9792314 -1.9255202
0.42310545 -4.9690428 -1.9272342
0.66286129 -4.9472446 -1.9289469
0.78235352 -4.9320025 -1.9298013
0.90148437 -4.9138665 -1.930654
1.0202246 -4.8928409 -1.9315046
1.605039 -4.7448235 -1.935704
1.7197753 -4.7067323 -1.9365301
1.946416 -4.6222081 -1.9381639
2.0582128 -4.5758152 -1.9389709
2.278379 -4.4748893 -1.9405624
2.3866112 -4.4204154 -1.941346
2.4935546 -4.3632994 -1.9421209
2.5991015 -4.3035736 -1.9428866
2.7032323 -4.2412739 -1.9436427
3.0062304 -4.0392771 -1.9458477
3.1998925 -3.8924084 -1.9472612
3.7353904 -3.3969853 -1.9511904
3.9748535 -3.1208107 -1.95296
4.1230664 -2.9271173 -1.9540607
4.1936035 -2.8275714 -1.9545861
4.3416505 2.6062024 -1.9569054
3.8351073 3.293026 -1.9534576
3.7534666 3.383606 -1.9528973
3.6696582 3.4721313 -1.9523209
3.5837598 3.5585692 -1.9517294
3.405791 3.7249291 -1.9505006
3.3138769 3.8047595 -1.9498645
3.2200487 3.8822949 -1.9492145
3.124414 3.9574938 -1.9485507
3.0269921 4.0303102 -1.9478738
2.9278514 4.100698 -1.9471841
2.7246776 4.2340565 -1.9457681
2.6207714 4.2969518 -1.9450428
2.5153906 4.3572679 -1.9443063
2.2773046 4.4249277 -1.9231881
2.1456542 4.4285007 -1.9016863
2.0167382 4.4318113 -1.8816605
1.8903613 4.4348631 -1.8630503
1.7663281 4.4376769 -1.8457911
1.6444043 4.4402537 -1.8298264
1.406289 4.4447422 -1.8015925
0.96033204 4.507092 -1.7808621
0.74118161 4.5441966 -1.77931
0.63109374 4.5587497 -1.7785292
0.41011718 4.5798411 -1.7769603
-0.032978516 4.5898838 -1.7738069
-0.14367187 4.5857091 -1.7730175
-0.4742285 4.557241 -1.7706567
-0.69289058 4.5250597 -1.769092
-1.0169336 4.4572449 -1.7667683
-1.241123 4.4401402 -1.7816675
-1.3566504 4.4376268 -1.793272
-1.5924317 4.4319458 -1.8199295
-1.9603612 4.4216647 -1.8691641
-2.0875292 4.4177279 -1.8882455
-2.2173145 4.413518 -1.908759
-2.3244629 4.3612094 -1.9098375
-2.8269532 4.0420628 -1.9061847
-2.9225585 3.97124 -1.9054871
-3.1084764 3.8229284 -1.9041284
-3.3733397 3.5844836 -1.9021865
-3.5400195 3.4154041 -1.9009602
-3.620249 3.3279846 -1.9003683
-3.6983447 3.2387035 -1.8997914
-3.9194725 2.9602373 -1.8981518
-4.1200194 2.6669512 -1.8966552
-4.3537693 2.255487 -1.8948947
-4.4556541 2.042038 -1.8941193
-4.5472751 1.8240795 -1.893416
-4.58917 1.713565 -1.8930918
-4.665029 1.4897631 -1.8924994
-4.7301464 1.2626843 -1.891983
-4.7844334 1.0328326 -1.8915428
-4.8074608 0.91703182 -1.8913519
-4.8277588 0.80072755 -1.8911803
-4.8452735 0.68397582 -1.8910284
-4.8600144 0.56686032 -1.8908961
-4.8811817 0.33175781 -1.8906906
-4.8776221 -0.37576661 -1.8905512
-4.8672557 -0.49333435 -1.8905977
-4.8381934 -0.72756714 -1.8907503
-4.7980518 -0.96018982 -1.890982
-4.7172947 -1.3049713 -1.8914769
-4.6499219 -1.5313232 -1.891904
-4.6122117 -1.6432476 -1.8921466
-4.5288963 -1.8643243 -1.8926884
-4.1565576 -2.6023984 -1.8951684
-3.9602733 -2.8981812 -1.8964976
-3.8901904 -2.9936254 -1.8969744
-3.8178368 -3.0873971 -1.897468
-3.7432568 -3.1794467 -1.8979777
-3.5875635 -3.3581777 -1.8990449
-3.5065379 -3.4447582 -1.8996018
-3.2512791 -3.6927209 -1.9013621
-3.1622753 -3.7712927 -1.9019777
-2.9787011 -3.9220476 -1.9032501
-2.8842089 -3.9941337 -1.9039062
-2.5906348 -4.1967378 -1.90595
-2.4895606 -4.2595878 -1.9066552
-2.3869629 -4.3200274 -1.9073718
-2.2829199 -4.3780208 -1.9080993
-2.0707324 -4.4865241 -1.9095852
-1.9626952 -4.536972 -1.9103429
-1.8533984 -4.5848351 -1.9111102
-1.7429687 -4.6300945 -1.9118861
-1.6314648 -4.6727057 -1.9126704
-1.5188867 -4.7126498 -1.9134628
-1.4053515 -4.7499046 -1.9142628
-1.0595605 -4.8452659 -1.9167033
-0.82534176 -4.8949585 -1.91836
-0.70733398 -4.9155807 -1.9191955
-0.46984375 -4.9483175 -1.9208794
-0.1109375 -4.9759355 -1.923429
0.0091210939 -4.9793768 -1.9242833
0.12929687 -4.9799213 -1.9251391
0.24950194 -4.9775681 -1.9259957
0.3696582 -4.972312 -1.9268527
0.4897168 -4.9641547 -1.9277096
0.84853512 -4.9222922 -1.930275
1.0858984 -4.8799319 -1.9319754
1.4378027 -4.794899 -1.9345014
1.5537109 -4.7608719 -1.9353347
1.8963281 -4.6419668 -1.9378027
2.0086133 -4.5967956 -1.9386128
2.1197753 -4.5488925 -1.9394157
2.338623 -4.444983 -1.9409984
2.5523241 -4.3304667 -1.9425471
2.6570702 -4.269311 -1.9433074
2.7603612 -4.2055964 -1.9440578
2.8620899 -4.1393657 -1.9447978
2.9622264 -4.0706406 -1.945527
3.0606835 -3.9994781 -1.9462447
3.345459 -3.7717161 -1.9483259
3.4366503 -3.6911831 -1.948994
3.5258594 -3.6084235 -1.9496487
3.6130664 -3.5234835 -1.9502896
3.6981933 -3.436403 -1.9509161
3.7812011 -3.3472433 -1.9515281
3.8620214 -3.2560582 -1.952125
3.9406152 -3.1628857 -1.9527065
4.0909181 -2.9708388 -1.9538215
4.162529 -2.8720806 -1.9543545
4.2984376 -2.6693599 -1.9553697
4.3626466 -2.5655291 -1.9558511
4.4243164 -2.4601233 -1.9563149
4.4833984 -2.3532214 -1.9567605
4.5398436 -2.2448795 -1.9571878
4.6447263 -2.0241294 -1.9579861
4.6505275 2.0171912 -1.9589682
4.5462108 2.2383556 -1.9582766
4.4900193 2.3469255 -1.9579017
4.4312305 2.4540563 -1.9575078
4.3698044 2.55969 -1.957095
