# .PCD v0.7 - Point Cloud Data file format
VERSION 0.7
FIELDS x y z
SIZE 4 4 4
TYPE F F F
COUNT 1 1 1
WIDTH 1500
HEIGHT 1
VIEWPOINT 0 0 0 1 0 0 0
POINTS 1500
DATA ascii
-7.1652145 -3.2653439 -1.8740237
-7.0863085 -3.4382076 -1.8745422
-6.9163671 -3.7782834 -1.8756663
-6.7305026 -4.1102381 -1.8769052
-6.6317186 -4.2729249 -1.8775668
-6.5290966 -4.4333057 -1.8782561
-6.4226904 -4.5912652 -1.8789725
-6.3125534 -4.7467604 -1.8797163
-5.9603028 -5.1974521 -1.8821055
-5.707871 -5.4839182 -1.8838259
-5.4419188 -5.7584262 -1.8856452
-5.1630759 -6.0203238 -1.8875586
-4.9511328 -6.0632958 -1.8630265
-4.4900241 -6.0746946 -1.7978086
-4.2709422 -6.0798612 -1.7683192
-4.0637841 -6.0923471 -1.7429206
-3.9178905 -6.1922045 -1.7439303
-3.7695947 -6.288619 -1.7449578
-3.6189451 -6.3815522 -1.7460028
-3.4660254 -6.4709368 -1.7470646
-3.3109472 -6.5567255 -1.7481427
-2.9945946 -6.717248 -1.7503451
-2.6705322 -6.8627348 -1.7526056
-2.1715479 -7.0519047 -1.7560943
-2.0021241 -7.107038 -1.7572808
-1.831328 -7.1581507 -1.7584784
-1.4859668 -7.2481303 -1.7609024
-1.3115771 -7.286942 -1.762128
-1.1361963 -7.3215876 -1.7633616
-0.60500485 -7.4002557 -1.7671041
-0.4265869 -7.4179773 -1.7683631
-0.24768066 -7.4314175 -1.7696266
0.29103026 -7.4458694 -1.7734371
0.65080076 -7.4338379 -1.775987
1.3680176 -7.3575816 -1.7810824
1.9005761 -7.2548056 -1.7848767
2.0765038 -7.2119083 -1.7861322
2.9394677 -6.9334817 -1.7923063
3.1079638 -6.8651805 -1.7935151
3.7649462 -6.5509434 -1.7982394
3.9243944 -6.4623423 -1.7993886
4.0817432 -6.3697972 -1.8005242
4.5509472 -6.0836554 -1.8081701
4.7801218 -6.0785613 -1.8404049
5.0176172 -6.0731058 -1.8748717
5.2641797 -6.0672631 -1.9117308
5.5206103 -6.0610027 -1.9511691
5.7039356 -5.9665713 -1.9645064
5.8493991 -5.8303709 -1.9655679
5.9915037 -5.6905589 -1.9666064
6.1302247 -5.547215 -1.9676217
6.2654099 -5.400434 -1.9686129
6.3970213 -5.2502747 -1.9695796
6.5249362 -5.0968499 -1.9705207
6.8857665 -4.6178675 -1.9731866
7.1063914 -4.2838922 -1.9748262
7.2105174 -4.1128144 -1.975603
7.31041 -3.9391606 -1.9763505
7.4060006 -3.7630093 -1.9770683
7.5840526 -3.4036956 -1.9784122
7.6663818 -3.2207658 -1.9790376
7.8173828 -2.8488748 -1.980193
7.8859324 -2.6601551 -1.9807222
8.0632858 -2.0844021 -1.9821115
8.1128807 -1.8895828 -1.9825079
8.1974316 -1.4965746 -1.9831976
8.2323732 -1.2985607 -1.9834911
8.2623825 -1.0997131 -1.9837496
8.287446 -0.90015745 -1.9839735
8.3379049 -0.097409055 -1.9845172
8.333149 0.3049005 -1.9845769
8.3232613 0.50585079 -1.9845535
8.2339354 1.3052435 -1.9841067
8.0657568 2.0915375 -1.9830987
8.0115576 2.2851288 -1.98276
7.9526072 2.477284 -1.9823872
7.8889012 2.6678772 -1.9819806
7.6698046 3.2290943 -1.9805597
7.5876074 3.4122655 -1.9800203
7.5009031 3.593291 -1.9794486
7.4097753 3.7720459 -1.9788449
7.3142676 3.9484472 -1.9782096
7.214458 4.1223764 -1.9775432
6.886797 4.3888354 -1.9435605
6.2491112 4.4202867 -1.8217191
6.1265626 4.5592761 -1.817539
5.5207763 5.2514939 -1.8134109
5.3898096 5.3804893 -1.8125137
5.2557664 5.5061569 -1.8115939
4.9787989 5.7472262 -1.809689
4.69063 5.9741244 -1.8077017
4.391963 6.1863561 -1.8056364
4.238945 6.2868223 -1.8045764
3.9260302 6.4761658 -1.802405
3.7663035 6.5649304 -1.8012869
3.6046875 6.6499557 -1.8002238
3.4411523 6.7309361 -1.7991433
3.2757616 6.8078442 -1.7980456
2.9398777 6.9492502 -1.7958026
1.6931787 6.4833946 -1.594766
1.2004492 6.4840527 -1.5693951
0.8795166 6.4844761 -1.5574033
0.56270993 6.4848924 -1.5491704
0.40537107 6.4850974 -1.5464314
0.24852051 6.4853015 -1.5446014
0.091923825 6.4855042 -1.5436718
-0.064570308 6.4857068 -1.5436404
-0.22114258 6.4859066 -1.5445091
-0.37799317 6.4861083 -1.5462788
-0.53527343 6.4863086 -1.5489553
-0.85197264 6.4867101 -1.5570614
-1.0117577 6.4869113 -1.5625165
-1.1727393 6.487113 -1.5689247
-1.3351562 6.4873157 -1.5763077
-1.4798486 6.4037218 -1.5642178
-1.6436034 6.4039254 -1.573499
-2.1139112 6.3024998 -1.5820919
-2.4420557 6.2613697 -1.5995061
-2.8085206 6.2869153 -1.6387701
-3.1765916 6.278657 -1.6746532
-4.2183056 5.9952121 -1.7446338
-4.4973583 5.7780347 -1.7426077
-5.0221534 5.3061023 -1.7387826
-5.1460252 5.180687 -1.7378765
-5.2668309 5.0524573 -1.7369915
-5.3845067 4.9214807 -1.7361281
-5.7182274 4.5127745 -1.7336705
-5.8722067 4.4086375 -1.7475902
-6.1623096 4.3980346 -1.8018136
-6.4711328 4.3867259 -1.860618
-6.7402391 4.1091161 -1.8787451
-6.8348336 3.9438269 -1.8780369
-7.0121288 3.6069751 -1.8767035
-7.0947509 3.4356053 -1.8760787
-7.3840818 2.7327342 -1.8738672
-7.5035691 2.3722034 -1.8729374
-7.5569286 2.1899931 -1.8725173
-7.650703 1.8221813 -1.871768
-7.7859912 1.0758197 -1.8706368
-7.8088183 0.88757932 -1.8704317
-7.8412008 0.50978392 -1.8701147
-7.8445458 -0.43753356 -1.8698709
-7.8148241 -0.81546384 -1.8699936
-7.767417 -1.1916443 -1.8702418
-7.7024264 -1.5652539 -1.8706152
-7.6633835 -1.7508289 -1.8708485
-7.3386621 -2.8411455 -1.8728943
-6.863452 -3.8765838 -1.8760182
-6.7701755 -4.0423646 -1.87664
-6.4671044 -4.5263081 -1.8786733
-6.130249 -4.9881907 -1.8809509
-5.7611423 -5.4256988 -1.8834624
-5.6312256 -5.565742 -1.8843496
-5.361455 -5.8366117 -1.8861967
-5.2217236 -5.9672828 -1.8871555
-4.8124366 -6.0667963 -1.8429784
-3.9784667 -6.1513581 -1.7435108
-3.5294774 -6.434443 -1.746624
-3.3752782 -6.5217185 -1.7476953
-2.2410986 -7.0279613 -1.7556074
-2.072295 -7.0847454 -1.7567892
-1.5576904 -7.2308936 -1.7603986
-0.85605955 -7.3679466 -1.7653341
-0.50036132 -7.4111753 -1.7678424
-0.14249024 -7.4373026 -1.77037
0.037001953 -7.4439063 -1.7716392
0.2167334 -7.4461889 -1.7729111
0.39659667 -7.4441361 -1.7741849
0.75630856 -7.427001 -1.7767355
0.93593258 -7.4119124 -1.7780108
1.2942188 -7.3686805 -1.7805574
1.4726758 -7.3405447 -1.7818273
1.6505176 -7.3080683 -1.7830939
1.8276221 -7.2712717 -1.7843564
2.0039306 -7.2301559 -1.7856141
2.1793163 -7.1847372 -1.7868663
2.3536522 -7.1350384 -1.7881122
2.8694043 -6.960484 -1.791804
3.0385449 -6.8938928 -1.7930169
3.3720458 -6.7483044 -1.7954119
3.5361912 -6.6693707 -1.7965924
3.8587792 -6.4994245 -1.7989156
4.0169969 -6.408505 -1.8000569
4.6844873 -6.080708 -1.8268292
4.918447 -6.0754051 -1.8603513
5.4134083 -6.063642 -1.9345493
5.7896972 -5.8870826 -1.965132
6.0733347 -5.6068621 -1.9672052
6.2099948 -5.4614811 -1.9682064
6.4725485 -5.1606336 -1.9701351
6.8381786 -4.6854277 -1.972834
7.2696581 -4.0112076 -1.9760454
7.6329098 -3.2965863 -1.9787829
7.7876854 -2.9263225 -1.9799647
7.9239941 -2.5486071 -1.9810175
7.9850879 -2.3572664 -1.9814945
8.0414352 -2.1644585 -1.9819381
8.092988 -1.9702063 -1.9823483
8.3363867 -0.18051757 -1.9844871
8.3357763 0.22183411 -1.9845761
8.3279543 0.42287534 -1.9845675
8.3151464 0.62364012 -1.9845234
8.2973385 0.82403684 -1.9844439
8.2745705 1.0239172 -1.9843292
8.21416 1.4216168 -1.9839938
8.1765671 1.6191955 -1.9837735
8.086709 2.011178 -1.9832284
8.0345259 2.2053289 -1.982904
7.9775438 2.3980756 -1.9825454
7.9158006 2.5893297 -1.9821527
7.778203 2.9668262 -1.9812661
7.702456 3.1528156 -1.9807731
7.6221142 3.3368394 -1.9802471
7.3542576 3.8758581 -1.9784759
7.0324559 4.3837109 -1.9722332
6.3638573 4.4069309 -1.8422703
6.0598779 4.6444101 -1.8170867
5.9434762 4.7871714 -1.8162957
5.8236375 4.9269443 -1.8154799
5.700449 5.0636659 -1.8146394
5.5739646 5.1972437 -1.8137749
5.4442868 5.3276014 -1.8128872
5.3115039 5.4546556 -1.8119766
5.175703 5.5783253 -1.8110439
5.036953 5.6985679 -1.8100893
4.4544873 6.1437378 -1.8060691
4.3024559 6.2457752 -1.8050164
4.1480517 6.3439889 -1.8039461
3.9913914 6.4383421 -1.8028589
3.671699 6.6153111 -1.8006653
3.5089405 6.6979795 -1.7995917
3.1778858 6.851058 -1.7973939
3.009795 6.9214072 -1.796271
2.8401368 6.9875779 -1.795133
2.2771142 6.4826059 -1.6352419
1.7623632 6.4833016 -1.598985
1.5954882 6.4835253 -1.5890806
1.4305956 6.4837475 -1.5802124
0.94541013 6.4843893 -1.5595677
0.47030762 6.4850135 -1.5474529
0.31327146 6.4852185 -1.5452478
9.2773436e-05 6.4856224 -1.5435443
-0.15643066 6.4858251 -1.5440412
-0.31314939 6.4860253 -1.5454376
-0.47023436 6.4862266 -1.547739
-0.78626466 6.4866271 -1.5550836
-1.2678808 6.4872327 -1.5731378
-1.4312158 6.4874353 -1.5811018
-1.5757031 6.4038415 -1.5695405
-1.9077636 6.404253 -1.590368
-2.2129004 6.3002806 -1.5892397
-2.3710253 6.2629638 -1.5937955
-2.5438476 6.2590857 -1.6079627
-2.9148877 6.2845297 -1.6487412
-3.2877588 6.2761621 -1.6862358
-3.7185447 6.33499 -1.7482508
-3.8679149 6.239574 -1.7471712
-4.014873 6.1407032 -1.7461077
-4.3012791 5.932827 -1.7440318
-4.5771923 5.7118711 -1.742027
-4.71103 5.5966477 -1.7410529
-4.8420262 5.4783521 -1.7400979
-4.9701071 5.3570728 -1.739163
-5.3362794 4.9759178 -1.736482
-6.0402589 4.4024487 -1.7788693
-6.5999169 4.338922 -1.8797916
-6.7000146 4.1767673 -1.8790455
-6.8885007 3.84583 -1.8776343
-7.2894626 2.9840307 -1.8745953
-7.3572803 2.806519 -1.8740741
-7.480288 2.4471064 -1.8731196
-7.6749363 1.7134924 -1.8715713
-7.7462058 1.3408704 -1.8709801
-7.7752585 1.1534381 -1.8707309
-7.7999167 0.96540403 -1.8705126
-7.8542967 0.20923828 -1.8699521
-7.8567967 0.019683227 -1.8698905
-7.8548532 -0.16985412 -1.8698601
-7.837666 -0.54856747 -1.8698938
-7.822412 -0.7375232 -1.8699578
-7.778657 -1.1141199 -1.8701804
-7.7501659 -1.3015704 -1.8703384
-7.7172899 -1.4883233 -1.8705277
-7.6800342 -1.6742712 -1.8707484
-7.6384521 -1.8593087 -1.8709998
-7.5925145 -2.0433626 -1.8712823
-7.4877391 -2.4080713 -1.8719393
-7.2273145 -3.1211841 -1.8736175
-7.0721922 -3.4680514 -1.8746352
-6.9008446 -3.8074663 -1.8757695
-6.8091846 -3.9741387 -1.8763796
-6.713613 -4.1386547 -1.8770181
-6.5108786 -4.4609165 -1.8783785
-6.4038229 -4.6184711 -1.8791
-6.2930369 -4.77352 -1.8798482
-5.9389257 -5.2228026 -1.8822509
-5.8138084 -5.3669896 -1.8831033
-5.4182081 -5.7816796 -1.8858076
-4.6766114 -6.0701652 -1.8237003
-4.0386329 -6.1099405 -1.7430946
-3.5925243 -6.3973422 -1.7461861
-3.1262598 -6.6527305 -1.7494279
-2.8053026 -6.8044806 -1.751665
-1.6292431 -7.2129407 -1.7598962
-1.2811913 -7.2932563 -1.7623417
-1.1056445 -7.3271751 -1.7635766
-0.92918456 -7.3568935 -1.764819
-0.57403809 -7.4036441 -1.7673225
-0.21656738 -7.4333124 -1.7698464
0.14245117 -7.4457703 -1.7723852
0.32228026 -7.4455161 -1.7736584
0.50217772 -7.440918 -1.7749331
0.68201172 -7.4319754 -1.7762084
1.0412109 -7.4010329 -1.7787586
1.5771093 -7.3220119 -1.7825711
1.9312011 -7.2476664 -1.7850952
2.1069579 -7.2040243 -1.7863497
2.6279247 -7.0474448 -1.7900741
2.9688232 -6.9219227 -1.7925167
3.1370897 -6.8528843 -1.7937242
3.4685693 -6.7024808 -1.7961059
3.6316552 -6.6211615 -1.7972794
3.792788 -6.5358462 -1.7984399
4.1088428 -6.3533268 -1.8007199
4.5901804 -6.0827951 -1.8136152
4.8207765 -6.0776396 -1.8462304
5.0597754 -6.0721197 -1.8810971
5.3080125 -6.066206 -1.9183944
5.8743262 -5.806334 -1.96575
6.0158448 -5.6659122 -1.9667845
6.1539793 -5.5219507 -1.9677958
6.6702685 -4.9127269 -1.9715923
6.7898827 -4.752511 -1.9724765
6.905581 -4.5892992 -1.9733336
7.0172167 -4.4232297 -1.9741625
7.124795 -4.2543559 -1.9749633
7.2281833 -4.0828342 -1.9757351
7.3273191 -3.9087455 -1.9764773
7.5126319 -3.5532422 -1.977872
7.5986814 -3.3720567 -1.9785233
7.8296237 -2.8162034 -1.9802873
7.9604297 -2.4364913 -1.9813015
8.0187349 -2.244266 -1.981759
8.0722799 -2.0506034 -1.982183
8.1210012 -1.8556124 -1.9825732
8.1648684 -1.6594622 -1.9829293
8.2038574 -1.4622484 -1.9832511
8.2912989 -0.86541682 -1.9840088
8.32477 -0.46456543 -1.984339
8.3382807 -0.062464599 -1.9845278
8.3375387 0.1387445 -1.9845693
8.3053074 0.74131471 -1.9844812
8.284585 0.9414044 -1.984381
8.2589016 1.14091 -1.9842453
8.2282515 1.3397344 -1.9840745
8.1926947 1.5376806 -1.9838688
8.1522121 1.7346972 -1.9836279
8.1068697 1.9305847 -1.9833523
8.0566797 2.1252587 -1.9830422
7.9418845 2.5105023 -1.982319
7.7343063 3.0761993 -1.9809808
7.4853806 3.6245239 -1.9793458
3.3218603 6.0074072 -1.7980188
3.0247216 6.1535583 -1.7959491
2.5672119 6.3448825 -1.7927545
2.4119287 6.4010925 -1.7916682
1.7794824 6.5874071 -1.7872423
1.4578466 6.6573277 -1.7850317
1.2959863 6.6863351 -1.7839044
0.97071284 6.732523 -1.7816418
0.8075 6.7496581 -1.7805012
0.64400387 6.7628174 -1.7793552
0.31662598 6.7772141 -1.77705
-0.17398436 6.769083 -1.7735695
-0.49965331 6.7439466 -1.771242
-0.66176754 6.7255077 -1.7700781
-0.82328612 6.7031808 -1.7689152
-0.98412108 6.67698 -1.7677537
-2.0830858 6.3878331 -1.7598416
-2.2352099 6.3317919 -1.7587516
-2.682368 6.1423349 -1.7555419
-3.114038 5.9217577 -1.7524345
-3.2541161 5.8415332 -1.7514242
-3.3921776 5.7580514 -1.7504274
-3.5281153 5.6713524 -1.7494448
-3.7934129 5.4885325 -1.7475243
-3.9226074 5.3925257 -1.7465872
-4.173789 5.1916051 -1.7447622
-4.4149265 4.9792099 -1.7430056
-4.7566257 4.6402221 -1.740508
-5.2193213 4.4017711 -1.7883269
-5.4706345 4.3923068 -1.8375839
-5.8234177 4.2303014 -1.8852639
-5.921494 4.0870008 -1.8845363
-6.0161228 3.941483 -1.8838327
-6.1072559 3.7938221 -1.8831531
-6.1948533 3.6441076 -1.8824981
-6.2788672 3.4924242 -1.8818681
-6.4359665 3.1834807 -1.8806841
-6.7632909 2.382622 -1.8781809
-6.8172851 2.2182672 -1.8777604
-6.9135547 1.8860766 -1.8770016
-6.9557958 1.7184283 -1.8766638
-6.9940624 1.5498602 -1.8763537
-7.0283642 1.3804626 -1.8760715
-7.0849657 1.0395629 -1.8755916
-7.1072311 0.8682428 -1.8753941
-7.1579342 0.0065979003 -1.8748351
-7.1498289 -0.33868164 -1.8748122
-7.1396923 -0.51108456 -1.874844
-7.1255221 -0.68320614 -1.8749043
-7.1072946 -0.85495484 -1.8749936
-7.0850439 -1.0262383 -1.8751113
-6.9559913 -1.7048736 -1.8758672
-6.8176317 -2.2044845 -1.8767309
-6.7636962 -2.368751 -1.8770746
-6.7058983 -2.5317404 -1.8774459
-6.6442771 -2.693356 -1.8778447
-6.5096726 -3.0121312 -1.8787235
-6.3601465 -3.3243778 -1.8797097
-5.9230175 -4.0719547 -1.8826307
-5.8251023 -4.2151408 -1.8832906
-5.7238035 -4.3560252 -1.8839751
-5.5112305 -4.6305966 -1.8854164
-5.2857471 -4.895031 -1.8869514
-4.9243259 -5.2713728 -1.8894228
-3.3971288 -6.0718994 -1.822366
-3.2093992 -6.0758781 -1.7997918
-2.8468115 -6.0830712 -1.759147
-2.6892481 -6.1272459 -1.7526438
-2.542124 -6.1939659 -1.75367
-2.3933692 -6.2571955 -1.7547084
-2.0912793 -6.3730187 -1.7568202
-1.7835985 -6.474412 -1.7589749
-1.4710547 -6.5610771 -1.7611675
-1.313164 -6.5988107 -1.7622765
-0.99459958 -6.6629281 -1.7645171
-0.83409667 -6.6892724 -1.7656473
-0.51111817 -6.7303824 -1.7679243
-0.34882322 -6.7451258 -1.7690699
-0.1861084 -6.7559652 -1.7702193
-0.023076171 -6.762888 -1.7713721
0.14017577 -6.765892 -1.7725271
0.30355957 -6.7649484 -1.773684
0.46698728 -6.7600713 -1.7748421
0.63034666 -6.7512388 -1.7760007
0.95652831 -6.7217245 -1.778317
1.1191406 -6.7010522 -1.7794729
1.6039355 -6.615376 -1.7829251
1.7641991 -6.578969 -1.7840681
1.9236327 -6.538662 -1.7852063
2.2396142 -6.4464054 -1.7874647
2.3959911 -6.3944993 -1.7885838
2.8574414 -6.2159576 -1.7918922
3.1608007 -6.0840735 -1.7957847
3.7360399 -6.0728149 -1.8675191
4.5078416 -5.9540081 -1.9560412
4.6526756 -5.8466592 -1.9570915
4.9344287 -5.6212897 -1.9591388
5.2050734 -5.3821411 -1.9611104
5.3360105 -5.2575593 -1.9620663
5.5886669 -4.9987564 -1.9639151
5.7102246 -4.8646784 -1.9648068
5.8285108 -4.7275882 -1.9656761
6.0549073 -4.4447083 -1.9673446
6.1628661 -4.2990875 -1.9681426
6.2672458 -4.150785 -1.9689162
6.3679833 -3.9998949 -1.9696645
6.4650049 -3.8465099 -1.9703869
6.5582323 -3.6907232 -1.971083
6.6476269 -3.5326238 -1.9717525
6.7331104 -3.3723202 -1.9723952
6.8146191 -3.2099009 -1.9730099
6.8921337 -3.0454624 -1.9735969
6.9655709 -2.879117 -1.9741554
7.1000485 -2.5410976 -1.975186
7.160996 -2.3696327 -1.9756573
7.2177 -2.1966748 -1.9760989
7.2701025 -2.0223246 -1.9765103
7.3181834 -1.8467016 -1.9768916
7.3619137 -1.6699035 -1.9772422
7.4361863 -1.3132483 -1.9778508
7.4666796 -1.1336132 -1.9781085
7.5142627 -0.7722894 -1.9785293
7.5313277 -0.59082824 -1.9786923
7.5438914 -0.40898803 -1.9788233
7.5519481 -0.22687927 -1.9789227
7.5554786 -0.044624023 -1.97899
7.5544872 0.13767211 -1.9790252
7.5489841 0.31988648 -1.9790286
7.5053854 0.86491638 -1.9788465
7.4214158 1.4051074 -1.9783777
7.1932468 2.2864008 -1.9769669
7.0047507 2.7989087 -1.9757513
6.9335594 2.9663873 -1.9752862
6.8582616 3.1320109 -1.9747915
6.6955419 3.4573009 -1.9737152
6.517046 3.773972 -1.972525
6.4220214 3.928833 -1.9718882
6.323247 4.0812497 -1.9712243
6.1146483 4.3783813 -1.9698166
5.8327489 4.3931971 -1.9125996
4.9779148 4.7901754 -1.8094605
4.4847364 5.2377405 -1.806073
4.2226462 5.4425192 -1.8042649
4.0879931 5.5399451 -1.8033344
3.6707568 5.811749 -1.8004435
3.5275242 5.8953552 -1.7994488
2.9362841 6.1936426 -1.7953323
2.7843652 6.2589755 -1.7942719
2.6309814 6.3205514 -1.7932004
2.3202245 6.4322948 -1.7910261
2.1630323 6.4824085 -1.7899249
1.5245264 6.6441846 -1.7854913
1.3629199 6.6748228 -1.7843683
1.0380468 6.7242794 -1.7821113
0.22055176 6.7784324 -1.7763708
0.056918945 6.7773471 -1.7752115
-0.1065332 6.7723155 -1.7740498
-0.26970702 6.7633371 -1.7728868
-0.43251464 6.7504282 -1.7717228
-0.59485841 6.733602 -1.7705588
-0.91776365 6.6882725 -1.7682333
-1.0781446 6.659812 -1.7670732
-1.3963037 6.5914197 -1.764761
-1.5539209 6.5515366 -1.7636105
-1.7104492 6.50807 -1.7625078
-2.172544 6.3553843 -1.7592008
-2.6216698 6.1703014 -1.7559781
-2.7680957 6.1015964 -1.7549255
-2.9127636 6.0294566 -1.7538846
-3.0555859 5.9539342 -1.7528558
-3.3353856 5.792932 -1.7508377
-3.4722166 5.7075534 -1.7498491
-3.7393506 5.5273085 -1.7479159
-4.4836817 4.9147825 -1.7425039
-4.5987401 4.8028674 -1.7416635
-5.1192918 4.4054823 -1.7690126
-5.365171 4.3963013 -1.8167888
-5.7818995 4.2888365 -1.8855714
-5.8813868 4.1464744 -1.8848341
-6.3264747 3.4025187 -1.8815103
-6.4047265 3.2478819 -1.8809204
-6.4792624 3.0914965 -1.8803562
-6.5500827 2.9334385 -1.8798182
-6.6171484 2.7738092 -1.8793063
-6.6804295 2.6126842 -1.8788209
-6.7398629 2.4501538 -1.8783624
-6.7954493 2.286319 -1.8779308
-6.8471484 2.1212499 -1.8775265
-6.938818 1.7878082 -1.8768001
-7.074585 1.110191 -1.8756814
-7.1184225 0.76748228 -1.8752913
-7.1342869 0.5954712 -1.8751392
-7.1575828 0.077951051 -1.8748541
-7.1572409 -0.094750978 -1.8748165
-7.1528416 -0.26739317 -1.8748076
-7.070117 -1.1265026 -1.8751937
-7.0415039 -1.2968621 -1.8753567
-7.008872 -1.4665064 -1.8755484
-6.97228 -1.6353705 -1.8757681
-6.8871922 -1.9703314 -1.8762927
-6.7302389 -2.4645581 -1.8772891
-6.6701999 -2.6267562 -1.8776766
-6.5387206 -2.9467914 -1.8785331
-6.4673338 -3.1044629 -1.8790019
-6.3134766 -3.4146647 -1.8800192
-6.2310596 -3.567019 -1.8805671
-6.1450682 -3.7174428 -1.8811412
-5.9624805 -4.0121479 -1.8823653
-5.556211 -4.574687 -1.8851111
-5.4463816 -4.7092686 -1.8858572
-5.3333592 -4.8412671 -1.8866267
-5.2171922 -4.970613 -1.8874192
-5.0979538 -5.0972409 -1.8882339
-4.9757128 -5.221055 -1.8890705
-4.850503 -5.3420081 -1.8899291
-4.7224121 -5.4600091 -1.8908083
-4.5914745 -5.5750065 -1.8917086
-4.4578271 -5.6869135 -1.8926289
-4.1825099 -5.9012408 -1.8945283
-3.8706493 -6.0611396 -1.8836563
-3.4760644 -6.0701756 -1.8321589
-3.2863915 -6.0742664 -1.8089281
-2.9203954 -6.081665 -1.7670716
-2.6031053 -6.1668186 -1.7532446
-2.4550147 -6.2315001 -1.7542779
-2.1541455 -6.3502698 -1.7563804
-1.6923584 -6.5013819 -1.7596147
-1.3785107 -6.5836768 -1.7618176
-1.0606885 -6.6509356 -1.764052
-0.57802242 -6.7231646 -1.7674524
1.0520068 -6.7100706 -1.7789955
1.2143701 -6.6870751 -1.7801504
1.5375146 -6.6292706 -1.7824516
1.8578662 -6.5557818 -1.7847366
2.4872022 -6.3622551 -1.789237
2.6415918 -6.3043003 -1.7903436
2.7946386 -6.2425599 -1.7914414
3.0962498 -6.1078672 -1.7936081
3.4595506 -6.0784178 -1.8318874
3.6541259 -6.0745111 -1.856747
4.0597754 -6.0658293 -1.9117913
4.2718115 -6.0610189 -1.9422011
4.4472704 -5.9972982 -1.9556024
4.5931396 -5.8914452 -1.9566597
4.8771238 -5.6689854 -1.9587219
5.0150194 -5.552525 -1.9597251
5.1501169 -5.4326415 -1.9607095
5.5374999 -5.0532527 -1.9635402
5.6603951 -4.9204369 -1.9644411
5.7800436 -4.7845869 -1.9653198
5.8963571 -4.6457696 -1.9661753
6.0092673 -4.5040722 -1.9670078
6.1186914 -4.359581 -1.967816
6.3268161 -4.062541 -1.9693583
6.5201707 -3.7553689 -1.9707986
6.698276 -3.4388144 -1.972133
6.7814355 -3.2772501 -1.9727594
6.8606005 -3.1136386 -1.9733578
7.006753 -2.7806461 -1.9744699
7.0736279 -2.6114736 -1.9749826
7.136333 -2.4406567 -1.9754661
7.1947851 -2.2683034 -1.9759201
7.2489743 -2.0945153 -1.976344
7.3443847 -1.7430782 -1.9771011
7.4546189 -1.2079254 -1.9780058
7.5309715 0.60859799 -1.9789681
7.3608446 1.6878436 -1.9780145
7.316987 1.8646863 -1.9777451
7.2687645 2.0403533 -1.9774444
7.2162204 2.2147527 -1.9771129
7.1593747 2.3877575 -1.9767506
7.0982761 2.5592816 -1.9763578
6.9634762 2.8974109 -1.975482
6.8121729 3.2283087 -1.9744877
6.6447802 3.5511522 -1.9733776
6.4617381 3.8651464 -1.9721546
6.3645067 4.0185862 -1.9715018
6.1589303 4.3178687 -1.9701159
5.9495606 4.3889232 -1.9364622
5.2536817 4.4970703 -1.8113449
5.141489 4.6205602 -1.8105792
5.0263181 4.7411828 -1.8097918
4.5376463 5.1938243 -1.8064374
4.4088526 5.2991772 -1.8055499
4.2775831 5.4012928 -1.8046442
4.1439109 5.5001025 -1.8037208
4.0079103 5.5955539 -1.8027803
3.7293408 5.7761779 -1.8008499
3.4425633 5.9427648 -1.7988583
3.2963281 6.0206833 -1.7978412
3.1483104 6.0949574 -1.7968104
2.8473096 6.2324362 -1.7947115
2.5403271 6.3549256 -1.7925665
2.3848243 6.4104671 -1.7914784
2.0702734 6.5100207 -1.7892746
1.7516601 6.5941052 -1.7870517
0.9423877 6.7357798 -1.7814441
0.61557615 6.7646971 -1.7791555
0.45191404 6.7731957 -1.7780043
0.28817871 6.7777171 -1.776849
-0.20233886 6.7675219 -1.7733673
-0.52785641 6.7410264 -1.7710397
-0.85128903 6.6989036 -1.7687132
-1.3308886 6.606792 -1.7652376
-1.6459179 6.5265002 -1.7629689
-1.9563476 6.431406 -1.760749
-2.1096239 6.3783593 -1.7596517
-2.2614892 6.321692 -1.7585632
-2.4118602 6.2614512 -1.7574847
-2.7078125 6.130394 -1.7553591
-2.8532226 6.0596762 -1.7543131
-3.6849022 5.5655627 -1.7483103
-3.9448094 5.3755393 -1.7464261
-4.0712204 5.2760253 -1.7455081
-4.1951466 5.1736012 -1.7446069
-4.4353709 4.9602365 -1.7428565
-4.5515332 4.8494248 -1.7420084
-4.6649804 4.7359424 -1.7411789
-4.7756543 4.6198764 -1.7403685
-5.5156884 4.3905921 -1.8465209
-6.0322022 3.9159753 -1.8837128
-6.1227198 3.7679541 -1.8830376
-6.209702 3.6178918 -1.8823869
-6.2930856 3.4658787 -1.8817613
-6.4489112 3.1563103 -1.8805861
-6.7157712 2.5174675 -1.8785485
-6.772954 2.3541577 -1.8781058
-6.8756833 2.0238483 -1.8773017
-6.9211764 1.8570209 -1.8769408
-7.0003123 1.5204846 -1.8763026
-7.033916 1.3509594 -1.8760253
-7.0891256 1.0098394 -1.8755553
-7.1106834 0.83842528 -1.8753628
-7.1417089 0.49437803 -1.8750633
-7.1511569 0.32191405 -1.8749564
-7.1565428 0.1492926 -1.874878
-7.1551514 -0.19608214 -1.8748077
-7.1483641 -0.36864868 -1.8748156
-7.1375241 -0.54100889 -1.8748524
-7.0228367 -1.3965112 -1.8754656
-6.9878807 -1.5657128 -1.8756739
-6.8592381 -2.0678473 -1.8764681
-6.7539258 -2.397161 -1.8771371
-6.6954637 -2.5599158 -1.8775133
-6.5671191 -2.8811855 -1.8783473
-6.4237108 -3.1962121 -1.8792894
-6.3464599 -3.3511717 -1.8798003
-6.2654052 -3.504281 -1.8803385
-6.0929441 -3.8047845 -1.8814899
-5.9062643 -4.0969863 -1.8827436
-5.807744 -4.2397838 -1.8834078
-5.6006346 -4.5183539 -1.8848095
-5.3804345 -4.7870498 -1.8863062
-5.2655616 -4.9175005 -1.887089
-5.0265722 -5.1702471 -1.8887223
-4.9025879 -5.2923851 -1.8895718
-4.7756786 -5.4116211 -1.8904425
-4.5133739 -5.6410608 -1.8922464
-4.3780956 -5.7511387 -1.8931785
-3.7526121 -6.0639148 -1.8678161
-2.9946387 -6.0802183 -1.7752372
-2.8160546 -6.0836496 -1.7558852
-1.7566357 -6.4825225 -1.759164
-1.6007323 -6.5270739 -1.7602574
-1.2856348 -6.6049833 -1.76247
-1.1266259 -6.6382837 -1.7635881
-0.96675777 -6.6677814 -1.764713
-0.80613768 -6.6934562 -1.7658442
-0.64482909 -6.7152767 -1.7669811
-0.4829492 -6.7332287 -1.7681231
-0.32057127 -6.7472882 -1.7692693
0.0052685547 -6.7636938 -1.7715724
0.16855957 -6.7660065 -1.772728
0.33195311 -6.7643871 -1.7738851
0.82189453 -6.735836 -1.7773603
0.98480958 -6.7184176 -1.7785178
1.1473535 -6.6970549 -1.7796736
1.3094336 -6.6717463 -1.780827
1.470957 -6.6425018 -1.7819772
1.6318359 -6.6093321 -1.7831241
1.9512353 -6.5312614 -1.7854034
2.109575 -6.4863968 -1.7865347
2.4230418 -6.3850951 -1.7887776
2.7315917 -6.2685189 -1.790989
2.8837793 -6.2045774 -1.7920812
3.0344629 -6.1369019 -1.7931639
3.1929491 -6.0834856 -1.7995454
3.3806446 -6.0799527 -1.8221037
3.7707665 -6.0720873 -1.872139
4.183403 -6.0630469 -1.9293896
4.5331788 -5.9356108 -1.9562249
4.8193312 -5.716105 -1.9583018
5.0946631 -5.4825854 -1.9603053
5.2280369 -5.3607311 -1.9612778
5.3584323 -5.2355938 -1.9622301
5.4857907 -5.1072173 -1.9631616
5.6100097 -4.9756846 -1.9640715
5.7310157 -4.8410749 -1.9649594
5.848711 -4.7034678 -1.9658247
6.1812644 -4.2735133 -1.9682789
6.2850146 -4.1247492 -1.9690479
6.3850927 -3.9734311 -1.9697917
6.4814649 -3.8196208 -1.9705096
6.6627536 -3.5049362 -1.9718661
6.7475586 -3.3442492 -1.9725039
6.9051852 -3.0167022 -1.973696
7.0465035 -2.6815679 -1.9747742
7.1109424 -2.5114326 -1.9752699
7.1711521 -2.3396947 -1.975736
7.2271042 -2.1664865 -1.9761724
7.3690672 -1.6390882 -1.9773
7.4715233 -1.1023266 -1.97815
7.533833 -0.55926573 -1.9787173
7.54562 -0.37736571 -1.9788429
7.552876 -0.19523682 -1.9789366
7.5556297 -0.012958984 -1.9789984
7.5538473 0.16933349 -1.9790281
7.5016208 0.89635313 -1.9788274
7.4153271 1.4361809 -1.9783416
7.1833692 2.3164661 -1.9769039
7.0604639 2.6591997 -1.9761134
6.7647018 3.3239081 -1.9741739
6.5926657 3.6442442 -1.9730303
6.5008054 3.8010559 -1.9724163
6.4051318 3.9554858 -1.9717748
6.3056979 4.1074719 -1.9711062
6.0692921 4.3845115 -1.9611105
5.5156932 4.4046092 -1.8488064
5.1932273 4.5743151 -1.8126537
5.0742579 4.691709 -1.8101197
4.3321095 5.3595004 -1.8050207
4.1994138 5.4596815 -1.8041046
3.6460106 5.8265295 -1.8002717
3.2096777 6.0647154 -1.7972379
3.0606542 6.1368384 -1.7961996
2.9099998 6.2052574 -1.7951488
2.7578125 6.2699437 -1.7940866
2.6041942 6.330863 -1.793013
2.4492235 6.3879843 -1.7919291
2.2929931 6.4412756 -1.7908355
2.1356151 6.490725 -1.7897328
1.8177733 6.5779757 -1.7875028
1.6575292 6.6158557 -1.7864059
1.4964941 6.6497922 -1.7852981
1.33479 6.6797447 -1.7841733
1.1725243 6.7057691 -1.7830472
0.84660643 6.7459106 -1.7807748
0.028505858 6.7767539 -1.7750098
-0.13490723 6.7710376 -1.7738478
-0.29801756 6.7613778 -1.7726846
-0.62300289 6.730278 -1.7703567
-0.94569331 6.6836023 -1.7680316
-1.2653271 6.621521 -1.7657145
-1.4237695 6.5847592 -1.7645608
-1.7375097 6.500134 -1.7623143
-2.0464647 6.4007139 -1.7601038
-2.1989257 6.3455358 -1.7590116
-2.6472216 6.1586094 -1.7557945
-2.9377246 6.0165758 -1.7537048
-3.08021 5.9404745 -1.7526785
-3.2207665 5.8610401 -1.7516649
-3.3593113 5.7783313 -1.7506648
-3.6300535 5.603292 -1.7487074
-3.7621238 5.5110693 -1.7477508
-3.8918943 5.4157848 -1.7468101
-4.0192871 5.3174949 -1.7458853
-4.1442628 5.2162609 -1.7449771
-4.6184421 4.7831469 -1.7415195
-4.8393164 4.5505738 -1.7399017
-5.4092431 4.3946362 -1.825457
-5.6711669 4.384625 -1.8775976
-5.8983202 4.12151 -1.8847084
-6.0857663 3.8293676 -1.8833135
-6.3403463 3.3757782 -1.8814059
-6.4179344 3.2208447 -1.8808206
-6.5620117 2.9058173 -1.8797275
-6.6284227 2.7459154 -1.8792199
-6.7497897 2.4217889 -1.8782855
-6.855742 2.0924566 -1.8774589
-6.9028516 1.926062 -1.8770868
-6.9460349 1.7586578 -1.8767422
-7.0517721 1.2511231 -1.8758757
-7.1022654 0.90930724 -1.8754388
-7.1366258 0.56555361 -1.8751158
-7.1548047 0.22063109 -1.8749069
-7.1578121 0.047943115 -1.8748455
-7.1567626 -0.12475342 -1.8748128
-7.1516504 -0.29738036 -1.8748089
-7.1424952 -0.46984068 -1.8748338
-7.1292868 -0.64202696 -1.8748873
-7.0907469 -0.98528135 -1.8750803
-6.9242477 -1.8324292 -1.8760624
-6.829946 -2.164973 -1.8766528
-6.6593699 -2.6548007 -1.8777467
-6.526577 -2.9742997 -1.8786126
-6.4545407 -3.1316817 -1.8790861
-6.2994189 -3.4412613 -1.8801124
-6.2163815 -3.5932958 -1.8806649
-5.8488526 -4.1810641 -1.8831304
-5.7483592 -4.3225098 -1.8838092
-5.4269724 -4.7323837 -1.8859892
-5.3133984 -4.8639336 -1.8867629
-5.0769382 -5.1189523 -1.8883777
-4.4342871 -5.7060456 -1.8927912
-4.2975049 -5.8142529 -1.8937343
-4.158071 -5.9192491 -1.8946971
-4.0161767 -6.0209575 -1.895678
-3.8354979 -6.0619726 -1.8789009
-3.6365087 -6.0665855 -1.8525935
-3.4427733 -6.0709062 -1.8280073
-3.2539258 -6.0749497 -1.8050534
-3.0695703 -6.0787296 -1.7836471
-2.8893602 -6.0822611 -1.7637089
-2.5775049 -6.1783051 -1.7534231
-2.2791748 -6.3029227 -1.7555063
-2.127749 -6.3599081 -1.7565651
-1.9748876 -6.4132938 -1.7576349
-1.5086914 -6.5514889 -1.7609032
-0.87257808 -6.6833129 -1.7653762
-0.38770506 -6.7419543 -1.7687955
-0.062133789 -6.7615914 -1.7710958
0.42786619 -6.7615952 -1.7745647
0.75451171 -6.7418804 -1.7768819
0.91753417 -6.7260962 -1.7780398
1.0802441 -6.7063589 -1.7791963
1.2425342 -6.6826768 -1.7803508
1.4042822 -6.6550589 -1.7815024
1.8855517 -6.5486655 -1.7849344
2.2020116 -6.4582696 -1.7871957
2.3586621 -6.407279 -1.7883166
3.122124 -6.0954642 -1.7937942
3.688457 -6.0738034 -1.8612384
4.4727879 -5.9791694 -1.9557873
4.6182275 -5.8726878 -1.9568417
4.7610936 -5.76261 -1.9578787
5.0387106 -5.5319347 -1.9598978
5.173286 -5.4114819 -1.9608784
5.3049412 -5.287683 -1.9618392
5.6814108 -4.8970561 -1.9645953
6.0285254 -4.4791636 -1.9671497
6.2425828 -4.1865268 -1.9687332
6.3441992 -4.0362477 -1.9694875
6.5362549 -3.7282264 -1.9709189
6.7129979 -3.4108956 -1.9722438
6.7954783 -3.2489681 -1.9728652
7.0186667 -2.7513776 -1.974561
7.1467919 -2.4108193 -1.9755472
7.2045164 -2.238204 -1.9759959
7.3070655 -1.8888586 -1.9768031
7.3518357 -1.7123306 -1.977161
7.392241 -1.5347131 -1.9774884
7.4282274 -1.3561407 -1.9777845
7.4597802 -1.1766919 -1.9780496
7.5095067 -0.8156628 -1.9784855
7.5412989 -0.45255491 -1.9787948
7.5504293 -0.27049682 -1.9789017
7.5417676 0.45835388 -1.9790096
7.4879098 1.0024579 -1.9787549
7.4609814 1.182713 -1.9786061
7.4295897 1.3622466 -1.9784255
7.393774 1.5409325 -1.9782134
7.3535447 1.718653 -1.9779699
7.2066455 2.2449121 -1.977052
6.9509716 2.9264526 -1.9754002
6.8766599 3.092536 -1.9749126
6.7158594 3.4187963 -1.97385
6.6294971 3.5787902 -1.9732757
6.5392284 3.7365477 -1.9726733
6.1403809 4.343369 -1.9699905
5.6248779 4.4007106 -1.8706083
5.2344141 4.5187292 -1.8112134
5.0060253 4.7618527 -1.8096529
4.8874998 4.8790441 -1.8088411
4.7661619 4.9932361 -1.8080086
4.6421289 5.1043653 -1.8071562
4.3862157 5.3171582 -1.8053938
4.1204443 5.5169263 -1.8035586
3.9840624 5.6117883 -1.8026152
3.7047508 5.7912059 -1.8006793
3.2707324 6.0338526 -1.7976631
2.9724267 6.1774411 -1.7955843
2.8208642 6.2436752 -1.7945268
2.5133934 6.3648472 -1.7923782
2.0427442 6.517942 -1.7890816
1.883706 6.5611911 -1.7879549
1.4016747 6.6678414 -1.7846365
1.2396142 6.695498 -1.7835133
1.0770361 6.7191992 -1.782383
0.91404295 6.7389221 -1.7812462
0.75072265 6.7546749 -1.7801036
0.25975096 6.7781005 -1.776648
0.096079096 6.7779698 -1.7754892
-0.067426756 6.7738805 -1.774328
-0.55603516 6.737987 -1.7708375
-1.0398194 6.666975 -1.7673507
-1.1995752 6.6356006 -1.7661923
-1.3584278 6.6004062 -1.7650372
-1.5162792 6.5614319 -1.7638856
-1.6730762 6.5188293 -1.7627749
-2.1361132 6.368772 -1.7594618
-2.7331934 6.1183591 -1.7551765
-3.0215819 5.9723206 -1.7531009
-3.1629295 5.8942599 -1.752082
-3.3023241 5.8128977 -1.7510763
-3.5748487 5.640481 -1.7491069
-3.8385644 5.4555163 -1.7471968
-3.9669433 5.3584681 -1.7462654
-4.0929151 5.2584424 -1.7453504
-4.2164402 5.1555114 -1.7444519
-4.4557371 4.9411793 -1.742708
-4.5714307 4.8299036 -1.741863
-4.7946091 4.5994444 -1.7402296
-5.0622897 4.4075818 -1.7580853
-5.3051267 4.398562 -1.8050288
-5.5612011 4.3888526 -1.8555789
-5.8578758 4.1807652 -1.8850085
-6.0481935 3.8904064 -1.8835937
-6.2244482 3.5916271 -1.8822764
-6.3072071 3.4392736 -1.8816552
-6.4617577 3.1290796 -1.8804889
-6.6656246 2.651386 -1.8789347
-6.7259765 2.4891791 -1.8784698
-6.782495 2.3256633 -1.8780316
-6.8351269 2.1608794 -1.8776208
-6.9286814 1.8279321 -1.876881
-6.9695358 1.6599475 -1.8765528
-7.1140232 0.80860776 -1.8753321
-7.1436472 0.46443114 -1.8750426
-7.1523876 0.29193419 -1.8749406
-7.1576953 -0.053403929 -1.8748229
-7.1542625 -0.22607544 -1.8748071
-7.1352196 -0.57093322 -1.8748617
-7.1196485 -0.74292481 -1.8749321
-7.100029 -0.91452634 -1.8750311
-7.0487156 -1.2561425 -1.8753151
-7.017046 -1.4259735 -1.8754998
-6.9814014 -1.5950171 -1.875713
-6.941782 -1.7632141 -1.8759543
-6.8507323 -2.0966485 -1.8765216
-6.7440429 -2.4255304 -1.8772006
-6.684907 -2.5880539 -1.8775815
-6.6219773 -2.7491837 -1.8779894
-6.4105515 -3.2232618 -1.8793762
-6.2511129 -3.5307269 -1.8804336
-6.1659813 -3.6816113 -1.8810012
-6.0772901 -3.8305097 -1.8815947
-5.88938 -4.1219635 -1.8828573
-5.7902832 -4.2643528 -1.8835258
-5.2452879 -4.939887 -1.8872274
-4.8807421 -5.3133149 -1.8897216
-4.490078 -5.660409 -1.8924067
-4.3543458 -5.7699375 -1.8933423
-4.2159958 -5.8762712 -1.894297
-4.0751071 -5.9793429 -1.8952705
-3.9193699 -6.0599761 -1.8902992
-2.4906249 -6.2163334 -1.7540294
-2.3413184 -6.2783384 -1.755072
-2.1904883 -6.3368073 -1.7561264
-1.8845556 -6.4429345 -1.7582675
-1.5735302 -6.5344334 -1.7604482
-1.2580762 -6.6110373 -1.7626638
-1.0989159 -6.6436834 -1.7637831
-0.77815914 -6.6975193 -1.7660414
-0.45478025 -6.7359486 -1.7683218
-0.29232422 -6.7493362 -1.7694689
-0.12948731 -6.7588177 -1.7706196
0.19692382 -6.7660074 -1.7729288
0.36034667 -6.7636967 -1.7740862
0.85022461 -6.7330923 -1.7775617
1.3375342 -6.6669488 -1.7810271
1.8196924 -6.5654035 -1.7844641
2.1369727 -6.4782062 -1.7867306
2.2940722 -6.4288073 -1.7878543
2.6047559 -6.3185167 -1.7900795
2.7581346 -6.2576814 -1.7911794
3.2252393 -6.08289 -1.8033528
3.4137354 -6.0793133 -1.8261847
3.6070702 -6.0754719 -1.8506405
4.220449 -6.062201 -1.9347351
4.4119725 -6.0220957 -1.9553468
4.5584617 -5.917109 -1.9564081
4.7023926 -5.8085203 -1.9574523
5.118042 -5.4616489 -1.9604756
5.2509079 -5.3392248 -1.9614449
5.5076022 -5.0845838 -1.9633212
5.9825439 -4.5382533 -1.9668106
6.3026657 -4.0986514 -1.969179
6.4021192 -3.9468772 -1.9699184
6.4978223 -3.79265 -1.9706317
6.5897412 -3.6360443 -1.9713187
6.6777735 -3.4771776 -1.971979
7.0579977 -2.652137 -1.9748625
7.3338671 -1.785401 -1.9770168
7.3760886 -1.6082196 -1.9773568
7.4138865 -1.4300201 -1.9776658
7.4762254 -1.071026 -1.9781905
7.5361962 -0.52767575 -1.9787414
7.5536814 -0.16356872 -1.9789497
7.5459957 0.38316956 -1.9790221
7.5183153 0.74666685 -1.9789107
7.4726415 1.1083319 -1.9786714
7.4091163 1.4672186 -1.978305
7.370698 1.6453509 -1.9780743
7.2807031 1.998418 -1.9775192
7.2291989 2.1731188 -1.9771951
7.1733689 2.346472 -1.9768401
7.0489697 2.6886773 -1.9760388
6.9078612 3.0241473 -1.9751178
6.8311377 3.1891081 -1.9746128
6.6656494 3.5129516 -1.9735165
6.576992 3.6716454 -1.9729257
6.3881249 3.98208 -1.9716606
6.1842966 4.282589 -1.9702873
5.2800927 4.4670887 -1.8115249
4.6937013 5.0588293 -1.8075106
4.5680957 5.1681213 -1.8066469
4.4399118 5.2742491 -1.8057641
4.3092237 5.3771482 -1.8048626
4.0406833 5.5730066 -1.803007
3.902993 5.665875 -1.8020538
3.621206 5.8412118 -1.8000995
3.4773047 5.9235716 -1.7990998
3.3315039 6.0023546 -1.7980859
3.034585 6.1489954 -1.7960179
2.8836815 6.2167664 -1.7949651
2.5773633 6.3410592 -1.7928256
2.422163 6.3975143 -1.7917398
2.1081591 6.4989209 -1.7895404
1.9495214 6.5437326 -1.7884043
1.6295898 6.6220345 -1.786214
1.1442627 6.7098837 -1.7828507
0.8182373 6.7486534 -1.7805762
0.65475583 6.762074 -1.7794306
0.4911035 6.7715173 -1.7782803
0.16367675 6.778502 -1.7759683
0.00011230468 6.7760448 -1.774808
-0.16327149 6.7696447 -1.7736458
-0.65112793 6.7268443 -1.7701545
-0.81269526 6.7047653 -1.7689915
-0.97357911 6.6788197 -1.76783
-1.1336865 6.6490221 -1.7666705
-1.2929248 6.6154003 -1.7655139
-1.9194677 6.4435596 -1.761013
-2.3760009 6.2761927 -1.7577419
-2.5252001 6.2132616 -1.7566711
-2.6727393 6.1468177 -1.7556111
-2.8185644 6.0769162 -1.7545625
-3.1047704 5.9269114 -1.7525014
-3.2449951 5.8469043 -1.75149
-3.3831592 5.763629 -1.7504926
-3.5192578 5.6771421 -1.749509
-3.6531689 5.5874877 -1.74854
-3.9141991 5.398922 -1.7466482
-4.2877293 5.0937757 -1.743933
-4.5239649 4.8762035 -1.7422099
-4.6380663 4.7633505 -1.7413758
-4.7494092 4.6478953 -1.7405608
-5.7151608 4.3804736 -1.8860654
-5.9151559 4.0964818 -1.8845834
-6.0100098 3.9511058 -1.8838781
-6.101377 3.8035803 -1.8831969
-6.1892138 3.6539941 -1.8825403
-6.2734518 3.5024474 -1.8819088
-6.3540869 3.3489983 -1.8813022
-6.8642039 2.0636322 -1.8773922
-6.9106393 1.897055 -1.8770248
-6.9531393 1.7294641 -1.8766851
-6.9916744 1.5609515 -1.8763731
-7.0262351 1.3916186 -1.8760891
-7.0568018 1.2215326 -1.8758333
-7.0833545 1.0507983 -1.8756056
-7.1243992 0.70774841 -1.8752352
-7.1388526 0.5356366 -1.875093
-7.1492672 0.3632257 -1.8749793
-7.1579199 0.017932128 -1.8748379
-7.156167 -0.15474425 -1.8748101
-7.1503515 -0.32734618 -1.8748112
-7.1265721 -0.67191648 -1.8748995
-7.108623 -0.84369808 -1.8749866
-7.0866451 -1.0150018 -1.8751025
-6.9966016 -1.5252838 -1.8756216
-6.9166894 -1.8614767 -1.8761092
-6.8707957 -2.0281153 -1.8763956
-6.7673535 -2.3580105 -1.8770512
-6.6484323 -2.6827838 -1.8778176
-6.5832715 -2.8430476 -1.8782419
-6.5143309 -3.0017703 -1.878693
-6.285244 -3.4678171 -1.8802066
-6.2015867 -3.6195166 -1.8807636
-5.7305517 -4.3468509 -1.8839296
-5.626123 -4.4855094 -1.8846366
-5.5184178 -4.6217375 -1.8853675
-5.4074707 -4.755434 -1.8861221
-5.2933445 -4.8865199 -1.8868995
-5.1761131 -5.0149198 -1.8876997
-5.05582 -5.1405768 -1.8885221
-4.8063135 -5.3833466 -1.8902322
-4.4107127 -5.7250695 -1.8929536
-4.2734766 -5.832727 -1.8939003
-3.9912791 -6.0382867 -1.8958503
-3.8005321 -6.0627952 -1.8742034
-3.6024706 -6.0673571 -1.8481991
-3.2215772 -6.0756249 -1.8012242
-3.0379784 -6.079361 -1.7800816
-2.8584569 -6.0828495 -1.7603915
-2.551831 -6.1896911 -1.7536023
-2.2529883 -6.3130732 -1.7556891
-1.3235644 -6.5964446 -1.7622035
-1.16479 -6.6306548 -1.7633196
-1.0051367 -6.6610675 -1.7644429
-0.68351561 -6.7104015 -1.7667085
-0.52175778 -6.7292819 -1.7678492
-0.1968164 -6.7553754 -1.7701437
0.12943847 -6.7658072 -1.7724512
0.29283202 -6.7651358 -1.7736081
0.45624998 -6.7605114 -1.7747661
0.94582516 -6.7229462 -1.7782409
1.2706738 -6.678165 -1.7805511
1.4323388 -6.6498637 -1.7817023
1.5933887 -6.6176291 -1.7828498
1.7536962 -6.5814829 -1.7839932
1.913164 -6.5414324 -1.7851315
2.5409911 -6.3425517 -1.7896224
3.1486669 -6.0842943 -1.7943727
3.335288 -6.0808225 -1.816559
3.7229588 -6.0730882 -1.8657858
3.924829 -6.0687952 -1.893012
4.1326756 -6.0641961 -1.9221255
4.4982224 -5.9609375 -1.9559716
4.9253659 -5.6289048 -1.9590728
5.3274999 -5.2658343 -1.9620041
6.0476856 -4.4541826 -1.9672912
6.1558738 -4.3087444 -1.9680909
6.2605076 -4.1605968 -1.9688662
6.4587498 -3.8566487 -1.9703403
6.64186 -3.5430887 -1.9717094
6.727612 -3.3829076 -1.9723538
6.8093991 -3.2206361 -1.9729704
7.0304785 -2.7220671 -1.9746515
7.2141161 -2.2080638 -1.9760708
7.2667966 -2.0338123 -1.9764843
7.4648046 -1.1454309 -1.9780924
7.5432029 -0.42095029 -1.9788157
7.5515623 -0.23883788 -1.9789172
7.5553756 -0.05660034 -1.9789865
7.5546875 0.12571716 -1.9790241
7.5397506 0.48995543 -1.9790028
7.5255175 0.67171079 -1.9789442
7.4835596 1.0338 -1.9787314
7.4558396 1.2139666 -1.9785769
7.3461084 1.749414 -1.9779243
7.3007274 1.9258465 -1.977644
7.1969433 2.2750206 -1.9769903
7.0760546 2.6185057 -1.9762143
6.8633347 3.1211896 -1.9748249
6.7842283 3.2850096 -1.9743029
3.1704247 5.4204636 -1.7968104
3.0371583 5.4925413 -1.7958837
2.902246 5.5613074 -1.7949444
2.7657666 5.6267223 -1.7939935
2.6278076 5.6887536 -1.7930311
2.4884424 5.7473717 -1.7920581
1.9187597 5.9471569 -1.7880713
1.7737255 5.9883094 -1.7870539
1.6278027 6.0258985 -1.7860296
1.4810938 6.059917 -1.7849989
1.0371387 6.140399 -1.7818745
0.88817871 6.159996 -1.7808244
0.28977051 6.2021594 -1.7765977
-0.0097216796 6.2015061 -1.7744772
-0.60582519 6.1569958 -1.7702467
-1.0476513 6.0862317 -1.7671021
-1.1934717 6.0556202 -1.7660627
-1.3384326 6.0215368 -1.7650285
-1.9080322 5.8510108 -1.7609564
-2.185581 5.7456627 -1.7589669
-2.3222558 5.6880884 -1.7579859
-2.4574463 5.6272998 -1.7570148
-2.9818506 5.3527756 -1.7532382
-3.3559668 5.1152086 -1.7505345
-3.47666 5.0302439 -1.7496603
-3.5952392 4.942472 -1.7488003
-3.7116356 4.8519545 -1.7479553
-3.8258007 4.7587342 -1.7471254
-4.0545802 4.5728111 -1.7487174
-4.1542282 4.4634666 -1.7447317
-4.5103612 4.3999839 -1.8029613
-4.9489889 4.3824143 -1.89149
-5.1505761 4.1353378 -1.8900055
-5.24687 4.008368 -1.8892943
-5.4302049 3.7479112 -1.8879358
-5.6008983 3.4792712 -1.8866649
-5.7585983 3.203042 -1.8854842
-5.8324852 3.0622783 -1.8849286
-5.9030027 2.9198527 -1.8843962
-5.9701071 2.7758403 -1.8838876
-6.0939941 2.4833844 -1.8829426
-6.150713 2.3350987 -1.8825067
-6.2535448 2.034832 -1.881709
-6.4161034 1.4217852 -1.8804156
-6.4755225 1.1103448 -1.8799227
-6.499702 0.95369017 -1.8797151
-6.5369725 0.63894165 -1.8793782
-6.550034 0.48101318 -1.879249
-6.5668602 0.0060516358 -1.8790196
-6.5650144 -0.15237243 -1.8789959
-6.5501318 -0.46888059 -1.8790277
-6.520371 -0.78434873 -1.8791652
-6.4757862 -1.0981017 -1.8794079
-6.41646 -1.4094579 -1.8797556
-6.3813133 -1.564024 -1.8799686
-6.1514401 -2.3224087 -1.8814199
-6.0347018 -2.6174929 -1.8821778
-5.9041014 -2.9068642 -1.8830352
-5.6024704 -3.4659534 -1.8850409
-5.5188622 -3.6011798 -1.8856014
-5.3420997 -3.8656323 -1.8867913
-5.249043 -3.9947186 -1.8874203
-5.1529245 -4.121613 -1.8880713
-5.0537791 -4.2462478 -1.8887444
-4.6281886 -4.720717 -1.8916471
-4.3987403 -4.9425797 -1.8932202
-4.0350976 -5.2546911 -1.895722
-3.6496387 -5.5405226 -1.8983847
-3.3814647 -5.7157068 -1.9002426
-2.9637158 -5.9543662 -1.9031446
-2.6601074 -6.060863 -1.8939154
-2.4888282 -6.0641098 -1.8756164
-2.1553514 -6.069921 -1.843071
-1.9926562 -6.0725017 -1.8287209
-1.0587939 -6.0838795 -1.7669839
-0.46797851 -6.1623983 -1.7683616
-0.31936523 -6.1755567 -1.7694106
-0.17038086 -6.1851392 -1.7704632
-0.021123046 -6.1911387 -1.7715185
0.12831543 -6.1935425 -1.772576
0.2778711 -6.1923413 -1.773635
0.72626954 -6.1670685 -1.7768154
0.87536621 -6.1514192 -1.7778747
1.0241259 -6.1321583 -1.7789323
1.3206103 -6.084281 -1.7814699
1.4748291 -6.0828838 -1.7909601
1.6307422 -6.0813041 -1.8015569
1.7885547 -6.0795379 -1.8132926
2.1107373 -6.0754204 -1.8403214
2.275542 -6.0730557 -1.8556994
2.7878907 -6.0646439 -1.9098835
2.9655566 -6.0613685 -1.930827
3.135874 -6.0360727 -1.946309
3.569912 -5.8027864 -1.9494362
4.9933252 -4.6879497 -1.9597723
5.1071434 -4.5680594 -1.960606
5.2180176 -4.4453635 -1.9614195
5.5323777 -4.0611434 -1.9637343
5.630825 -3.9279461 -1.9644623
5.9912891 -3.3716669 -1.9671434
6.1506982 -3.0806148 -1.9683394
6.3625536 -2.6298671 -1.9699441
6.4851074 -2.3210089 -1.9708835
6.5922995 -2.0063376 -1.9717155
6.6400342 -1.847059 -1.9720904
6.6838379 -1.6866289 -1.9724377
6.7236814 -1.5251324 -1.9727572
6.7595162 -1.3626807 -1.9730487
6.8190966 -1.035296 -1.9735465
6.8624315 -0.70529598 -1.97393
6.8779635 -0.53957093 -1.9740785
6.8848386 0.45836121 -1.9743589
6.871582 0.6243121 -1.9743036
6.8542285 0.7898767 -1.9742192
6.832788 0.95495296 -1.9741058
6.7440772 1.4462212 -1.9735917
6.6192331 1.9294097 -1.97282
6.2643552 2.8607922 -1.970524
6.1920114 3.01036 -1.9700465
6.1160254 3.1580603 -1.9695429
5.8666601 3.589066 -1.9678775
5.776577 3.7284131 -1.9672722
5.683125 3.8654492 -1.9666423
5.5863624 4.0001001 -1.9659885
5.3831248 4.26192 -1.9646105
5.2701511 4.3834081 -1.9614145
5.0291796 4.3925095 -1.910623
4.8000388 4.4009714 -1.8633758
4.5831103 4.4102612 -1.8199514
4.4400339 4.4838624 -1.8055813
4.2149706 4.6887975 -1.8040357
3.9803174 4.8822813 -1.8024191
3.8595898 4.9745851 -1.8015859
3.7366893 5.0638609 -1.8007367
3.6116991 5.1500583 -1.7998718
3.2249854 5.3897276 -1.7971895
3.0924218 5.4631605 -1.7962681
2.8223338 5.6000986 -1.7943878
2.6849706 5.6635399 -1.79343
2.2646484 5.8333154 -1.7904936
2.1220703 5.8829737 -1.7894958
1.978413 5.9291196 -1.7884893
1.5417919 6.0462961 -1.7854255
1.0985644 6.1312428 -1.7823073
0.80059081 6.169817 -1.7802066
0.35166991 6.2004905 -1.7770355
-0.097504884 6.1985741 -1.7738551
-0.24687499 6.1907177 -1.7727957
-0.54454589 6.1642466 -1.7706822
-0.69269532 6.1456552 -1.769629
-0.84025878 6.1235204 -1.768579
-0.98716795 6.0978575 -1.7675331
-1.2786523 6.036036 -1.7654551
-1.4230713 5.9999266 -1.7644242
-1.5664941 5.960382 -1.7633996
-1.7088525 5.917439 -1.7623819
-1.8500537 5.8711252 -1.7613714
-1.9900292 5.8214669 -1.7603689
-2.1286817 5.7685008 -1.759375
-2.66875 5.5243211 -1.7554948
-2.799741 5.4553952 -1.7545514
-2.9289794 5.3834033 -1.7536198
-4.002202 4.6054111 -1.7458409
-4.1102929 4.5054822 -1.7450525
-4.4245701 4.4032202 -1.7861238
-4.635005 4.3952293 -1.8277228
-4.8554001 4.3866687 -1.8723419
-5.0093699 4.3108888 -1.8910458
-5.2074561 4.0610938 -1.8895855
-5.3019528 3.9328246 -1.8888867
-5.9427929 2.8355255 -1.8840948
-6.0078855 2.6906176 -1.8836005
-6.069541 2.5442619 -1.8831298
-6.1823487 2.2474823 -1.8822623
-6.2334666 2.0972419 -1.8818655
-6.2810006 1.9458605 -1.8814939
-6.4019971 1.4857622 -1.8805304
-6.4350586 1.3306848 -1.8802602
-6.5121775 0.86151856 -1.8796054
-6.530488 0.70409179 -1.8794392
-6.5450878 0.54629391 -1.8792993
-6.5559568 0.38821104 -1.8791856
-6.5665379 0.071513057 -1.8790371
-6.5662351 -0.08692871 -1.8790023
-6.5621872 -0.24531189 -1.8789943
-6.5544286 -0.40356138 -1.8790125
-6.5429392 -0.56158388 -1.8790572
-6.527739 -0.7193048 -1.8791281
-6.486196 -1.0334662 -1.8793494
-6.4598875 -1.1897448 -1.8794992
-6.4299121 -1.3453698 -1.8796753
-6.3589845 -1.6543396 -1.8801057
-6.2735691 -1.9597073 -1.8806394
-6.1738329 -2.2608058 -1.8812758
-6.118628 -2.409549 -1.8816319
-6.0599413 -2.5569806 -1.8820132
-5.9978123 -2.7030234 -1.8824191
-5.7908106 -3.1319821 -1.883785
-5.5537939 -3.5455508 -1.885367
-5.4683151 -3.6796238 -1.8859411
-5.1929979 -4.0694604 -1.8877997
-4.5619678 -4.7869244 -1.8921007
-4.4470067 -4.8976307 -1.8928888
-4.0865235 -5.2132306 -1.8953677
-3.9613523 -5.3127222 -1.8962307
-3.8338134 -5.409255 -1.8971112
-3.7039354 -5.5027752 -1.8980089
-3.1626709 -5.8456225 -1.9017614
-2.8800244 -5.9975729 -1.9037271
-2.7318408 -6.0594511 -1.9018887
-2.2233398 -6.0687933 -1.8493664
-2.0595801 -6.0714612 -1.8344989
-1.5822265 -6.0782385 -1.7971629
-1.1212744 -6.0833077 -1.7699757
-0.82460445 -6.1160126 -1.7658476
-0.23196776 -6.1816144 -1.770028
0.066557616 -6.192987 -1.772139
0.2160791 -6.1932774 -1.7731974
0.36565429 -6.1899586 -1.7742572
0.51518553 -6.1830282 -1.7753173
0.6645996 -6.1724834 -1.7763777
0.81380367 -6.1583252 -1.7774372
0.96271485 -6.1405516 -1.7784956
1.259292 -6.0941906 -1.780606
1.4109228 -6.0834832 -1.7869058
1.5661132 -6.0819798 -1.7970424
1.8821386 -6.0784116 -1.8207229
2.0434082 -6.0763364 -1.8343377
2.2071288 -6.0740581 -1.8491911
2.7155664 -6.0659256 -1.9016685
3.6528466 -5.7534251 -1.9500347
3.930166 -5.5762525 -1.9520391
4.1987205 -5.38555 -1.9539847
4.3295507 -5.285253 -1.9549344
4.4579248 -5.1817303 -1.9558673
4.5837793 -5.0750499 -1.9567831
4.7070408 -4.9652634 -1.9576812
4.9454684 -4.7366395 -1.9594222
5.0604687 -4.6179361 -1.9602641
5.1725731 -4.4963889 -1.9610859
5.2817087 -4.3720746 -1.9618875
5.3877831 -4.2450666 -1.9626679
5.4907517 -4.1154385 -1.9634271
5.5905466 -3.9832735 -1.9641641
5.6870899 -3.8486376 -1.9648789
5.7803073 -3.7116265 -1.9655708
5.8701758 -3.5723033 -1.9662393
6.2669044 -2.8441892 -1.9692172
6.3353562 -2.6928763 -1.9697369
6.4000926 -2.5398879 -1.9702307
6.5181589 -2.2292383 -1.9711388
6.6207862 -1.9130056 -1.9719387
6.6662207 -1.7530465 -1.9722977
6.7077098 -1.591972 -1.9726287
6.8081198 -1.1031677 -1.973453
6.8335104 -0.93869931 -1.9736711
6.8548145 -0.77363342 -1.9738603
6.8720455 -0.60808653 -1.9740206
6.8941941 -0.27592528 -1.9742546
6.8998876 0.056951292 -1.9743723
6.8775635 0.55579162 -1.9743299
6.8618946 0.72153199 -1.9742576
6.7903953 1.2156494 -1.9738661
6.7224708 1.5414636 -1.9734609
6.6385498 1.8634491 -1.9729415
6.5906491 2.0227575 -1.9726394
6.4236131 2.4927411 -1.971566
6.3602734 2.6464264 -1.9711533
6.1478662 3.0972748 -1.9697541
6.069746 3.2438354 -1.9692352
5.9028711 3.5308447 -1.9681203
5.814209 3.6711204 -1.9675252
5.7221336 3.8091209 -1.9669055
5.6267381 3.9447668 -1.9662615
5.5280566 4.0779819 -1.9655938
5.4261475 4.2086768 -1.9649026
5.3210983 4.3367882 -1.9641888
4.6706247 4.4056592 -1.8371749
4.4852781 4.4401464 -1.8058915
4.3750391 4.545156 -1.8051355
4.2622705 4.6473913 -1.8043609
4.0295458 4.8432751 -1.8027587
