# .PCD v0.7 - Point Cloud Data file format
VERSION 0.7
FIELDS x y z
SIZE 4 4 4
TYPE F F F
COUNT 1 1 1
WIDTH 1487
HEIGHT 1
VIEWPOINT 0 0 0 1 0 0 0
POINTS 1487
DATA ascii
27.412226 6.4423728 -1.5075548
24.412607 6.3625889 -1.3506504
22.490692 6.4449353 -1.2525407
17.609472 6.4570651 -1.0041369
16.380243 6.4587045 -0.94265366
14.118648 6.3700023 -0.82923222
13.432207 6.4547057 -0.79783738
12.643686 6.4557552 -0.76003516
11.926167 6.4567099 -0.72605741
11.269649 6.4575839 -0.6953727
10.666025 6.4583859 -0.66754836
10.108583 6.4591293 -0.64222908
8.2372313 6.4603686 -0.56044823
7.8407812 6.4608946 -0.5439232
6.7776122 6.4623022 -0.50135589
6.4586377 6.4627256 -0.48915535
6.1546874 6.4631271 -0.47780493
5.864326 6.4635105 -0.46723679
5.5863671 6.4638782 -0.457385
5.3197608 6.4642296 -0.44819695
5.0634961 6.4645677 -0.43962112
4.8167286 6.4648924 -0.43161261
4.1257567 6.4658017 -0.41062567
3.8684423 6.3978453 -0.40026426
3.6519334 6.382638 -0.39368582
3.3046875 6.4823718 -0.3895407
2.9200194 6.4828773 -0.38065329
2.3727782 6.4835925 -0.36962485
2.0240819 6.4840465 -0.36365494
1.8537158 6.4842701 -0.36105362
1.6856836 6.4844885 -0.35869673
1.0321387 6.4853368 -0.35157311
0.71353513 6.4857507 -0.34932068
0.39826658 6.4861584 -0.34790176
0.24140625 6.486361 -0.34749839
0.084809572 6.4865623 -0.34729841
-0.22827636 6.4869666 -0.34750524
-0.38514647 6.4871678 -0.34791267
-0.54247558 6.4873714 -0.34852409
-0.85925782 6.4877782 -0.35036713
-1.0191015 6.4879832 -0.35160431
-1.3426563 6.4883981 -0.35472602
-1.9361426 6.2466989 -0.35012436
-2.7898877 6.2275486 -0.36533064
-3.1848145 6.2785678 -0.37690657
-3.3753662 6.2742929 -0.38142693
-3.9560106 6.2274985 -0.39498359
-4.1892967 6.2560339 -0.40308616
-4.408071 6.2511277 -0.40950727
-5.110322 6.2353735 -0.43161246
-5.362041 6.2297263 -0.44004813
-5.6239843 6.2238512 -0.44908857
-5.893662 6.2141671 -0.45851707
-6.4810543 6.2046237 -0.48034599
-7.0863571 6.1572766 -0.50258589
-7.4719677 6.1823936 -0.51920187
-7.8395801 6.1741476 -0.53424269
-8.1875925 6.1340818 -0.54770947
-9.0861473 6.1461816 -0.58727956
-10.068012 6.1241541 -0.6308952
-10.55998 6.0793481 -0.65234143
-11.210346 6.0985279 -0.68322754
-14.121787 5.9994431 -0.82143372
-16.137011 5.9542332 -0.92086315
-18.714237 5.8964157 -1.0504471
-20.405815 5.8922348 -1.1370975
-24.331394 5.7703991 -1.3387567
-26.963781 5.7113414 -1.4755833
-28.830807 5.3835816 -1.5701929
-19.942768 -21.747412 -1.5797185
-19.043442 -21.799814 -1.5496963
-18.162378 -21.832582 -1.5204214
-16.450396 -21.836529 -1.4636734
-14.85499 -21.835606 -1.4138851
-14.097441 -21.836823 -1.3915298
-13.363051 -21.838007 -1.370659
-12.650034 -21.839155 -1.3511666
-11.953906 -21.835497 -1.3327184
-10.618486 -21.834833 -1.2998714
-9.9743938 -21.834515 -1.2851495
-8.7295313 -21.839495 -1.2591615
-8.1240721 -21.839228 -1.2474802
-2.4696484 -7.7663074 -0.4362998
-6.3697314 -21.842018 -1.2180661
-5.8017774 -21.841621 -1.2098838
-5.2410302 -21.841225 -1.2025048
-4.1382618 -21.840448 -1.1900707
-3.5953565 -21.843697 -1.1851804
-1.4567089 -21.830193 -1.1713219
0.12564453 -21.867456 -1.1707351
0.65479493 -21.913584 -1.173709
1.1873339 -21.967953 -1.1778139
2.2735937 -22.158936 -1.1925493
5.0352635 -25.000298 -1.3653158
5.6566305 -24.95862 -1.3700944
6.579658 -26.094414 -1.4407395
7.241704 -26.05209 -1.4476296
7.908452 -26.002842 -1.4550741
8.5802584 -25.946089 -1.4630575
9.2481298 -25.855804 -1.4701222
9.9120941 -25.736807 -1.4765251
12.00267 -25.495203 -1.5086284
12.71559 -25.400742 -1.5207524
13.437197 -25.298603 -1.5336016
14.908955 -25.070238 -1.5615822
15.660151 -24.943502 -1.5767643
16.422461 -24.807962 -1.5927843
14.42876 -7.9488835 -0.88193607
28.77124 6.4405589 -1.5784461
25.846943 6.4444628 -1.4261276
21.399073 6.4463925 -1.1964931
19.420586 6.3652439 -1.0941418
16.901602 6.4580102 -0.96866238
13.79207 6.4484811 -0.81510705
12.233564 6.4563022 -0.74056011
11.551343 6.4572091 -0.70848817
9.8142233 6.4595203 -0.62901795
9.3177195 6.4601793 -0.60700881
8.7382126 6.3759155 -0.5791136
8.0121584 6.4606676 -0.55102724
7.2662253 6.4616551 -0.52057934
6.9229541 6.4621105 -0.50701016
6.5969529 6.4625425 -0.49440992
6.2865577 6.4629526 -0.48269576
4.9241061 6.4647508 -0.43506584
4.6822753 6.4650693 -0.42735952
3.0030713 6.4827685 -0.38249642
2.8152978 6.4830136 -0.3783924
1.5924462 6.4846091 -0.35747924
0.46735349 6.4860678 -0.34814316
0.15363769 6.4864731 -0.34736183
-0.0028857421 6.4866757 -0.34727517
-0.6309033 6.487484 -0.34895745
-1.7439014 6.4051242 -0.35539114
-1.9110595 6.4053369 -0.35785905
-2.0284228 6.2446299 -0.35151213
-2.3642333 6.2370973 -0.35709891
-2.711704 6.2293015 -0.36372498
-3.4841845 6.271853 -0.38410819
-3.6627197 6.2340784 -0.38709441
-3.8651707 6.229537 -0.39248955
-4.0952487 6.2581458 -0.40040252
-4.5337791 6.2483082 -0.41329932
-4.7387352 6.2099414 -0.4181993
-5.2501755 6.2322364 -0.43626747
-5.5074997 6.2264633 -0.44503555
-5.7755613 6.2204504 -0.45443711
-6.3142381 6.1745973 -0.47280973
-6.9400487 6.1605577 -0.49681693
-7.6753759 6.1778321 -0.52748376
-8.0551167 6.1693125 -0.54320049
-8.8881102 6.1506238 -0.5786652
-10.370053 6.1173778 -0.64458412
-10.88501 6.0720553 -0.66728771
-15.736904 5.9969797 -0.90160656
-16.882484 5.9712777 -0.9587056
-18.183916 5.9420824 -1.0241696
-19.6618 5.9040184 -1.099063
-25.880756 5.7694077 -1.4195837
-28.891376 4.9917102 -1.5696732
-28.987785 4.2910423 -1.568828
-18.554106 -21.828325 -1.5337335
-16.815737 -21.835684 -1.4754901
-10.906391 -21.834974 -1.30669
-8.9993601 -21.839609 -1.2646031
-2.5472558 -7.7255607 -0.43550467
-4.9297071 -21.841005 -1.1987149
-1.6897607 -21.834291 -1.1724356
-0.63293946 -21.828726 -1.1691335
0.42176268 -21.890589 -1.17217
0.95272946 -21.943573 -1.1758984
1.4878368 -22.004683 -1.1807531
2.0299218 -22.08955 -1.1875894
3.1896825 -22.652338 -1.2247039
4.1454148 -25.047207 -1.359192
-2.9542968 6.2837281 -0.52877295
-3.3289452 6.2753234 -0.54096085
-3.7024121 6.2331748 -0.55209684
-4.137495 6.257185 -0.5712539
-4.7851124 6.2088876 -0.59694886
-5.3003759 6.2310963 -0.62296921
-5.5597558 6.2252784 -0.63561529
-6.0797949 6.179841 -0.66018081
-7.3862596 6.1843019 -0.73360866
-8.9766693 6.1486206 -0.82858342
-11.633022 6.055254 -0.99871945
-14.912075 6.0154552 -1.2245113
-15.953017 5.9921021 -1.2977405
-17.127113 5.9657602 -1.3811381
-19.893208 5.8699317 -1.5795001
-20.762245 5.0518165 -1.627239
-20.867075 4.5470982 -1.6263796
-22.693247 4.3744469 -1.759974
-22.851719 3.8357446 -1.7645675
-23.046211 2.1710546 -1.762804
-23.114321 1.0565166 -1.7620629
-23.133247 -0.059559934 -1.7616699
-23.124218 -0.61756283 -1.7616043
-23.10289 -1.1752179 -1.7616256
-22.965054 -2.8437207 -1.7622141
-22.894619 -3.3976052 -1.7625841
-22.716948 -4.5004444 -1.7635858
-22.609867 -5.0489535 -1.7642165
-22.35931 -6.1388798 -1.7657373
-22.215874 -6.6798019 -1.7666272
-20.1602 -7.1388493 -1.6286703
-19.735884 -7.5291691 -1.608602
-19.632084 -8.5959215 -1.6320709
-19.43437 -9.0741568 -1.6333597
-20.878452 -10.369055 -1.7752391
-20.640406 -10.879246 -1.7768059
-20.390863 -11.384561 -1.7784551
-12.337363 -7.6912632 -1.107156
-19.279116 -13.351725 -1.7858692
-18.97327 -13.828814 -1.7879237
-18.328613 -14.763608 -1.7922707
-17.281231 -16.113956 -1.7993722
-15.739717 -17.807579 -1.8098924
-15.32933 -18.21032 -1.8127043
-14.909247 -18.604359 -1.8155868
-14.040708 -19.365288 -1.8215591
-12.404164 -20.008343 -1.7927456
-11.748911 -20.013903 -1.7673277
-11.111513 -20.019129 -1.7436056
-10.490541 -20.024035 -1.7214838
-9.8894091 -20.038214 -1.7016892
-9.4036427 -20.271938 -1.701774
-8.9291649 -20.532612 -1.7050726
-2.5088866 -7.7334509 -0.61914092
-5.3757081 -21.841099 -1.7129031
-4.8199658 -21.840708 -1.7032549
-4.2701464 -21.840319 -1.6946956
1.5946728 -22.018286 -1.6811477
2.1397216 -22.121943 -1.6925155
2.7008739 -22.296083 -1.710323
4.3431735 -22.232187 -1.7250482
7.1766062 -22.133066 -1.7718866
7.7283492 -22.01021 -1.7764643
8.2793064 -21.876221 -1.7812545
8.8293552 -21.730986 -1.7862588
9.3783197 -21.574516 -1.7914764
10.472348 -21.227568 -1.8025546
11.560073 -20.834846 -1.8144948
12.101181 -20.621176 -1.8207891
12.640098 -20.395926 -1.8272976
13.176763 -20.158985 -1.834024
13.710888 -19.910383 -1.8409674
14.242368 -19.649992 -1.8481283
15.296542 -19.093645 -1.8631036
16.852392 -18.169514 -1.8872006
17.363379 -17.837402 -1.8956686
19.362587 -16.387226 -1.9317201
20.331844 -15.588689 -1.9510474
20.80794 -15.17092 -1.9610345
22.862656 -15.035712 -2.0838301
23.250732 -14.499784 -2.0867019
23.625166 -13.953243 -2.0894797
24.331844 -12.829756 -2.0947437
25.28163 -11.074219 -2.1018755
25.567762 -10.471921 -2.1040413
24.027323 -8.512414 -1.9411867
24.246698 -7.9372234 -1.9428735
24.640018 -6.7691526 -1.9459292
27.113926 -6.0591269 -2.1157327
27.272217 -5.4072576 -2.1172845
27.409208 -4.7503247 -2.118407
27.630859 -3.425822 -2.1202838
27.715342 -2.7592645 -2.1210365
27.86207 -0.74840146 -2.1225424
27.870653 0.59642208 -2.1229155
27.749443 2.6097753 -2.122525
27.579687 3.9434936 -2.1216328
25.1754 4.8488865 -1.9524176
24.890028 6.0521021 -1.9506766
20.066347 6.4477525 -1.6050607
14.970019 6.4602609 -1.2416341
13.850981 6.3779845 -1.161244
13.171714 6.4547606 -1.1170315
12.407119 6.4557934 -1.0650902
11.710053 6.4567332 -1.0183287
11.071289 6.4575939 -0.9760468
9.9391603 6.4591184 -0.90268356
9.4340334 6.4597974 -0.87071073
8.521162 6.4597788 -0.81429809
8.1079292 6.4603343 -0.78947592
7.7189159 6.4608569 -0.76655412
7.351655 6.4613485 -0.74534857
6.6739597 6.4622555 -0.70745403
6.359951 6.4626756 -0.69049686
5.2368016 6.4641747 -0.63353306
4.9836717 6.4645114 -0.6215995
4.7397556 6.4648352 -0.61045563
4.0560303 6.4657431 -0.58124703
3.5870018 6.3825779 -0.55754948
3.2420557 6.4823117 -0.55194318
3.04896 6.4825659 -0.54554075
2.6753759 6.4830575 -0.53408879
2.1415038 6.4837584 -0.51999032
1.9694335 6.483984 -0.51604706
1.7998437 6.4842052 -0.51245904
1.467168 6.4846411 -0.50630432
1.1416358 6.4850636 -0.50144881
0.98102051 6.4852734 -0.49948958
0.50532717 6.4858909 -0.49541518
0.34818357 6.4860935 -0.49464461
0.034892578 6.4864988 -0.49397019
-0.59277344 6.4873056 -0.49608383
-0.91010737 6.4877124 -0.49889404
-1.0703174 6.4879184 -0.50074983
-1.2318115 6.4881248 -0.50291359
-1.5393603 6.4047327 -0.50162667
-1.7038428 6.4049411 -0.50471765
-1.870459 6.4051523 -0.50814176
-2.0075049 6.3049669 -0.5038926
-2.1750634 6.3012071 -0.50763839
-2.5048876 6.2600403 -0.51346642
-2.6801512 6.2561083 -0.51829815
-3.0575535 6.2814112 -0.53200555
-3.2450976 6.2772031 -0.53812641
-3.4371092 6.2728953 -0.54470712
-3.8157763 6.2306333 -0.55639029
-4.0226169 6.2259922 -0.56447887
-5.1895456 6.2335815 -0.61767608
-5.7098093 6.2219114 -0.64309317
-5.9548287 6.1826439 -0.65369505
-7.1946287 6.1548314 -0.72102112
-7.5869336 6.1797986 -0.7451731
-7.9613814 6.1713977 -0.76710814
-8.3143158 6.1297116 -0.78662795
-8.781806 6.1529918 -0.81657463
-9.7176609 6.1319947 -0.87504452
-11.410336 6.0940194 -0.98509091
-12.779697 6.0521836 -1.0768266
-13.603125 6.0448241 -1.1335918
-16.592817 5.9777474 -1.3430917
-17.758736 5.9178209 -1.42549
-20.822357 4.7692575 -1.6267478
-21.594662 4.4007263 -1.6782974
-22.8139 4.07865 -1.7648917
-22.96661 2.9712915 -1.7635534
-23.024614 2.4156494 -1.7630137
-23.13331 0.18581176 -1.7617264
-23.129667 -0.37225279 -1.7616225
-22.992201 -2.599782 -1.7620785
-22.849741 -3.7072833 -1.7628299
-22.658457 -4.808064 -1.7639285
-22.544559 -5.3553085 -1.7646078
-22.41853 -5.9001441 -1.7653735
-22.280458 -6.4423375 -1.7662251
-20.378622 -6.4290323 -1.6272888
-20.229305 -6.9227691 -1.6282313
-19.417437 -7.7099266 -1.5909933
-19.715611 -8.3844147 -1.6315287
-19.522621 -8.8643818 -1.6327834
-19.318829 -9.3403511 -1.6341157
-20.246044 -11.665472 -1.7794152
-19.978676 -12.162602 -1.7811928
-19.700008 -12.654183 -1.7830514
-19.410103 -13.140024 -1.7849911
-19.109097 -13.619826 -1.7870107
-18.797016 -14.093337 -1.7891101
-18.140272 -15.020737 -1.7935443
-17.440708 -15.920205 -1.7982882
-17.075142 -16.358828 -1.8007745
-16.313183 -17.212894 -1.8059705
-15.917041 -17.627806 -1.8086789
-15.510986 -18.034306 -1.8114591
-15.095132 -18.432234 -1.8143109
-14.234863 -19.201206 -1.8202227
-10.150064 -20.028172 -1.7098882
-9.6101952 -20.154043 -1.7003388
-9.1386175 -20.419254 -1.703616
-8.1751661 -20.918274 -1.7103209
-6.1716843 -21.78532 -1.7243038
-5.6221094 -21.841269 -1.7174951
-4.5112157 -21.840488 -1.6983236
-2.8850391 -21.844336 -1.6779553
-1.8179247 -21.836596 -1.668674
-1.2878711 -21.82728 -1.6651015
-0.23333983 -21.8398 -1.6632603
0.82425779 -21.93111 -1.671298
1.8973974 -22.055285 -1.6857793
2.4518116 -22.210817 -1.7016964
3.0409081 -22.545862 -1.7324848
3.6164942 -22.670223 -1.7482333
4.1216602 -22.355808 -1.7311527
5.8245411 -22.372049 -1.7604879
6.3812304 -22.290449 -1.7656697
6.9338427 -22.18354 -1.7699419
7.4858689 -22.065596 -1.7744256
11.321577 -20.925087 -1.8117968
11.86353 -20.716581 -1.8179946
12.941103 -20.264601 -1.8310394
13.476367 -20.021135 -1.8378876
14.009087 -19.765917 -1.8449535
5.7735791 -7.7432213 -0.73554265
15.065868 -19.220015 -1.8597372
15.589595 -18.929214 -1.8674558
16.626493 -18.311731 -1.8835461
18.651806 -16.931658 -1.9183438
19.146641 -16.556189 -1.9275873
19.636337 -16.16843 -1.9370483
20.599356 -15.356154 -1.9566168
21.072079 -14.931536 -1.9667213
22.68788 -15.26791 -2.0825386
23.081825 -14.736764 -2.0854511
14.39457 -7.7862539 -1.2462813
24.519423 -12.50801 -2.0961466
24.842695 -11.92666 -2.0985701
23.685331 -9.3290482 -1.9385757
23.926132 -8.7632799 -1.9404119
24.152119 -8.1908846 -1.9421448
24.363085 -7.6122618 -1.9437727
24.558828 -7.0278091 -1.9452943
24.73914 -6.4380059 -1.9467077
27.206434 -5.6948009 -2.1167519
27.351152 -5.0396338 -2.1179287
27.478397 -4.3805542 -2.1189826
27.68038 -3.052629 -2.1207209
27.754911 -2.3847551 -2.1214037
27.811649 -1.7149872 -2.1219611
27.850615 -1.0438068 -2.1223929
27.860233 0.97313964 -2.1229291
27.827606 1.6448566 -2.1228542
27.708975 2.984395 -2.1223254
25.101894 5.1875706 -1.9519758
22.737753 6.4441381 -1.7997454
19.030556 6.4000192 -1.5289918
17.767813 6.4564795 -1.4396327
16.519657 6.4581676 -1.3507352
15.416074 6.4596591 -1.2728753
12.008852 6.4563303 -1.0382974
9.6516457 6.4595041 -0.88442135
9.045825 6.375288 -0.84275824
8.6001167 6.377131 -0.81533545
7.5105858 6.4611349 -0.75447029
6.816987 6.4620652 -0.71530902
5.6191549 6.4636645 -0.65222478
5.3512301 6.4640222 -0.63904542
4.8459034 6.4646945 -0.61526078
4.6068163 6.4650121 -0.60453558
4.3757958 6.4653187 -0.59451759
4.1521726 6.4656153 -0.5851624
3.6765525 6.3824596 -0.56091559
3.4743946 6.3827271 -0.5534116
2.7561669 6.4829516 -0.53645825
2.5734324 6.4831905 -0.53118539
2.3941405 6.483429 -0.52631766
2.0447607 6.4838853 -0.51773649
1.8741162 6.4841089 -0.51399428
1.539624 6.4845457 -0.50754339
1.3753173 6.4847593 -0.504816
1.0514843 6.4851828 -0.50031263
0.8915332 6.4853892 -0.4985244
0.57459962 6.4858017 -0.49584585
0.41721189 6.4860044 -0.4949469
0.26030761 6.486207 -0.49433959
0.10370117 6.4864097 -0.49401999
-0.052788086 6.4866114 -0.49398908
-0.36619139 6.4870152 -0.49478987
-0.68133789 6.4874206 -0.49674994
-1.1606299 6.4880333 -0.50192356
-1.6312792 6.4048495 -0.50331718
-1.7969238 6.4050584 -0.50659561
-1.9345946 6.3066025 -0.50235432
-2.101084 6.302866 -0.50594902
-3.3521142 6.2748032 -0.54175603
-3.5468066 6.2704358 -0.54860806
-3.7266893 6.2326303 -0.55300826
-3.9309471 6.2280493 -0.560853
-4.3812842 6.2517152 -0.58135724
-5.0805664 6.2360277 -0.61254597
-5.3311329 6.2304063 -0.62444603
-5.8634567 6.2184644 -0.65087026
-6.1145358 6.1790638 -0.66199636
-6.4442282 6.2054358 -0.68128312
-6.7558398 6.1984448 -0.6982125
-7.0458446 6.1581688 -0.71261841
-7.7940674 6.1751523 -0.75725198
-8.1810694 6.1664696 -0.78016728
-8.546772 6.1244955 -0.8007161
-9.0311766 6.1473961 -0.83196038
-10.491836 6.0808568 -0.92348307
-11.135996 6.1001759 -0.96693587
-16.069931 5.982688 -1.3058269
-20.660883 5.4938831 -1.6280594
-20.775503 4.9910045 -1.6271311
-20.878935 4.4860387 -1.6262815
-22.861635 3.7690074 -1.7644819
-23.000629 2.6600671 -1.7632403
-23.051699 2.1038659 -1.7627496
-23.09041 1.5468365 -1.7623461
-23.116903 0.98918456 -1.7620291
-23.122284 -0.68487728 -1.7616023
-23.099422 -1.2424988 -1.7616346
-23.064316 -1.7994878 -1.7617538
-23.01689 -2.355598 -1.7619604
-22.957197 -2.9106338 -1.7622541
-22.596123 -5.1149826 -1.7642986
-22.475468 -5.660924 -1.7650259
-22.197763 -6.7449002 -1.7667402
-20.296318 -6.7060552 -1.6278073
-20.140829 -7.1980538 -1.6287937
-19.797041 -8.1722107 -1.6310014
-19.409794 -9.1316137 -1.6335201
-20.850302 -10.430875 -1.775424
-20.359985 -11.44521 -1.7786598
-20.097591 -11.944676 -1.7804015
-12.310991 -7.7246933 -1.1067916
-19.242783 -13.409617 -1.7861129
-18.935585 -13.885942 -1.7881771
-18.617392 -14.355885 -1.7903209
-18.288334 -14.819184 -1.7925428
-17.598082 -15.724929 -1.7972194
-17.237114 -16.166912 -1.7996722
-16.865757 -16.601305 -1.8022006
-16.484159 -17.027884 -1.804803
-14.427173 -19.035263 -1.8188998
-13.537787 -19.775347 -1.8250244
-12.996294 -20.003155 -1.8165793
-11.671103 -20.014551 -1.7643776
-11.035757 -20.019737 -1.7408504
-10.416665 -20.024605 -1.7189173
-9.8185787 -20.040916 -1.6994841
-9.3467426 -20.303925 -1.7021693
-7.405293 -21.277685 -1.7156881
-2.4876025 -7.744617 -0.61945283
-4.7533102 -21.840658 -1.7021612
-4.2041454 -21.840273 -1.693734
-3.1210938 -21.844248 -1.6803968
-2.0516014 -21.83913 -1.6704345
-1.5206397 -21.831371 -1.6665499
-0.99193358 -21.82585 -1.6638162
-0.46483886 -21.830282 -1.6628165
0.061977539 -21.862871 -1.6649276
0.59076661 -21.907604 -1.6689347
1.1228515 -21.961168 -1.6745936
2.2066553 -22.141005 -1.6944547
3.3883104 -22.791225 -1.7546922
4.4044971 -22.202351 -1.7237225
4.9085546 -21.954327 -1.7131633
7.243237 -22.11882 -1.772428
8.3457327 -21.859266 -1.7818474
8.8956833 -21.712685 -1.7868774
9.4444971 -21.554873 -1.7921205
10.538183 -21.205185 -1.8032504
11.082734 -21.013176 -1.8091389
11.625478 -20.809649 -1.8152435
12.166255 -20.594624 -1.8215628
13.775209 -19.879589 -1.84182
14.306353 -19.617767 -1.8490075
14.834595 -19.344093 -1.8564126
15.359746 -19.058538 -1.8640355
16.399809 -18.45158 -1.8799345
18.432655 -17.09289 -1.9143481
18.929678 -16.72278 -1.9234965
19.908417 -15.945847 -1.9424433
20.864981 -15.119753 -1.9622521
22.510517 -15.497969 -2.0812297
14.399448 -7.9874792 -1.25397
24.372568 -12.760695 -2.0950482
24.70244 -12.183389 -2.0975175
25.017303 -11.59705 -2.0998828
25.316992 -11.001974 -2.1021428
25.60121 -10.398668 -2.1042953
23.82205 -9.0129004 -1.9396172
24.474657 -7.2854905 -1.9446386
24.661787 -6.6979694 -1.9460998
27.289639 -5.328176 -2.1174262
27.542089 -4.0097175 -2.1195197
27.642031 -3.3455467 -2.1203814
27.724306 -2.6786718 -2.1211188
27.788857 -2.0096576 -2.1217313
27.875683 0.0051068114 -2.1228139
27.868847 0.67754757 -2.1229215
27.74118 2.690501 -2.1224852
27.567186 4.0236268 -2.121563
25.160009 4.9218893 -1.9523256
21.624434 6.4456444 -1.7183639
19.628466 6.370173 -1.5715262
18.370331 6.4556651 -1.4828213
17.048906 6.4574523 -1.3883314
14.851411 6.4604211 -1.2333519
13.789579 6.3984423 -1.1576567
13.075537 6.4548912 -1.1104639
12.319619 6.4559107 -1.0591884
10.997773 6.4576926 -0.97121882
10.415235 6.4584775 -0.93326581
9.3754835 6.4598765 -0.86703938
8.0597553 6.4603992 -0.78661269
7.3087058 6.4614062 -0.74289793
6.6352539 6.462307 -0.70534229
6.3230762 6.4627256 -0.68853331
5.7405224 6.4635034 -0.65831679
5.4676852 6.4638672 -0.64472723
4.7108984 6.4648743 -0.60916179
3.7672119 6.3823385 -0.56438422
3.5626073 6.3826098 -0.5566448
3.2185156 6.4823437 -0.55114591
3.0259619 6.4825974 -0.54480141
1.4473339 6.4846668 -0.50597554
0.80238277 6.4855051 -0.49765411
0.32924315 6.4861178 -0.49457082
0.016005859 6.4865232 -0.49396741
-0.14051269 6.4867249 -0.4940969
-0.29719236 6.4869275 -0.49451414
-0.92938477 6.4877377 -0.49910194
-1.0897217 6.4879432 -0.50099468
-1.4145849 6.488358 -0.50571197
-2.1954541 6.3007493 -0.50811422
-2.8960595 6.2850342 -0.52699047
-3.0799706 6.2809081 -0.5327211
-3.2680321 6.2766881 -0.53889495
-4.0696335 6.258707 -0.56851745
-4.2846289 6.2538829 -0.57730293
-4.5064893 6.2489076 -0.58671135
-4.710669 6.2105565 -0.59361053
-4.9469385 6.205256 -0.60433662
-5.21978 6.2329049 -0.61911416
-6.278379 6.1753869 -0.6706351
-7.2360692 6.1539011 -0.72337621
-7.6309762 6.1788111 -0.74773115
-8.008091 6.1703501 -0.76987141
-9.7784472 6.1306324 -0.87890577
-10.813696 6.0736351 -0.94449538
-12.826059 6.0284872 -1.0792496
-13.705395 6.0425291 -1.1406424
-15.60769 5.9998484 -1.273368
-16.736586 5.9745212 -1.3533112
-18.017353 5.945786 -1.4448549
-20.606899 5.7141709 -1.6284927
-20.726475 5.2123752 -1.6275296
-21.887764 4.3941102 -1.7000743
-22.824492 4.0120068 -1.7648013
-22.905542 3.4588404 -1.7640989
-23.030718 2.3485167 -1.762955
-23.074921 1.7918097 -1.7625128
-23.106768 1.2344292 -1.7621579
-23.128447 -0.43959472 -1.7616155
-23.110981 -0.99741024 -1.7616098
-23.081289 -1.55466 -1.7616905
-23.039272 -2.1112158 -1.7618588
-22.918413 -3.221082 -1.7624567
-22.8396 -3.7739379 -1.7628862
-22.748564 -4.3250332 -1.7634027
-22.530005 -5.4212265 -1.7646955
-22.402504 -5.9657278 -1.7654718
-22.262939 -6.5075912 -1.7663339
-19.876352 -7.9592333 -1.6304893
-19.6929 -8.4425478 -1.631676
-19.498573 -8.9220572 -1.6329403
-20.471693 -11.223962 -1.7779202
-19.945644 -12.222263 -1.7814126
-18.758642 -14.150061 -1.7893685
-18.434345 -14.616321 -1.7915564
-17.397108 -15.973534 -1.7985846
-16.265869 -17.263401 -1.8062937
-15.044316 -18.479626 -1.8146595
-13.736401 -19.615913 -1.8236554
-13.282001 -19.975834 -1.8267888
-12.617148 -20.006496 -1.8012267
-8.6020947 -20.704145 -1.7073483
-8.1161623 -20.94705 -1.7107321
-6.1097851 -21.808638 -1.7247366
-5.554316 -21.841221 -1.7162123
-4.996572 -21.84083 -1.7062109
-4.4449167 -21.840445 -1.6973088
-3.8986719 -21.840057 -1.6894723
-3.3578758 -21.84416 -1.6830369
-0.6965332 -21.828335 -1.6631393
0.88847166 -21.937572 -1.671978
1.9635497 -22.071777 -1.6874702
2.5194628 -22.230082 -1.7037256
3.1153319 -22.600533 -1.7373712
3.6780322 -22.632187 -1.7461146
4.6877589 -22.063366 -1.717695
5.2927732 -22.255503 -1.7420895
5.8889551 -22.352278 -1.7602736
7.0004883 -22.169905 -1.7704715
7.5524559 -22.050585 -1.7749815
8.1036425 -21.920151 -1.7797037
8.6540327 -21.778534 -1.7846394
9.2033052 -21.625656 -1.7897886
9.7514744 -21.461491 -1.7951519
10.843511 -21.099009 -1.8065234
11.387099 -20.900576 -1.8125327
12.468432 -20.469055 -1.8251987
13.005839 -20.235834 -1.8318545
13.540767 -19.990959 -1.8387289
14.07312 -19.734322 -1.8458208
15.129257 -19.185568 -1.8606569
16.172329 -18.589071 -1.8763653
16.68853 -18.2729 -1.8845454
17.708906 -17.604256 -1.9015607
18.212656 -17.251713 -1.9103956
18.711786 -16.886984 -1.919448
19.206024 -16.51008 -1.928717
19.695078 -16.120817 -1.9382044
20.17878 -15.719404 -1.9479059
20.656738 -15.305552 -1.9578254
22.316807 -15.716064 -2.0786159
22.736063 -15.204382 -2.0828946
23.128447 -14.67191 -2.0857964
23.507236 -14.128681 -2.088604
14.393242 -7.7314353 -1.2442094
25.478212 -10.664949 -2.1033626
23.715185 -9.2611551 -1.938803
23.95417 -8.6945105 -1.9406265
24.178358 -8.1213751 -1.9423468
27.367411 -4.9602861 -2.1180623
27.492598 -4.3007483 -2.1191018
27.600243 -3.637892 -2.1200178
27.854042 -0.96270508 -2.1224358
27.873016 -0.2905896 -2.1227262
27.857246 1.0542151 -2.122927
27.8225 1.7258551 -2.1228368
27.769941 2.3962927 -2.1226206
27.43416 4.3838072 -2.1156967
25.215067 4.6555614 -1.9526534
24.939775 5.8612757 -1.9509845
24.778418 6.4578967 -1.9499807
22.489082 6.4444752 -1.7815367
20.607246 6.4470224 -1.644307
16.379354 6.4583569 -1.3407974
15.291382 6.4598265 -1.264129
14.117973 6.3696961 -1.1794792
13.431602 6.4544101 -1.1348236
11.925673 6.4564414 -1.032729
11.269199 6.4573278 -0.98908442
8.9902439 6.3753624 -0.83930779
8.5482025 6.3772922 -0.81217098
7.8405371 6.4606943 -0.7736727
7.4665723 6.461195 -0.75193661
6.7774167 6.4621177 -0.71312767
6.4584522 6.4625449 -0.69577277
6.1545167 6.4629502 -0.6796307
5.8641696 6.4633374 -0.66459721
4.8166113 6.4647336 -0.61392796
4.5785251 6.4650488 -0.60329068
3.6518555 6.3824925 -0.55998099
3.4503613 6.3827586 -0.55253899
3.3046141 6.4822302 -0.55408418
2.919956 6.4827366 -0.54144561
2.733911 6.4829807 -0.53579944
2.1969581 6.4836864 -0.52132446
2.0240381 6.483912 -0.51726562
1.8536718 6.4841356 -0.5135656
1.6856543 6.4843564 -0.51021272
1.5197021 6.4845724 -0.50719696
1.0321143 6.4852076 -0.50008065
0.87230468 6.485415 -0.49832815
0.71352047 6.485621 -0.49687713
0.39825684 6.4860287 -0.49485779
0.24140136 6.4862313 -0.49428535
-0.22827636 6.4868369 -0.49429533
-0.38513184 6.4870396 -0.49487555
-0.54246581 6.4872413 -0.49574462
-0.70043945 6.4874449 -0.49690717
-0.85924315 6.4876475 -0.49836478
-1.1801513 6.488059 -0.50218958
-1.9545703 6.3061547 -0.50276983
-2.1213379 6.3024144 -0.50640529
-2.9986131 6.282733 -0.53014791
-3.1848094 6.2785559 -0.53612524
-3.3753612 6.274282 -0.54255599
-3.9560008 6.2274866 -0.56183892
-4.1892872 6.2560215 -0.57336521
-4.8420115 6.2076111 -0.59952885
-5.1103125 6.2353611 -0.61393899
-5.6239743 6.2238364 -0.63880074
-7.0863376 6.1572595 -0.7148962
-7.4719434 6.1823792 -0.7385301
-7.8395605 6.1741319 -0.75992435
-8.5979147 6.1233482 -0.80383444
-10.067988 6.1241355 -0.89740574
-11.210298 6.0985069 -0.97184128
-13.338891 6.0507507 -1.1154169
-17.369566 5.9370165 -1.3978786
-18.71414 5.8963852 -1.4942003
-20.550776 5.9340978 -1.6289412
-20.890682 4.4249744 -1.6261842
-22.871435 3.7022533 -1.7643971
-22.945601 3.1482658 -1.7637433
-23.05702 2.03669 -1.7626964
-23.094252 1.479538 -1.7623032
-23.132168 -0.19428161 -1.7616463
-23.095854 -1.3097503 -1.7616442
-23.059252 -1.8666232 -1.7617741
-23.010332 -2.422648 -1.7619914
-22.790087 -4.0829759 -1.763165
-22.582197 -5.1809921 -1.7643819
-22.460043 -5.7266488 -1.7651199
-20.278124 -6.765614 -1.6279222
-20.82205 -10.492623 -1.7756097
-20.581249 -11.001698 -1.7771962
-12.318178 -7.7792845 -1.1094705
-19.206308 -13.46744 -1.7863576
-18.578266 -14.412127 -1.7905847
-17.906773 -15.330234 -1.7951255
-17.192862 -16.219757 -1.7999732
-16.820282 -16.653196 -1.8025104
-16.438032 -17.078838 -1.8051177
-16.044477 -17.496367 -1.8078071
-15.641597 -17.905581 -1.8105643
-14.80642 -18.698153 -1.816293
-14.374599 -19.081032 -1.8192613
-13.933262 -19.45462 -1.8222991
-12.914097 -20.003885 -1.813224
-11.593486 -20.015192 -1.7614485
-9.7588959 -20.067287 -1.6993062
-9.289731 -20.335798 -1.7025656
-8.8136082 -20.593946 -1.7058765
-7.8410497 -21.078432 -1.7126493
-2.4663086 -7.7557921 -0.61976993
-5.8017087 -21.841396 -1.7209636
-5.2409763 -21.841 -1.7104712
-4.6867576 -21.840612 -1.7010922
-4.1382227 -21.840227 -1.692788
-3.5954051 -21.844069 -1.6858712
-2.5202441 -21.8414 -1.6743219
-1.4567187 -21.830248 -1.6661361
-0.92827147 -21.826385 -1.6636453
-0.40129393 -21.830818 -1.6627603
0.65480465 -21.914053 -1.669564
1.1873682 -21.968502 -1.6754096
1.7248682 -22.034199 -1.683103
2.2737207 -22.160103 -1.6964141
2.8462744 -22.402889 -1.7197622
4.4657226 -22.17248 -1.7224061
6.2048826 -22.322182 -1.7643523
6.7575927 -22.218842 -1.768556
7.3098435 -22.104427 -1.7729722
8.9619675 -21.694267 -1.7874982
9.5106392 -21.535044 -1.7927679
10.058018 -21.364515 -1.7982516
11.14832 -20.98925 -1.8098637
11.690884 -20.784353 -1.815994
12.231464 -20.567884 -1.8223405
13.305937 -20.100079 -1.8356795
13.839478 -19.848574 -1.8426766
14.370268 -19.585337 -1.8498902
14.898164 -19.310246 -1.8573214
15.422866 -19.023291 -1.8649696
15.944297 -18.724354 -1.8728367
17.991728 -17.40822 -1.9064841
18.492889 -17.048841 -1.915441
18.989355 -16.677282 -1.9246153
19.966806 -15.897361 -1.9436147
20.447334 -15.488994 -1.9534384
20.921953 -15.068288 -1.9634756
22.559433 -15.435004 -2.0815904
23.713486 -13.819758 -2.0901361
25.352139 -10.929585 -2.1024084
23.850918 -8.9444923 -1.9398373
24.68334 -6.6266937 -1.946269
25.053114 -6.0820627 -1.9632821
27.156729 -5.9028573 -2.1163518
27.306864 -5.2490788 -2.1175666
27.555088 -3.9296868 -2.1196303
27.733046 -2.5980115 -2.1211994
27.795507 -1.9288442 -2.1217971
27.866875 -0.58615232 -2.1226141
27.87583 0.086235352 -2.1228337
27.84 1.4307232 -2.1228921
27.795292 2.1016932 -2.1227317
27.652412 3.4387169 -2.1220305
25.410458 4.4134898 -1.9640514
25.144356 4.9949036 -1.9522318
24.683231 6.7907081 -1.9495364
21.397608 6.4459519 -1.7018209
15.754028 6.4592028 -1.2966386
14.734302 6.4605799 -1.2251812
13.789634 6.4473424 -1.1592321
12.980419 6.4550195 -1.1039774
12.233042 6.4560275 -1.0533562
11.550883 6.4569483 -1.0077389
10.924951 6.4577918 -0.96644622
10.347968 6.4585681 -0.92892092
9.3173971 6.4599547 -0.86340415
7.2660108 6.4614635 -0.74046904
6.922749 6.4619236 -0.72116727
6.5967722 6.4623594 -0.70324868
5.9902391 6.4631701 -0.67107671
5.4354978 6.4639096 -0.64315039
5.174819 6.4642563 -0.63057762
4.9239697 6.464591 -0.61883897
4.4486523 6.4652219 -0.59764016
4.2227244 6.4655209 -0.58807683
3.538286 6.3826427 -0.55574727
3.339746 6.3829041 -0.54859555
3.0030029 6.4826269 -0.54406583
2.8152344 6.4828734 -0.53822857
2.6313281 6.4831161 -0.53282273
2.4509864 6.4833546 -0.52782762
2.0997264 6.4838133 -0.51900536
1.5924121 6.4844775 -0.50848168
1.1027588 6.485116 -0.50094795
0.94243163 6.4853234 -0.49906203
0.7832129 6.4855309 -0.4974781
0.62493163 6.4857359 -0.49619353
0.46734864 6.48594 -0.49520233
0.1536328 6.4863453 -0.49409026
-0.31612793 6.4869518 -0.4945845
-1.2710059 6.4881735 -0.50348264
-1.4343896 6.4883823 -0.50603646
-3.1024463 6.2804041 -0.53344315
-3.2910204 6.2761731 -0.53967178
-3.4841747 6.2718396 -0.54636693
-3.66271 6.234066 -0.55061787
-3.8651609 6.2295251 -0.55829191
-4.0952392 6.258131 -0.56954545
-4.3110156 6.2532921 -0.57840359
-4.5337644 6.2482944 -0.58788979
-4.9760156 6.2046041 -0.60568005
-5.7755418 6.2204356 -0.64640397
-6.9400291 6.160543 -0.70668834
-7.6753516 6.177815 -0.75031263
-8.4134474 6.1274877 -0.79261875
-8.8880806 6.1506052 -0.82311428
-9.2975779 6.1076498 -0.84713978
-9.839819 6.1292539 -0.88281184
-10.370024 6.1173596 -0.91687316
-10.884971 6.0720372 -0.94917148
-11.503911 6.0581503 -0.99010342
-16.882412 5.9712501 -1.3636912
-20.621939 5.6537147 -1.6283722
-20.847206 4.6473241 -1.6265436
-22.914467 3.3920135 -1.7640203
-22.981709 2.8372681 -1.7634155
-23.036709 2.2813654 -1.762897
-23.127851 0.6092273 -1.7618634
-23.126978 -0.50695252 -1.7616104
-23.108086 -1.0646607 -1.7616147
-23.07686 -1.6218976 -1.7617062
-23.033329 -2.1783452 -1.7618852
-22.977627 -2.7337503 -1.7621505
-22.829243 -3.8405154 -1.7629441
-22.736748 -4.3914413 -1.763471
-22.632074 -4.9403763 -1.7640846
-22.515253 -5.4870462 -1.7647847
-22.245293 -6.5728216 -1.7664437
-20.02869 -7.5312729 -1.6295103
-19.268026 -9.4546366 -1.634449
-20.688524 -10.778562 -1.7764887
-19.912445 -12.281773 -1.7816339
-19.63106 -12.772017 -1.7835122
-19.338442 -13.256392 -1.7854714
-19.034775 -13.734689 -1.78751
-18.720068 -14.206701 -1.7896285
-18.394478 -14.672115 -1.7918255
-17.353413 -16.026745 -1.7988815
-16.985312 -16.463572 -1.8013861
-16.606972 -16.892693 -1.803965
-16.218491 -17.313789 -1.8066175
-15.819946 -17.726746 -1.8093432
-14.993315 -18.526947 -1.8150096
-14.565571 -18.913824 -1.8179481
-13.682016 -19.659895 -1.8240302
-12.536347 -20.007196 -1.7979987
-11.877358 -20.012829 -1.7722266
-10.006665 -20.033716 -1.7053547
-9.4968891 -20.219007 -1.7011261
-8.5437546 -20.733982 -1.7077544
-8.0571041 -20.97562 -1.7111436
-7.5639305 -21.206421 -1.7145816
-2.5436766 -7.7146959 -0.61860764
-6.0477977 -21.831812 -1.7251701
-3.2928417 -21.844185 -1.6822938
-2.2213573 -21.839956 -1.671757
-1.6897656 -21.834345 -1.6677238
-0.63294923 -21.828871 -1.6630312
0.9527539 -21.944044 -1.6726785
1.4878808 -22.005234 -1.6795875
2.0300391 -22.090712 -1.6893611
3.7394187 -22.594145 -1.7440169
-3.3289404 6.2753124 -0.70216703
-3.523042 6.270957 -0.71098644
-3.7024071 6.2331638 -0.71662092
-3.9059765 6.2285962 -0.72671956
-4.1374903 6.2571716 -0.74148834
-4.5787988 6.2472715 -0.76562196
-4.7851071 6.2088742 -0.77484047
-5.0240917 6.2035117 -0.78907269
-5.3003612 6.2310839 -0.80861092
-5.559751 6.2252636 -0.8250283
-5.830039 6.2192001 -0.84262115
-7.0055857 6.1590562 -0.92204344
-7.3862352 6.1842856 -0.95222235
-7.7488718 6.1761498 -0.97947901
-8.13311 6.1675282 -1.0089408
-8.9766455 6.1486011 -1.0755006
-9.3919239 6.105515 -1.1072806
-9.9417629 6.1269469 -1.154341
-11.062392 6.1018028 -1.2487911
-11.632983 6.055233 -1.2963257
-15.877578 5.5305295 -1.6619323
-17.704741 4.3078732 -1.8011165
-18.011669 2.5782526 -1.7985418
-18.138788 1.2681793 -1.7973377
-18.161465 0.83012569 -1.7970753
-18.174263 0.39173338 -1.7968829
-18.177172 -0.046797484 -1.7967603
-18.090204 -1.7981896 -1.7969694
-17.921675 -3.1031737 -1.7978594
-17.845938 -3.5354528 -1.7982953
-17.760429 -3.9660366 -1.7988006
-17.560356 -4.8212986 -1.8000185
-17.445845 -5.2455664 -1.8007307
-17.321737 -5.6673527 -1.8015115
-15.936611 -6.079762 -1.6860228
-15.555273 -6.3682499 -1.6614509
-15.406069 -6.7455587 -1.6624196
-15.24833 -7.1196494 -1.6634495
-14.90727 -7.85741 -1.6656927
-14.532568 -8.5800486 -1.6681777
-14.124848 -9.2861271 -1.6709002
-15.104326 -10.46047 -1.816097
-14.860971 -10.831536 -1.8177338
-14.348511 -11.557648 -1.8211932
-13.802358 -12.261149 -1.8248963
-13.223417 -12.940491 -1.8288374
-12.921938 -13.270627 -1.8308951
-12.612602 -13.594157 -1.83301
-12.295537 -13.910893 -1.8351811
-11.970883 -14.220713 -1.8374076
-10.952822 -15.106469 -1.8444096
-10.599287 -15.386615 -1.8468475
-9.8715429 -15.923144 -1.8518749
-9.4978075 -16.179209 -1.8544617
-9.1176558 -16.426908 -1.8570952
-8.731328 -16.666082 -1.8597749
-8.3389502 -16.896566 -1.8624994
-7.536777 -17.330853 -1.8680776
-2.505415 -7.7227607 -0.80253559
-5.4388037 -18.253778 -1.8827163
-4.5668211 -18.5548 -1.8888198
-4.1247363 -18.690224 -1.8919183
-3.6788378 -18.815332 -1.895046
-2.7761719 -19.034315 -1.9013858
-2.320415 -19.12796 -1.9045906
-1.8613476 -19.21088 -1.9078214
-1.3997656 -19.282986 -1.9110726
-0.93566895 -19.344204 -1.9143442
-0.0018017577 -19.433506 -1.9209349
0.46759763 -19.461439 -1.9242516
0.93906248 -19.478144 -1.9275856
2.830996 -19.431217 -1.9409907
4.2506785 -19.275284 -1.9510778
4.7059326 -19.132635 -1.9475653
5.1222997 -18.852329 -1.9310507
5.4937744 -18.448576 -1.9027174
6.3108106 -17.973057 -1.8829098
7.6475973 -17.593052 -1.8962137
8.0894232 -17.445862 -1.9008285
8.9660254 -17.120447 -1.9103222
9.4003267 -16.942299 -1.9151969
9.8316841 -16.753855 -1.9201548
10.259833 -16.555145 -1.9251938
11.522622 -15.897539 -1.9407779
12.344043 -15.408247 -1.9515368
13.540473 -14.598744 -1.9681849
13.928764 -14.309018 -1.9738613
14.687954 -13.700085 -1.9853891
15.058413 -13.381083 -1.9912356
15.422353 -13.052468 -1.9971331
15.779555 -12.714366 -2.0030782
16.808115 -11.644277 -2.0211711
17.135752 -11.269384 -2.0272782
17.455303 -10.885602 -2.0334179
17.766571 -10.493091 -2.039587
17.361319 -8.1094828 -1.8940867
17.566181 -7.6945915 -1.8956335
20.163378 -5.5393224 -2.0669253
20.427822 -4.5649877 -2.0690236
20.541084 -4.0726743 -2.0699399
20.641592 -3.5774074 -2.0707664
20.729248 -3.079525 -2.0715027
20.803984 -2.5793917 -2.0721478
20.865723 -2.0773346 -2.0727017
20.914433 -1.5737408 -2.0731635
20.950008 -1.0689582 -2.0735326
20.972509 -0.56334043 -2.0738091
20.981884 -0.057268064 -2.0739932
20.978008 0.44892272 -2.0740831
20.887774 1.9644506 -2.0737963
20.679813 3.4678819 -2.0726731
20.584599 3.9646764 -2.0721145
20.154335 4.3885217 -2.0388701
14.969267 6.4599376 -1.611564
13.850327 6.3776817 -1.5072331
11.709579 6.4564672 -1.3217399
10.482715 6.4581418 -1.2170386
9.9387941 6.4588828 -1.171643
9.4336958 6.4595699 -1.130146
8.8451557 6.3753405 -1.077751
8.5208788 6.4595666 -1.0569259
7.7186813 6.4606576 -0.99496001
5.23667 6.4640088 -0.82230628
4.7396288 6.4646764 -0.79235393
4.5041842 6.4649925 -0.77884322
4.2764893 6.4652963 -0.76622593
3.8013964 6.3976378 -0.7355966
3.5869188 6.3824315 -0.72368628
3.0488963 6.4824243 -0.70809895
2.860127 6.4826746 -0.70038396
2.6753173 6.4829187 -0.69323391
2.3162889 6.4833922 -0.68053114
2.1414599 6.483623 -0.67493427
1.9693896 6.48385 -0.66981679
1.7998096 6.4840732 -0.66515923
1.4671386 6.484508 -0.65717071
0.98100585 6.4851427 -0.64832586
0.82153809 6.4853516 -0.64617592
0.66305172 6.4855566 -0.6444149
0.34817383 6.4859643 -0.64203697
-0.12161133 6.4865723 -0.64128613
-0.43525878 6.4869747 -0.64265531
-0.75098145 6.4873791 -0.64553624
-1.2317773 6.4879942 -0.65276974
-1.8704247 6.4050193 -0.65955621
-2.0074999 6.3049545 -0.6540525
-2.1750586 6.3011961 -0.65891409
-2.5048876 6.2600279 -0.6664809
-2.6801465 6.2560959 -0.67275167
-3.0575488 6.2814002 -0.69054317
-3.2450926 6.2771921 -0.69848639
-3.6146679 6.2351317 -0.71239942
-3.8157763 6.2306199 -0.722193
-4.2583156 6.2544627 -0.74792057
-4.4793262 6.2495031 -0.76002836
-4.6827097 6.2111716 -0.76888746
-4.9179492 6.2058935 -0.78269482
-6.2427049 6.1761727 -0.86803097
-6.8914304 6.1895189 -0.91560954
-7.1946139 6.1548157 -0.93588787
-8.3143015 6.1296935 -1.0210451
-9.1860056 6.1112304 -1.0905873
-9.7176266 6.1319761 -1.1358054
-11.410302 6.0939989 -1.2786459
-16.166582 4.5336499 -1.6596549
-17.249327 4.3913708 -1.7594252
-18.042128 2.3341942 -1.7982695
-18.125708 1.4606067 -1.797475
-18.152704 1.022782 -1.7971821
-18.174517 -0.29250547 -1.7967221
-18.162012 -0.73083067 -1.7967089
-18.139668 -1.1687763 -1.7967654
-18.01355 -2.4782643 -1.7973542
-17.70829 -4.2064829 -1.799114
-17.377489 -5.4822474 -1.8011597
-17.248032 -5.9025145 -1.8019786
-16.436455 -6.0715203 -1.7319946
-15.318749 -6.9555907 -1.662989
-14.985122 -7.6964531 -1.6651789
-14.805659 -8.0614586 -1.6663647
-14.617787 -8.4225578 -1.6676109
-14.969023 -10.669029 -1.8170065
-13.055449 -13.126287 -1.8299834
-12.114551 -14.08536 -1.836422
-11.785693 -14.391174 -1.8386792
-11.449497 -14.689731 -1.8409899
-11.106054 -14.980852 -1.8433539
-10.398046 -15.540154 -1.8482363
-10.033798 -15.807956 -1.8507532
-9.2855711 -16.31904 -1.8559316
-8.9019432 -16.561972 -1.8585911
-8.5121822 -16.796326 -1.8612961
-7.7150731 -17.238503 -1.8668368
-5.1962061 -18.342157 -1.8844134
-4.7600145 -18.492092 -1.8874667
-4.3195114 -18.631939 -1.8905528
-3.4271972 -18.880928 -1.8968124
-2.5210302 -19.088081 -1.9031795
-1.6028857 -19.252638 -1.9096416
-1.1396387 -19.318619 -1.9129061
-0.67451656 -19.373688 -1.9161862
-0.20835449 -19.417681 -1.9194762
0.73185545 -19.472206 -1.9261199
1.6759961 -19.481575 -1.932802
2.1491797 -19.469191 -1.9361548
2.6227393 -19.44533 -1.9395132
3.0964012 -19.410021 -1.9428747
4.0429392 -19.304691 -1.9496003
4.5101366 -19.212973 -1.950762
5.6800342 -18.17222 -1.8819647
6.1137109 -18.020977 -1.8810304
6.5616159 -17.909103 -1.8853316
7.0080128 -17.786982 -1.8897262
9.6424122 -16.83798 -1.9179649
10.071997 -16.64378 -1.9229683
10.498237 -16.439316 -1.9280517
10.920903 -16.224585 -1.9332135
11.339756 -15.999675 -1.9384513
5.772871 -7.7422733 -0.95461881
12.570898 -15.263912 -1.954601
12.972031 -14.998457 -1.9601229
13.368047 -14.723015 -1.9657086
14.143871 -14.142336 -1.9770685
14.523125 -13.83727 -1.982836
15.623384 -12.864175 -2.0004592
15.976704 -12.520825 -2.0064292
16.322813 -12.168127 -2.0124428
16.661596 -11.806254 -2.0184975
16.992676 -11.435292 -2.0245891
17.31583 -11.055413 -2.0307148
17.630772 -10.666731 -2.0368714
17.047949 -8.69662 -1.8917319
17.676357 -7.4597135 -1.896468
17.864628 -7.0364294 -1.8978993
18.208477 -6.1751671 -1.9005336
19.418945 -6.067461 -2.0110126
20.598993 -3.7955067 -2.0704143
20.692286 -3.2986901 -2.0711901
20.772715 -2.7995346 -2.0718753
20.840157 -2.2982802 -2.0724692
20.894619 -1.7953048 -2.0729718
20.935986 -1.2910039 -2.0733817
20.979364 -0.27980042 -2.0739236
20.981318 0.22639892 -2.074055
20.908379 1.7428693 -2.0738907
20.857832 2.2464921 -2.0736499
20.794218 2.7485363 -2.0733161
20.717587 3.2486882 -2.0728896
20.628046 3.7465661 -2.0723715
20.525625 4.2418394 -2.0717614
18.677137 4.8097181 -1.9064026
18.547783 5.2566223 -1.9055904
18.254698 6.13906 -1.9037205
18.09123 6.5739732 -1.9026626
16.518745 6.4578161 -1.7531629
13.531474 6.4539771 -1.4818906
12.008345 6.4560595 -1.3476571
11.345005 6.456965 -1.2903235
10.735488 6.4577975 -1.238363
9.0455074 6.3750682 -1.093865
8.599824 6.3769188 -1.0582654
8.2862005 6.4598851 -1.0385535
7.8868895 6.4604297 -1.0077517
7.154326 6.4614205 -0.95290524
6.4959469 6.4623117 -0.9057219
5.6190085 6.4634948 -0.84656703
5.0936422 6.4642015 -0.81349659
4.8457813 6.4645333 -0.79859036
4.15207 6.4654636 -0.75952381
3.8937206 6.3975158 -0.74028784
3.6764648 6.3823133 -0.72805148
3.3052588 6.4371018 -0.7152639
2.9426074 6.4825644 -0.70370466
2.2179735 6.4835229 -0.67733586
1.7057714 6.4841952 -0.66274548
1.5395947 6.4844127 -0.65877938
1.3752929 6.4846287 -0.65523827
0.89151853 6.48526 -0.64707267
0.73262203 6.485466 -0.64514166
0.41719726 6.4858751 -0.64242995
0.26030272 6.4860787 -0.64164138
-0.20937011 6.4866843 -0.64151841
-0.84001464 6.4874926 -0.64661801
-1.3229101 6.4881091 -0.65452093
-1.4677685 6.4051208 -0.64953446
-1.9345897 6.3065906 -0.65205598
-2.2700732 6.2990646 -0.6618408
-2.9764307 6.2832189 -0.68723583
-3.3521092 6.2747912 -0.70319808
-3.7266846 6.2326183 -0.71780366
-3.9309375 6.2280359 -0.72798765
-5.0805564 6.2360153 -0.79508322
-5.3311181 6.2303929 -0.81053388
-5.863452 6.218451 -0.84482986
-6.4442139 6.205421 -0.88430387
-7.7940526 6.1751351 -0.98291314
-8.5467482 6.1244788 -1.0393291
-9.031147 6.1473789 -1.0798813
-10.491812 6.0808372 -1.198675
-11.712681 6.0534458 -1.3032433
-12.473833 6.0701356 -1.3712384
-15.031352 6.012754 -1.6002604
-15.76501 5.8691807 -1.6628079
-16.563574 4.4043736 -1.694149
-17.71629 4.2560754 -1.8010226
-17.886957 3.3939836 -1.7996141
-18.018476 2.5257025 -1.7984815
-18.142056 1.215343 -1.7973022
-18.16354 0.77722591 -1.7970483
-18.168715 -0.53814942 -1.7967062
-18.150688 -0.97630614 -1.7967322
-17.913036 -3.1554303 -1.7979085
-17.836128 -3.5875061 -1.7983526
-17.749472 -4.0178723 -1.7988663
-17.54705 -4.8726411 -1.8001008
-17.431377 -5.2966218 -1.8008212
-15.061381 -7.5348206 -1.6646767
-14.885605 -7.9014678 -1.6658359
-14.701426 -8.2642908 -1.6670556
-12.311987 -7.7253222 -1.436736
-14.099189 -9.3281746 -1.6710722
-15.075429 -10.505537 -1.816291
-14.831011 -10.875959 -1.8179355
-14.577998 -11.241108 -1.8196419
-13.768359 -12.302854 -1.8251274
-13.481929 -12.644876 -1.8270757
-12.574746 -13.632736 -1.833269
-12.256723 -13.948659 -1.8354472
-11.931181 -14.257606 -1.8376802
-11.257924 -14.853771 -1.8423082
-10.910493 -15.140686 -1.8447013
-10.556108 -15.419885 -1.8471453
-10.194765 -15.691207 -1.8496406
-9.452261 -16.209539 -1.8547769
-9.0713673 -16.456217 -1.8574164
-7.8922606 -17.14436 -1.8656042
-7.4876561 -17.355915 -1.8684196
-7.0776119 -17.55827 -1.8712755
-6.6623535 -17.751333 -1.8741707
-2.6583593 -7.6382461 -0.7994352
-2.4842284 -7.7341142 -0.80296147
-4.9523292 -18.427404 -1.8861201
-4.0711327 -18.705849 -1.8922942
-3.6246386 -18.829712 -1.8954264
-3.1744874 -18.943214 -1.898587
-1.8057373 -19.220167 -1.908213
-0.87955076 -19.350836 -1.9147398
0.055273436 -19.437466 -1.921338
0.52487791 -19.464048 -1.9246565
1.4681445 -19.4834 -1.9313301
1.9410692 -19.476055 -1.9346799
2.4144969 -19.457235 -1.938036
2.8881445 -19.426954 -1.9413965
3.3617578 -19.385183 -1.9447591
3.8350439 -19.331793 -1.9481223
5.1695509 -18.809629 -1.928211
5.5356493 -18.393213 -1.8986629
5.9163671 -18.066916 -1.879169
6.8119483 -17.841915 -1.8877828
7.2574267 -17.714039 -1.8922291
9.0185738 -17.099485 -1.9109062
9.8835249 -16.730429 -1.9207585
10.735541 -16.320246 -1.9309349
11.57269 -15.869194 -1.9414188
12.796269 -15.116389 -1.9576871
14.357123 -13.972627 -1.980293
14.732783 -13.662373 -1.9860876
15.102675 -13.341945 -1.9919446
15.465835 -13.012157 -1.9978485
16.513584 -11.966515 -2.0158303
16.848066 -11.599516 -2.0219061
17.493311 -10.838698 -2.0341606
17.803564 -10.445139 -2.0403335
14.368754 -7.9704552 -1.6241837
17.386543 -8.0597248 -1.894277
17.783213 -7.2231627 -1.8972795
18.13666 -6.3661032 -1.8999809
20.031338 -5.9628177 -2.065892
20.180761 -5.4809561 -2.0670619
20.317743 -4.9951777 -2.0681446
20.442167 -4.5057511 -2.069139
20.812109 -2.5189123 -2.0722196
20.953438 -1.007987 -2.073571
20.974335 -0.50228268 -2.0738363
20.9821 0.0038446044 -2.0740087
20.976688 0.50998592 -2.0740881
20.958143 1.0158752 -2.0740743
20.88167 2.0252252 -2.0737672
20.75288 3.0290349 -2.0730886
20.669043 3.5279808 -2.0726109
20.572216 4.0244093 -2.0720406
19.895264 4.3928051 -2.0139475
18.730303 4.6121373 -1.906733
18.470234 5.5054369 -1.9050994
18.322998 5.946466 -1.9041593
18.164473 6.3832874 -1.9031385
17.996601 6.8163705 -1.9022301
13.787133 6.3973083 -1.5023685
12.319087 6.4556346 -1.3747678
11.629556 6.4565768 -1.3148242
8.7911768 6.3754139 -1.0734345
7.6732421 6.4607177 -0.99152416
6.963037 6.4616795 -0.93897551
6.0250878 6.4629464 -0.87338805
5.740366 6.4633298 -0.85447419
5.4675388 6.4636984 -0.83683723
4.4763184 6.4650292 -0.77727574
4.2495117 6.465333 -0.76476085
4.0297704 6.4656262 -0.75307369
3.7671239 6.3821921 -0.73255658
3.5625243 6.3824644 -0.72251004
3.2184472 6.4821982 -0.71537268
2.8376122 6.4827037 -0.69949102
2.6532762 6.4829478 -0.69240767
2.1205566 6.4836512 -0.67429203
1.9487939 6.4838758 -0.66923046
1.4473095 6.4845333 -0.65674299
1.2839696 6.4847469 -0.65343744
1.1221679 6.4849596 -0.65054089
0.64396971 6.4855809 -0.6442281
0.48633298 6.4857845 -0.64289618
0.32923827 6.48599 -0.64194238
-0.45422849 6.4869981 -0.64278555
-0.61182129 6.4872007 -0.64408171
-0.77012205 6.4874034 -0.64575845
-1.0896972 6.4878111 -0.65027851
-1.4145606 6.488225 -0.65640211
-1.5590674 6.4046264 -0.65156078
-1.7237988 6.4048352 -0.65562332
-1.8906884 6.405045 -0.66012496
-2.1954541 6.3007398 -0.65953332
-2.5258594 6.2595568 -0.66721112
-2.7015283 6.2556176 -0.67354226
-2.8960545 6.2850232 -0.68403423
-3.0799658 6.2808957 -0.69147277
-3.4606006 6.272357 -0.70810497
-3.6386523 6.2345948 -0.71354598
-4.0696287 6.2586937 -0.73793548
-4.2846189 6.2538719 -0.74933904
-4.5064793 6.2488928 -0.76154959
-4.9469285 6.2052441 -0.78442711
-5.2197657 6.232893 -0.80360991
-5.4758835 6.2271447 -0.8196674
-5.9888673 6.1818676 -0.85078079
-6.2783642 6.1753721 -0.87048513
-6.9004493 6.1614161 -0.91442031
-8.0080614 6.1703343 -0.99929029
-9.240757 6.1089072 -1.0949702
-9.7784271 6.1306129 -1.1408201
-10.303852 6.1188231 -1.1845499
-10.813662 6.0736146 -1.2259527
-11.481987 6.0893893 -1.2846886
-12.158881 6.0772018 -1.343626
-13.705327 6.0425048 -1.4805479
-14.604223 6.0223365 -1.5615001
-15.837553 5.6536021 -1.6622442
-15.960102 5.2668967 -1.6612868
-17.446913 4.3876195 -1.7782691
-17.768047 4.0152597 -1.8006003
-17.927773 3.1512749 -1.7992687
-17.992939 2.7170184 -1.7987067
-18.04829 2.2815833 -1.7982136
-18.129492 1.4077863 -1.7974359
-18.155302 0.96990722 -1.7971514
-18.171215 0.53158444 -1.7969369
-18.17351 -0.34541443 -1.796717
-18.102909 -1.6588751 -1.7969118
-18.059692 -2.0953381 -1.7971164
-17.943785 -2.9649642 -1.7977351
-17.871172 -3.3977242 -1.7981488
-17.696646 -4.2582102 -1.7991846
-17.483408 -5.1105032 -1.8004962
-17.231752 -5.953052 -1.8020822
-15.454595 -6.6255493 -1.6621039
-15.29957 -7.000701 -1.6631143
-15.13601 -7.3724613 -1.6641859
-14.594561 -8.4658718 -1.6677653
-14.397417 -8.822422 -1.6690782
-14.19207 -9.1746788 -1.6704502
-13.978662 -9.5225191 -1.6718802
-14.939526 -10.713751 -1.8172048
-14.432514 -11.44332 -1.8206249
-13.89168 -12.150532 -1.8242898
-13.01894 -13.16602 -1.8302326
-12.712104 -13.491691 -1.8323294
-12.075234 -14.122645 -1.8366917
-11.745527 -14.427571 -1.838955
-11.064121 -15.015491 -1.8436427
-9.2395992 -16.348825 -1.8562502
-8.464756 -16.824015 -1.8616254
-8.0683393 -17.048504 -1.8643799
-7.666245 -17.264017 -1.8671764
-6.8455029 -17.667604 -1.8728933
-2.5610301 -7.6920304 -0.80136716
-5.1438327 -18.360786 -1.8847798
-4.2660837 -18.648129 -1.8909274
-1.5472217 -19.26116 -1.9100337
-1.0839648 -19.325867 -1.9132985
-0.6185742 -19.379599 -1.9165808
0.31766599 -19.453754 -1.9231918
0.78870606 -19.474026 -1.926522
2.2062988 -19.466909 -1.9365597
4.0999608 -19.296804 -1.9500059
4.5645361 -19.193409 -1.9501147
4.9942822 -18.956436 -1.9377204
5.3808446 -18.591221 -1.9131054
6.1678562 -18.008003 -1.8815447
6.6155515 -17.894892 -1.8858572
7.9487305 -17.493917 -1.8993468
9.6944485 -16.815075 -1.9185647
10.123632 -16.61965 -1.9235777
10.97166 -16.198009 -1.9338415
