# .PCD v0.7 - Point Cloud Data file format
VERSION 0.7
FIELDS x y z
SIZE 4 4 4
TYPE F F F
COUNT 1 1 1
WIDTH 1532
HEIGHT 1
VIEWPOINT 0 0 0 1 0 0 0
POINTS 1532
DATA ascii
16.243422 15.456434 3.3703623
15.032319 16.535545 3.3590984
14.328681 16.546743 3.2901549
12.37687 16.57913 3.1099274
11.186381 16.598888 3.0087631
9.5330324 16.626329 2.8808389
9.0116892 16.634987 2.8438182
8.5033007 16.643427 2.8093491
8.0068159 16.651669 2.7773092
7.5212302 16.659729 2.7475722
7.0457177 16.667627 2.7200348
6.5793161 16.675371 2.6945946
5.6709228 16.69046 2.6496787
5.2274804 16.697828 2.6300488
4.7903075 16.705086 2.6122167
4.7094336 18.056585 2.8049617
4.74228 22.596987 3.4706471
4.6716261 25.280952 3.8644269
-11.865009 22.082989 3.7681792
-12.105234 21.281723 3.6802437
-12.62957 21.007187 3.6844149
-19.723364 -6.5805273 3.1253624
-19.492094 -8.6711245 3.2067773
-19.917397 -21.728022 4.4306049
-17.255775 -21.801025 4.1793017
-15.610249 -21.806889 4.0311785
-14.073569 -21.811993 3.9018927
-13.340761 -21.814421 3.8436022
-12.622593 -21.805517 3.7872417
-3.381582 -7.4084921 1.2241254
-2.5606005 -7.4352288 1.1820425
-2.231792 -7.6631861 1.1997448
-1.7898192 -8.3565712 1.2846009
-1.5922754 -8.4217939 1.2883447
-2.5100634 -21.834406 3.3036444
-1.4465479 -21.823603 3.2875993
0.13595214 -21.874931 3.2881796
0.66559082 -21.924685 3.2971141
1.7370654 -22.049301 3.3245986
2.8704247 -22.500223 3.4095197
3.5779638 -23.511509 3.5748062
5.6941061 -7.7491183 1.445459
13.267661 -9.0615082 2.415072
14.57435 -8.0126152 2.4999869
14.857651 -7.2579246 2.4855437
15.738832 15.459603 3.3161631
16.026064 16.520288 3.4596989
14.56624 16.542799 3.3131979
11.976685 16.585772 3.0751305
11.384731 16.595594 3.025116
10.811436 16.60511 2.9784124
10.255205 16.614342 2.9348128
9.7147169 16.623316 2.8941312
8.6760006 16.640558 2.8208761
8.1755419 16.648869 2.7880139
7.2074804 16.664942 2.729223
5.8243408 16.687914 2.6568258
4.6563425 27.646742 4.214232
-9.2075243 28.177607 4.4558973
-12.450673 21.102709 3.6829915
-19.825054 -6.9659939 3.1585991
-19.895565 -7.5349431 3.1978798
-18.047573 -8.9094944 3.0253725
-19.323421 -21.763578 4.374763
-18.431225 -21.796221 4.2906451
-15.884228 -21.806631 4.0552411
-15.093828 -21.808605 3.9867053
-14.329687 -21.81114 3.922796
-13.589218 -21.813599 3.8631139
-12.165146 -21.806137 3.7533422
-3.7461083 -7.1131554 1.2084228
-3.2683399 -7.4720988 1.2259099
-3.0955467 -7.569519 1.2292745
-2.7208593 -7.6934838 1.226632
-2.538667 -7.7699285 1.2286927
-2.3095605 -7.6928282 1.2073312
-2.08833 -7.6189628 1.1874814
-1.8572314 -8.3343935 1.2835077
-1.660044 -8.3993769 1.2869699
-1.4617236 -8.4650888 1.2912567
-1.2620019 -8.53162 1.2963809
-2.1594532 -21.833305 3.2978745
-1.6280175 -21.826485 3.289947
0.48388183 -21.906084 3.2936053
1.0157324 -21.960522 3.3045125
1.5522168 -22.026398 3.3190982
2.0983691 -22.141426 3.3430901
2.6634424 -22.34787 3.3829818
3.2898242 -22.88829 3.4757991
13.508935 -8.9152479 2.4329267
13.578144 -8.0484161 2.3726022
14.848744 -7.4061899 2.4942098
14.875376 -6.9763951 2.4696765
16.786968 15.453104 3.4296751
15.99954 15.457955 3.3440609
16.289288 16.516253 3.4869342
15.532016 16.52787 3.4092374
14.112939 16.550323 3.2694299
13.445825 16.56139 3.2065647
11.005756 16.601883 2.9940484
9.8980999 16.62027 2.9077408
9.3672657 16.629086 2.8688889
8.850132 16.637667 2.8326864
8.3456001 16.646044 2.7989991
7.3703561 16.662237 2.7386615
6.897778 16.670086 2.7117946
5.9785838 16.68535 2.6641905
4.7090135 20.727886 3.1950912
4.4754395 25.294409 3.8611705
3.7210791 29.17601 4.4210973
2.2401514 28.447309 4.289279
-8.2024803 28.160864 4.408895
-8.9491062 28.173306 4.4433661
-20.265673 -8.0450678 3.2774777
-18.945967 -8.0557117 3.0945947
-19.306528 -8.7650223 3.1871188
-19.630863 -21.745174 4.4035301
-17.847792 -21.798609 4.2348237
-16.988617 -21.802118 4.1546288
-15.361333 -21.807716 4.0096173
-13.840234 -21.812765 3.8830907
-13.114346 -21.815176 3.8260541
-12.402349 -21.805817 3.7708006
-3.7884276 -7.051549 1.2032354
-3.6638525 -7.2331152 1.2187696
-3.4992723 -7.3425817 1.2226251
-3.3273437 -7.4389353 1.2249383
-3.1548243 -7.5360503 1.2280331
-2.7972362 -7.1623569 1.1557989
-2.7412012 -7.5518198 1.2076175
-2.7627783 -8.2249098 1.3042068
-2.1632617 -7.6438947 1.1941149
-1.9120409 -7.4367065 1.1542007
-1.5297754 -8.442502 1.2896951
-1.3305615 -8.5087414 1.2945303
-1.8097509 -21.829367 3.2925274
-1.2798437 -21.820957 3.2856395
-0.22537109 -21.84609 3.2839563
0.83316404 -21.941837 3.3005502
1.3679199 -22.003565 3.3138399
1.9091601 -22.087236 3.3324099
13.262602 -8.0102673 2.3289566
14.469506 -7.812294 2.4717417
14.721157 -7.4951134 2.4830971
14.893295 -6.6985612 2.4546914
15.052002 16.535246 3.3610561
13.671357 16.55765 3.2276058
13.020796 16.568443 3.1675167
11.788017 16.5889 3.058996
9.5474758 16.626089 2.8818893
9.0257807 16.634752 2.8447964
8.517046 16.643196 2.8102608
-9.4881201 28.182035 3.7871971
-11.576303 25.833042 3.605315
-10.889951 21.461821 3.0650976
-12.198335 21.412582 3.1385598
-12.899546 21.424273 3.1849833
-14.019106 20.927515 3.2080765
-19.663052 -6.5748096 2.6405566
-19.666508 -7.108067 2.6632869
-19.849115 -7.7205563 2.7124617
-19.722128 -8.2244463 2.7214465
-19.120073 -8.5207052 2.665977
-16.396381 -21.804939 3.474587
-13.321074 -21.814507 3.2553258
-3.5196729 -7.255188 1.027006
-3.1659327 -7.4175582 1.0271437
-3.0859766 -7.7425866 1.0615288
-2.7257617 -7.3497524 0.99835795
-1.9481591 -7.3646984 0.97022319
-1.9609522 -8.209548 1.0749742
-1.5706396 -8.3375483 1.080541
-3.0309765 -21.834805 2.807529
-1.4320947 -21.823427 2.7853897
-0.90390134 -21.823935 2.7818596
-0.37689939 -21.834423 2.7812271
0.1503955 -21.876513 2.7862384
0.68013179 -21.926693 2.7939084
1.2135595 -21.985048 2.8042614
1.7518798 -22.051748 2.8173409
2.304126 -22.201624 2.8427639
2.8875 -22.515917 2.8910897
13.481962 -8.7257376 2.0453002
13.853622 -8.4990883 2.0699556
13.716714 -7.9660063 2.0201786
22.583305 -7.8129473 3.0434694
16.0035 16.518768 2.9292085
12.571773 16.575722 2.6495697
11.960156 16.585876 2.6042895
10.795898 16.605206 2.522496
9.700058 16.6234 2.4512198
8.6621141 16.640633 2.3892734
7.6730661 16.657057 2.3356884
6.7252784 16.672798 2.2896726
5.812026 16.687971 2.2505777
5.3664694 16.695374 2.2334528
4.927412 16.702667 2.2178688
4.6442285 17.26782 2.2773633
4.7306104 19.448757 2.5491953
4.7733545 24.775492 3.2134128
4.6742578 27.865185 3.5984688
4.0355177 28.215023 3.6300056
2.7404003 29.131166 3.7264977
1.9754297 28.312046 3.6145635
-9.2281008 28.17771 3.7762327
-11.720966 26.746 3.7190795
-11.013467 20.877422 3.0062211
-12.657114 21.420235 3.168731
-19.7435 -7.4922128 2.6894782
-19.11166 -7.7850952 2.628242
-18.740761 -8.7107067 2.6320331
-20.206953 -21.710049 3.7773235
-19.298574 -21.764433 3.7046514
-18.407064 -21.796738 3.6334603
-17.526596 -21.800329 3.5624952
-15.072641 -21.808693 3.3763483
-14.309209 -21.811226 3.3223016
-13.56936 -21.813681 3.2718267
-12.146787 -21.807034 3.1791091
-11.46667 -21.80794 3.1379733
-3.4353125 -7.3771529 1.0364223
-2.6866601 -7.6127529 1.0281613
-2.2561426 -7.5329242 1.0014931
-1.6377538 -8.315444 1.0793922
-2.1449511 -21.833364 2.794064
-1.6135595 -21.826307 2.7873628
-1.0845361 -21.822109 2.7826712
0.49836913 -21.908085 2.7909164
2.6802733 -22.363359 2.8685577
3.3141503 -22.950052 2.9532197
13.234106 -7.8327117 1.9585681
14.602109 -7.7163749 2.1034071
13.427813 16.561512 2.7154372
12.167226 16.582439 2.619447
11.569087 16.592367 2.5761516
9.3528757 16.629164 2.4298728
8.3319235 16.646116 2.3707743
7.8392868 16.654297 2.344306
7.3572607 16.662304 2.3197598
6.8849268 16.670149 2.2970445
5.518281 16.69285 2.23914
5.077075 16.700182 2.2230375
4.6418991 16.707418 2.2084424
4.9683738 28.188564 3.6454048
4.2829199 28.275566 3.6422255
3.5649755 28.099892 3.6074634
1.516162 28.159214 3.5915272
-11.098691 22.799492 3.2294924
-10.801465 20.892134 2.9953821
-11.729599 21.404776 3.1085713
-13.810747 21.372133 3.2407959
-20.238466 -6.3973136 2.7032564
-19.967001 -6.8457017 2.6882892
-18.661377 -6.9056888 2.5342081
-19.659262 -7.8193698 2.6945686
-18.704409 -7.9675879 2.5892997
-19.605669 -21.746044 3.7289739
-16.965918 -21.802616 3.5184219
-16.139013 -21.805988 3.4550927
-14.567885 -21.810371 3.3403952
-13.820156 -21.812849 3.2887235
-12.383842 -21.806713 3.1938748
-11.697583 -21.807631 3.1517358
-3.6059961 -7.1305594 1.0176625
-3.1121044 -7.4478149 1.0280266
-3.0287547 -7.7703452 1.0621449
-2.7073047 -7.4738379 1.0123872
-2.4810302 -8.0413866 1.0717812
-2.1398778 -7.5803738 1.0031588
-1.8641406 -7.2702932 0.95589066
-1.5087646 -8.3579578 1.0816659
-3.3996043 -21.834032 2.81427
-2.3273485 -21.833935 2.7965045
-1.265332 -21.820782 2.7837429
-0.73774415 -21.825617 2.7812784
-0.21094237 -21.84767 2.78263
0.31698731 -21.889809 2.7881572
1.9243407 -22.092846 2.824378
3.0810986 -22.65844 2.9123225
13.972675 -8.4265356 2.0781085
13.936347 -6.6657801 1.9675
15.031723 16.534895 2.8460007
14.32853 16.546566 2.7876668
13.003257 16.56856 2.6824203
12.376748 16.57896 2.6349664
11.771669 16.589006 2.5906427
10.619009 16.608141 2.510601
9.011611 16.63483 2.4095011
8.503232 16.64327 2.3802996
8.0067282 16.65152 2.3531494
7.521162 16.659584 2.327955
7.0456491 16.667479 2.3046243
6.5792627 16.675226 2.2830691
4.7058349 18.042816 2.3747878
4.6914258 19.946949 2.6097417
4.7900977 22.824785 2.9702697
4.4101954 27.57478 3.5565326
1.754624 28.238569 3.6033733
-11.212481 23.525269 3.3190625
-10.897832 21.512476 3.0713065
-11.498545 21.400923 3.094106
-12.880146 21.42395 3.1836789
-13.998901 20.927181 3.2066045
-20.259916 -6.2203856 2.6991658
-19.643793 -6.5539789 2.6373911
-19.862358 -7.7106562 2.7135785
-19.743256 -8.218008 2.7236166
-18.482325 -8.7621059 2.6050167
-15.610273 -21.80691 3.4155569
-14.073584 -21.812006 3.3060179
-13.340781 -21.81444 3.2566283
-12.623105 -21.806396 3.2089968
-3.6486132 -7.0691257 1.0131651
-3.5231445 -7.2501712 1.0266236
-3.3943505 -7.436471 1.0410994
-3.1706004 -7.4149399 1.0270704
-2.6670947 -7.7444639 1.0431801
-1.9555615 -7.3730125 0.97148788
-1.9662548 -8.2078218 1.0749179
-1.5760107 -8.3357792 1.0804459
-3.0456493 -21.834774 2.8077843
-2.5100634 -21.834511 2.7991371
-1.9772803 -21.832079 2.7918935
-0.91828126 -21.823792 2.7819176
-0.39129883 -21.833277 2.7811129
0.13594238 -21.87536 2.7860804
1.198916 -21.983232 2.803925
2.2889061 -22.197262 2.8420119
2.8708642 -22.503672 2.8892734
3.5800977 -23.525496 3.0306787
5.6933641 -7.7481093 1.2245544
13.471938 -8.7318592 2.0446525
13.690742 -7.9629974 2.0171273
14.61084 -7.5793877 2.0962992
15.792958 -7.2481251 2.2130911
14.566079 16.54262 2.807189
13.881426 16.553988 2.7514508
13.223066 16.564913 2.6994264
12.588774 16.575439 2.6508541
11.976558 16.585604 2.6054833
10.811328 16.60495 2.5235398
10.255107 16.614183 2.4865973
9.1886129 16.631891 2.4199898
8.6759272 16.640406 2.3900592
8.1754637 16.648714 2.3622217
7.6862988 16.656839 2.3363712
6.7379832 16.672588 2.2902544
6.2771873 16.680244 2.2698281
5.8242869 16.687767 2.2510641
5.37854 16.695171 2.2338989
4.643374 17.219324 2.271373
4.7295508 19.388697 2.5417318
4.7206297 21.603989 2.8163836
4.7723827 24.682812 3.2017989
4.6974216 27.890654 3.6021547
2.7602246 29.135733 3.7273149
-8.4567575 28.164858 3.7452588
-9.2074366 28.177362 3.7753747
-11.333296 24.293695 3.4141459
-10.999682 22.166073 3.1515319
-10.995742 20.877123 3.0051363
-12.637841 21.419907 3.1674459
-19.609951 -6.8904071 2.6471972
-19.747021 -7.4786816 2.6892853
-19.154106 -7.7876968 2.633374
-12.417524 -7.7007852 1.8609134
-18.431578 -21.796635 3.6354663
-17.550209 -21.800234 3.5643747
-16.702105 -21.803692 3.4979992
-15.884517 -21.807026 3.435993
-14.329692 -21.811157 3.3237255
-12.870551 -21.816 3.2259581
-2.6271434 -8.04072 1.0773335
-2.050034 -7.4792051 0.98767853
-2.0327539 -8.1862049 1.0742506
-1.8383349 -8.249588 1.0764313
-1.6431152 -8.3136816 1.079304
-1.4467578 -8.3784409 1.082863
-2.1594629 -21.833408 2.7942474
-1.0989941 -21.821962 2.7827456
-0.57165039 -21.827297 2.7808542
1.0157568 -21.961046 2.7999313
13.715107 -8.5834894 2.0606225
14.601352 -7.7283149 2.1040328
16.287144 16.514061 2.954031
15.530845 16.526609 2.8883734
14.807002 16.538624 2.8271828
14.112793 16.550144 2.7701087
13.445674 16.561218 2.7168422
12.803384 16.57188 2.6671124
12.183823 16.582165 2.6206722
11.585195 16.5921 2.5772986
11.005654 16.601723 2.5367839
9.8980122 16.620111 2.4636595
8.8500433 16.637516 2.400069
8.3455219 16.645891 2.3715267
6.8977098 16.669937 2.2976401
4.7048678 20.709667 2.7047708
4.9921241 28.214678 3.6492107
4.3316603 28.470594 3.6677148
2.2363281 28.398867 3.6280518
1.5351318 28.165527 3.592459
-11.461792 25.108677 3.5152462
-11.107519 22.85582 3.2364371
-11.71104 21.404463 3.107404
-12.398027 21.415913 3.1515951
-13.105244 21.4277 3.1989512
-13.79541 21.379311 3.2404966
-20.239697 -6.3830175 2.7028604
-19.929256 -6.8181028 2.6826019
-18.482841 -6.825789 2.509357
-20.286036 -8.0531502 2.7797432
-18.958725 -8.6071253 2.651752
-18.229242 -8.8125696 2.5787203
-19.630306 -21.74457 3.7309337
-17.848148 -21.799019 3.5881689
-16.161215 -21.805899 3.4567659
-15.361328 -21.807734 3.3972871
-13.11436 -21.815189 3.2417574
-12.402851 -21.806688 3.1950688
-11.716084 -21.807608 3.1528444
-3.0337403 -7.7679267 1.0620875
-2.4863281 -8.0396833 1.071772
-2.1478124 -7.5893149 1.0045296
-1.8713379 -7.2783747 0.95711559
-1.905 -8.2277679 1.0756013
-1.710083 -8.2916622 1.0782434
-1.5141308 -8.3561859 1.0815669
-2.8765624 -21.835129 2.8049347
-1.2798632 -21.821011 2.7838812
-0.22537109 -21.846518 2.7825003
0.83318359 -21.942358 2.7965732
1.3679589 -22.004179 2.8078415
13.962285 -8.4328604 2.0773923
13.994887 -7.9981089 2.0529191
14.034297 -7.5773163 2.0312743
14.619575 -7.4433966 2.0893738
15.878984 -7.1418948 2.2174706
16.554146 16.50963 2.977612
15.786011 16.522373 2.9103322
15.051392 16.534567 2.8476555
12.393544 16.578682 2.6362188
11.78791 16.588739 2.5918164
10.634301 16.607883 2.5116241
9.0256977 16.634596 2.4103286
-0.38512695 6.4896202 0.6795851
-1.343706 6.4925022 0.69307554
-1.6527051 6.4096351 0.69194454
-1.9873877 6.4106455 0.70160019
-10.004702 20.955614 2.4274454
-11.516777 21.401026 2.5405221
-12.198213 21.412378 2.5760753
-13.622109 21.436104 2.654999
-19.50079 -6.5205545 2.1494565
-19.994555 -7.2266388 2.2224593
-20.140297 -7.8338189 2.2590227
-18.753277 -7.8204184 2.1240029
-19.356865 -8.6262283 2.215306
-18.370508 -8.7239532 2.1259019
-18.994898 -21.781986 3.0211558
-16.396675 -21.805336 2.8519585
-15.588589 -21.807001 2.802146
-14.053281 -21.812094 2.7124023
-13.321084 -21.814524 2.6719384
-12.604472 -21.807295 2.6330185
-11.238203 -21.809093 2.5646956
-3.0561473 -7.6677361 0.86286741
-2.8811231 -7.7686687 0.86614788
-1.9413329 -8.1274166 0.87350094
-1.7485595 -8.1902761 0.87546539
-1.5548534 -8.2537251 0.8779791
-2.4954784 -21.834568 2.297334
-1.9627734 -21.831903 2.2914045
0.68015134 -21.927212 2.2932646
5.6987305 -7.744699 1.0051463
13.687578 -8.3972235 1.6786368
13.488984 -7.8337517 1.6306115
14.490214 -7.9539351 1.7279352
14.139545 -6.8955822 1.6444787
15.747397 -7.214642 1.8106958
22.578197 -7.8111815 2.4974687
15.259404 16.530933 2.3517361
13.862944 16.554111 2.2571347
13.205283 16.565035 2.2145133
11.960205 16.585953 2.1375823
11.368975 16.596058 2.1029007
10.796299 16.605835 2.0705166
10.240654 16.615313 2.0402789
3.7307568 6.3935924 0.77381802
3.5185351 6.3787217 0.7615155
3.2224267 6.5732064 0.76525801
7.6737938 16.658636 1.9172931
6.725708 16.673843 1.8794591
2.4341502 6.4812193 0.72371989
2.2574267 6.4817429 0.71748549
1.7436816 6.4832664 0.70181149
1.4123633 6.4842515 0.69372326
1.2493652 6.4847374 0.69034714
1.0878515 6.4852171 0.68740231
0.92762691 6.4856958 0.68487972
0.29555663 6.4875817 0.678882
-0.017802734 6.4885192 0.67827785
-0.17444824 6.4889879 0.67857057
-0.33132812 6.489459 0.67925781
-0.48860839 6.4899302 0.68034345
-0.64649415 6.4904051 0.68183166
-0.80516601 6.4908824 0.68372357
-1.2878125 6.4923339 0.69189757
-1.7617334 6.4099631 0.69491148
-10.628974 25.939566 2.9304073
-11.28769 21.397207 2.5289094
-12.656987 21.420025 2.6008368
-14.670434 21.165518 2.6920636
-20.014771 -7.0474591 2.2181573
-19.289642 -7.857595 2.17732
-18.970644 -8.2668667 2.1632092
-12.415161 -7.7106481 1.527752
-20.206371 -21.70944 3.1002994
-18.407412 -21.797153 2.982362
-16.679672 -21.804184 2.8697381
-15.862876 -21.807508 2.8189416
-15.072665 -21.80871 2.7712753
-14.309214 -21.811245 2.7269127
-11.467138 -21.808794 2.5757217
-3.5108545 -7.0872436 0.82678646
-3.1025829 -7.6010118 0.85821605
-2.5821776 -7.9207864 0.8708868
-2.2843213 -7.6270065 0.83228177
-2.0071874 -8.106061 0.87295836
-1.6213086 -8.2319326 0.87705654
-3.7553563 -21.83367 2.3158998
-2.1449609 -21.833466 2.2933526
-0.030385742 -21.862509 2.285398
0.49837402 -21.908604 2.2908087
2.1137352 -22.148346 2.3257985
14.00085 -8.7494802 1.7258636
13.932915 -8.2463112 1.6924599
14.388315 -7.603394 1.7011764
15.654736 -7.3293166 1.8069448
15.510439 16.526764 2.3693001
14.78749 16.538765 2.3191724
13.427661 16.56134 2.2287793
12.786074 16.571995 2.1880429
12.167207 16.582413 2.1500115
11.569267 16.592634 2.1145101
10.990435 16.602522 2.0813575
10.429111 16.612101 2.0503986
7.8400683 16.65597 1.9243753
7.3578806 16.663704 1.9041946
6.8853955 16.671282 1.8855182
6.4218359 16.678717 1.8682806
2.1428223 6.4820838 0.71366817
1.8012158 6.4830956 0.70337981
1.4685644 6.4840841 0.69497967
1.3050048 6.4845715 0.6914534
1.1430126 6.485055 0.68836331
0.82285643 6.4860082 0.68344742
0.66431153 6.4864807 0.68160933
0.50651366 6.4869518 0.68017638
0.34929198 6.4874215 0.67914337
0.19246094 6.4878893 0.67850816
0.035825193 6.4883595 0.67826951
-0.1207959 6.4888282 0.67842543
-0.27756834 6.4892969 0.67897689
-0.43469238 6.489769 0.67992687
-0.75073242 6.4907188 0.68302977
-0.91000974 6.4911976 0.68519241
-1.551958 6.4586434 0.69437134
-1.8717284 6.4102964 0.69808012
-9.7286663 28.185801 3.1169808
-10.744429 26.851742 3.0233202
-10.427134 24.338789 2.7679143
-10.155996 20.86294 2.4255881
-11.060635 21.393427 2.517575
-12.416987 21.416025 2.5877993
-13.124741 21.427816 2.6267409
-13.854575 21.43998 2.6684546
-14.567172 21.391968 2.7054443
-20.213266 -6.3893452 2.2160425
-19.502192 -7.2168388 2.1737707
-19.680889 -7.8279686 2.2141049
-18.939175 -8.0675945 2.1519432
-18.910069 -8.6000729 2.1715915
-18.119858 -8.7744312 2.1045601
-19.605127 -21.745443 3.0606182
-17.824526 -21.799526 2.9436111
-16.966234 -21.803017 2.8879445
-16.139301 -21.806381 2.8359549
-15.339907 -21.807827 2.7871783
-13.820166 -21.812868 2.6993523
-13.094814 -21.815273 2.6597557
-11.698042 -21.808491 2.5870144
-11.029238 -21.809368 2.5547905
-3.1485596 -7.5350351 0.85367537
-3.0047412 -7.7087264 0.8648845
-2.8241308 -7.7963376 0.86681288
-2.647754 -7.8997898 0.87095505
-2.0933788 -7.4156528 0.80549085
-2.0729735 -8.0847578 0.87247908
-1.687627 -8.2102108 0.87619781
-2.3273582 -21.834038 2.2953529
-1.265332 -21.820831 2.2848723
-0.73775876 -21.825771 2.282861
-0.2109375 -21.848097 2.2839963
0.31700194 -21.89024 2.2885358
0.84777832 -21.94437 2.2956645
1.3826953 -22.006609 2.3049982
1.9244531 -22.09413 2.3183544
2.4807274 -22.253466 2.3406756
3.0815673 -22.661913 2.3907683
14.407743 -7.3236008 1.6895214
13.652998 16.5576 2.2433856
12.376645 16.578831 2.1627374
3.6571045 6.378314 0.76857865
3.259326 6.3794885 0.74887508
3.2229102 6.7027073 0.77745742
6.5796385 16.676188 1.8740268
2.2023485 6.4819055 0.7156288
2.0293994 6.4824181 0.71006954
1.8590186 6.4829245 0.70500398
1.5249707 6.4839172 0.69628888
1.360835 6.4844055 0.69261259
1.1983203 6.4848886 0.68937331
1.0372314 6.4853687 0.68656248
0.71850097 6.4863181 0.68219358
0.40308106 6.4872608 0.67945278
0.089453124 6.4881983 0.67830658
-0.06715332 6.488668 0.67832762
-0.22385253 6.4891367 0.67874372
-0.38084471 6.4896078 0.67955613
-0.53828615 6.4900794 0.68076932
-0.85535645 6.4910326 0.68440461
-1.0153466 6.4915137 0.68684018
-1.3392481 6.4924889 0.69298035
-1.5035596 6.4929843 0.69670302
-1.6481934 6.4096212 0.69182557
-1.8143164 6.4101233 0.69640428
-9.4672365 28.181444 3.107739
-10.247827 22.908945 2.6234674
-10.835625 21.389677 2.5065055
-11.498427 21.400723 2.539583
-12.880029 21.42374 2.6131067
-13.602051 21.435772 2.6538479
-14.309526 21.391527 2.6903501
-19.481934 -6.4999728 2.1469042
-20.174486 -7.8318157 2.2622769
-18.794903 -7.8232598 2.1281312
-19.430429 -8.6436892 2.2230747
-18.392494 -8.7195263 2.1277795
-19.018915 -21.780552 3.0226924
-18.126158 -21.798296 2.963572
-14.073598 -21.812025 2.713546
-13.340791 -21.814457 2.6730084
-11.93103 -21.808184 2.5985873
-3.4713378 -7.1435661 0.83025223
-3.3437939 -7.3257046 0.84179533
-3.0598583 -7.6623969 0.86249375
-2.8860545 -7.7662773 0.86609268
-2.1912305 -7.5238919 0.81918746
-1.560166 -8.2519817 0.87790358
-3.5846727 -21.834028 2.3129783
-2.510083 -21.834612 2.2975159
-1.9772851 -21.832134 2.2915626
-0.39130369 -21.8337 2.2827535
0.13595703 -21.875788 2.2868283
0.66562986 -21.925724 2.2930617
1.1989502 -21.983839 2.3014941
3.5822117 -23.539419 2.4890234
5.6926317 -7.7471066 1.0049721
14.397622 -7.4687872 1.695513
15.739985 -7.2238107 1.810389
22.580435 -7.828609 2.4982872
16.024076 16.518238 2.4057217
15.279302 16.530602 2.3531227
11.976616 16.585672 2.1385632
10.811733 16.605572 2.0713744
3.5240135 6.3787069 0.76179057
7.207993 16.666109 1.8981509
2.4390235 6.4812045 0.72389781
2.262207 6.4817295 0.71764785
1.9170849 6.4827523 0.70668334
1.2538037 6.4847226 0.6904341
1.0922412 6.4852047 0.68747693
0.93197751 6.4856834 0.68494415
0.7728076 6.4861569 0.68282515
-0.32703125 6.4894457 0.67923367
-0.48430175 6.4899168 0.6803087
-0.96042967 6.4913473 0.68595898
-1.1212109 6.4918323 0.68866897
-1.283374 6.4923205 0.69180632
-1.9247998 6.4104576 0.69967145
-9.2073631 28.177118 3.0987635
-10.637915 26.010332 2.9376078
-10.087548 21.623348 2.4942682
-13.352241 21.431606 2.6395791
-14.089438 21.443895 2.6821966
-14.664795 21.187197 2.6935842
-18.985821 -8.2585831 2.1643176
-19.322348 -21.762377 3.0422237
-18.431944 -21.79705 2.98401
-17.55055 -21.80064 2.9256551
-16.702396 -21.80409 2.8711767
-15.093867 -21.808641 2.7725306
-14.329712 -21.811176 2.7280798
-12.166118 -21.807871 2.6104436
-11.485483 -21.808769 2.5766115
-10.821895 -21.809641 2.5451074
-3.3878515 -7.262733 0.83774704
-2.9479101 -7.7362723 0.86543381
-2.6567481 -7.5121894 0.83294964
-2.5874071 -7.9191093 0.8708899
-2.006201 -7.3193145 0.79334575
-2.0124316 -8.1043625 0.87291867
-1.8199267 -8.1669607 0.8746736
-1.6266112 -8.2301941 0.87698621
-3.7701757 -21.833637 2.3161581
-3.2298338 -21.834772 2.3073366
-2.6931591 -21.835188 2.2998374
-2.1594825 -21.833513 2.293503
-1.0989844 -21.822119 2.2840662
-0.57165039 -21.82745 2.2825155
-0.044799805 -21.861359 2.2852814
0.48390624 -21.907124 2.2906187
1.0157861 -21.961569 2.2982082
1.5523046 -22.027624 2.3083675
2.098618 -22.144018 2.3251963
2.664248 -22.354645 2.3533804
3.2936132 -22.914692 2.4200046
13.922651 -8.2526197 1.6918731
14.11266 -7.911377 1.6912634
14.417304 -7.1909966 1.6841775
15.647363 -7.3384485 1.8066483
16.286957 16.513872 2.424613
14.806841 16.538443 2.3204935
14.112637 16.549967 2.2736504
13.445541 16.561047 2.2299306
12.803251 16.571711 2.1891167
11.006005 16.602257 2.0822327
3.8075049 6.3933654 0.77787185
7.370913 16.663494 1.9047259
2.1475537 6.482069 0.71382183
1.6384326 6.4835801 0.69906569
1.4730517 6.4840708 0.69508296
1.3094531 6.4845581 0.69154477
1.1474121 6.4850411 0.68844146
0.98673338 6.4855185 0.68576372
0.82720214 6.4859948 0.68350416
0.3535791 6.4874096 0.67916626
0.19673827 6.4878769 0.6785205
0.040102538 6.4883471 0.678271
-0.11649902 6.4888158 0.67841595
-0.43039548 6.4897556 0.67989546
-0.90565425 6.4911838 0.68512756
-1.7003125 6.4097776 0.69321853
-10.753984 26.927074 3.0310037
-10.435043 24.40168 2.7742822
-11.042631 21.393124 2.5166771
-11.710942 21.404263 2.5505011
-12.39791 21.415703 2.5867708
-13.105117 21.42749 2.6256447
-13.834326 21.439644 2.6672757
-14.546293 21.391615 2.7041955
-19.177343 -8.154088 2.1783965
-18.930401 -8.5942678 2.1732788
-19.629761 -21.743969 3.0622332
-17.848476 -21.799429 2.9451842
-16.989243 -21.802925 2.8894093
-16.161509 -21.806293 2.837333
-14.588618 -21.810316 2.7429633
-13.114375 -21.81521 2.6608043
-12.403335 -21.807558 2.6225841
-11.716542 -21.808464 2.5879226
-3.1522069 -7.5297966 0.85331696
-3.0096827 -7.7063293 0.86483836
-2.8290918 -7.7939291 0.86675262
-1.6929199 -8.208478 0.87613231
-1.8097607 -21.829475 2.289773
-0.75219727 -21.825624 2.2828956
0.30249023 -21.889082 2.2883937
1.3679931 -22.004786 2.3047106
1.909375 -22.089809 2.3177688
3.0646825 -22.649483 2.38924
13.794418 -8.3314753 1.6846032
13.778687 -7.8745451 1.6589835
14.406928 -7.3351302 1.6899935
15.051226 16.534386 2.3372993
14.347182 16.546076 2.2893283
13.671069 16.557301 2.2445672
13.020522 16.568098 2.2027807
12.393437 16.578543 2.1637638
11.788017 16.588898 2.1273565
11.202285 16.598906 2.0933492
3.2646289 6.3794727 0.74912596
-0.38512695 6.4894896 0.53189164
-0.54258788 6.4899607 0.53284788
-0.85968751 6.4909143 0.53571165
-1.0197119 6.4913926 0.53762621
-1.3436816 6.4923682 0.54245025
-1.8188525 6.4100037 0.54515809
-9.7905807 26.914385 2.3432565
-9.5527878 24.410278 2.144696
-9.3542089 22.301439 1.9786731
-9.3429489 20.849203 1.8692907
-10.885839 21.45373 1.9683437
-12.163648 21.351709 2.0105484
-12.862851 21.363359 2.0402906
-13.583501 21.375366 2.0721452
-15.551293 20.952631 2.1348991
-20.055595 -6.7060676 1.7302151
-19.818657 -7.1630597 1.7241898
-18.859644 -8.4046431 1.689352
-19.890791 -21.727705 2.4101458
-18.10232 -21.798805 2.3183327
-17.233505 -21.802334 2.2738063
-14.05331 -21.812111 2.1229663
-13.321094 -21.814541 2.0912936
-11.912831 -21.809063 2.0332258
-11.238627 -21.809938 2.0074308
-3.2913964 -7.2235246 0.64947784
-3.1614354 -7.4070201 0.65892136
-3.0276659 -7.5962839 0.6690625
-2.8632812 -7.7205539 0.6737228
-2.4322948 -7.6757092 0.65878844
-2.1124561 -7.9858055 0.67585766
-1.9221923 -8.047286 0.67693722
-1.7312841 -8.1093645 0.6784454
-4.113081 -21.833647 1.8178183
-3.5699413 -21.834442 1.8101752
-3.0310791 -21.835571 1.8036771
-1.4321094 -21.82353 1.7894045
0.68017089 -21.927727 1.7949505
2.3044043 -22.204218 1.8264636
2.8883836 -22.522774 1.8578591
5.697998 -7.7437015 0.78661424
13.894526 -8.0692749 1.3146294
15.69499 -7.1906328 1.4124902
22.57312 -7.8094249 1.9542166
15.261367 16.533072 1.8409127
5.1477928 6.4575596 0.67568177
3.1761963 6.4788804 0.59036267
2.6140332 6.4805455 0.5717352
2.2573731 6.4816036 0.56155407
1.4123389 6.4841185 0.5429576
1.2493408 6.4846029 0.54031491
1.087832 6.4850841 0.53801024
0.45260742 6.4869809 0.53204238
0.13880859 6.4879198 0.53094971
-0.17443848 6.4888573 0.53109783
-0.33132324 6.4893274 0.5316357
-0.4886035 6.4897985 0.53248537
-0.64647949 6.4902735 0.53365004
-0.80514157 6.4907494 0.53513092
-0.96478516 6.4912281 0.5369336
-1.1255957 6.4917111 0.53906387
-1.287788 6.4922009 0.54152828
-1.4515625 6.4926929 0.54433364
-1.5962548 6.4093323 0.54041713
-1.9293749 6.4103355 0.54772186
-9.4184027 22.985229 2.0323656
-10.038936 21.482172 1.9400805
-11.255698 21.336586 1.9737387
-13.334204 21.37121 2.0609896
-14.872294 21.456728 2.1360283
-21.103363 -6.8630419 1.8156518
-19.651581 -6.9195766 1.7046191
-19.779541 -7.5058956 1.7309287
-19.11517 -8.3298464 1.7060144
-12.416371 -7.7113981 1.1958683
-20.205805 -21.708838 2.4264951
-19.29751 -21.763239 2.3798168
-18.407763 -21.797564 2.3343019
-16.67997 -21.804579 2.2461481
-15.863149 -21.807898 2.206387
-14.309228 -21.811264 2.1343198
-12.85124 -21.816097 2.0716357
-12.147744 -21.808754 2.0424902
-11.467587 -21.809643 2.0160604
-10.804404 -21.810503 1.9914496
-3.335083 -7.1619186 0.64639401
-3.2063572 -7.3435593 0.65561062
-2.9199071 -7.6780248 0.67209458
-2.72417 -7.7190428 0.66973436
-1.9874121 -8.0261908 0.6765213
-1.6052587 -8.1504602 0.67966676
-3.7554247 -21.834053 1.8126547
-3.2151806 -21.835186 1.8057797
-2.6785498 -21.835243 1.7999129
-2.1449609 -21.833569 1.7949829
-1.6135595 -21.82641 1.7906702
-0.030385742 -21.862934 1.7887881
0.49839842 -21.909121 1.7930304
3.3179784 -22.976494 1.8993975
13.920952 -7.7918649 1.3052673
15.512348 16.528791 1.8546448
14.789595 16.541121 1.815443
5.4982862 6.4565268 0.69385529
5.2354493 6.4573007 0.6801582
4.5038476 6.4594603 0.64428437
4.2764158 6.4601307 0.63387203
3.8017187 6.3932323 0.6085788
3.5874169 6.3783727 0.5987457
3.2206297 6.4344482 0.58871901
2.8611572 6.4798131 0.579548
2.6764307 6.480361 0.57365096
2.4953368 6.4808984 0.56820112
2.3175538 6.4814267 0.56317931
2.1427782 6.4819446 0.55856705
1.4685303 6.4839511 0.54394025
1.3049804 6.4844384 0.54118133
0.98234373 6.4853992 0.53667539
0.66429687 6.4863477 0.53347641
0.035825193 6.4882274 0.53086197
-0.27756348 6.4891672 0.53141707
-0.43468261 6.4896374 0.53215927
-0.75071287 6.4905872 0.53458738
-0.90999997 6.4910641 0.53627962
-1.0703857 6.4915452 0.53829819
-1.2320801 6.4920325 0.54064602
-1.3952881 6.4925241 0.54333329
-1.553125 6.4634933 0.54388535
-1.7048047 6.409658 0.54265779
-9.728569 28.185556 2.4395952
-9.7453804 21.31143 1.9173238
-10.460855 21.489199 1.9554638
-11.056279 21.385004 1.9696947
-13.087564 21.3671 2.0500908
-14.608276 21.452328 2.1235006
-15.344755 21.404707 2.1548104
-19.460878 -6.6721783 1.6832346
-19.799927 -7.3270164 1.7273556
-19.385166 -7.710341 1.7069128
-19.494257 -8.3040438 1.7336657
-20.525156 -21.689707 2.4432368
-18.718832 -21.797903 2.3508408
-17.824842 -21.799931 2.3039694
-16.966547 -21.803417 2.2603965
-16.139574 -21.806774 2.2197063
-15.339911 -21.807846 2.1814892
-13.094805 -21.815292 2.0817709
-12.384824 -21.808447 2.051975
-11.698496 -21.80934 2.0248985
-10.376914 -21.811054 1.9762139
-3.1197166 -7.4660163 0.66204011
-2.9812109 -7.6483603 0.67163283
-2.3357666 -7.5705705 0.64822233
-2.0525587 -8.0051413 0.67615342
-1.8621191 -8.066783 0.67736679
-3.9414208 -21.833815 1.815281
-3.3997216 -21.834799 1.8080114
-2.327368 -21.834141 1.7965487
-1.7952832 -21.829296 1.7920632
-0.73775387 -21.825922 1.7867788
-0.21094726 -21.84852 1.7876879
3.0820458 -22.665388 1.8715118
14.552661 -7.8447795 1.3526516
14.238115 -7.2373753 1.3067971
16.534018 16.511351 1.9118118
15.767129 16.524445 1.8687173
15.033603 16.536959 1.8285595
5.0681443 6.4577951 0.67165315
4.5834813 6.4592247 0.64801788
4.3534522 6.4599032 0.63735759
4.1307664 6.4605613 0.62740141
3.4555516 6.3787608 0.59355968
2.925288 6.4796228 0.58167279
2.5569677 6.4807153 0.57001919
2.3780811 6.481246 0.56485134
2.2023046 6.4817686 0.56010097
1.8589746 6.4827881 0.55178636
1.3608056 6.484271 0.54208726
1.1982958 6.4847555 0.53955197
1.0372119 6.4852352 0.53735256
0.71848631 6.4861865 0.5339331
0.56047362 6.4866586 0.53270215
0.24612792 6.4875998 0.53118497
0.089448243 6.4880676 0.53089112
-0.06714844 6.4885364 0.53090757
-0.53827637 6.4899487 0.53281724
-0.8553369 6.4908996 0.53566343
-1.3392236 6.4923544 0.54237503
-1.6481543 6.4094882 0.54147154
-1.8142822 6.4099889 0.54505509
-9.4671535 28.1812 2.4323621
-9.7977247 26.989336 2.3492191
-9.5587063 24.472866 2.1496389
-9.3591986 22.354721 1.9828515
-9.3263035 20.84893 1.8687152
-15.075327 21.400219 2.1417682
-21.018658 -7.0126853 1.8128997
-19.064238 -7.4008183 1.6732088
-19.799082 -8.2412462 1.7546551
-18.879789 -8.3987322 1.6906592
-19.018393 -21.779961 2.3657565
-18.12649 -21.798706 2.3195901
-17.256739 -21.802238 2.2749765
-16.419424 -21.805639 2.2333286
-13.3408 -21.814474 2.0921283
-12.624106 -21.808134 2.0616906
-11.931494 -21.809038 2.0339575
-11.256836 -21.809917 2.0081153
-3.1650391 -7.4019365 0.6586557
-3.0313721 -7.5910387 0.6687758
-2.8670702 -7.7151928 0.67342037
-2.4408154 -7.6849952 0.65972471
-1.7365038 -8.1076622 0.67839891
-2.5100877 -21.834717 1.7982413
-1.4465624 -21.823759 1.7894982
-0.91829097 -21.824099 1.7871881
-0.39130369 -21.834126 1.786716
0.13595214 -21.876211 1.7899069
0.66564941 -21.926239 1.794793
1.7372118 -22.051142 1.8097759
2.8717432 -22.510511 1.8566989
3.584326 -23.553288 1.9492728
13.824042 -8.4934874 1.3274829
13.884345 -8.0756016 1.3141693
14.571245 -8.0109043 1.3604861
15.687612 -7.1997766 1.4122543
22.573559 -7.8262248 1.9547796
15.281274 16.532736 1.841998
5.1547413 6.45754 0.67603379
3.9880176 6.4609838 0.62121719
3.7363133 6.393425 0.60587281
3.1814744 6.4788647 0.59055173
2.989917 6.4794312 0.58385468
2.618994 6.4805322 0.57188672
1.7482324 6.4831176 0.54938293
0.93196285 6.4855504 0.53608644
0.61450195 6.4864979 0.53308839
0.2998291 6.4874387 0.53135604
-0.01352539 6.4883761 0.53086698
-0.17016602 6.4888449 0.53108716
-0.48429197 6.4897876 0.53245831
-0.64215332 6.4902596 0.53361297
-1.1211914 6.4916978 0.53900117
-1.4470605 6.4926791 0.54425216
-1.5917627 6.4093189 0.54032791
-9.2461128 21.136562 1.8875827
-10.021552 21.481884 1.9394588
-10.665483 21.492607 1.9630996
-11.237573 21.336285 1.9730227
-12.601894 21.359013 2.029052
-13.314399 21.370878 2.0601087
-15.455073 21.215961 2.1475844
-21.110712 -6.8500466 1.8158957
-19.636211 -6.8996415 1.7028942
-19.329189 -7.8588743 1.7071991
-19.135805 -8.3238239 1.7073681
-18.402626 -8.5387878 1.6598547
-12.419961 -7.7023034 1.1957247
-19.321825 -21.761782 2.3810511
-17.550859 -21.801044 2.2899139
-14.329721 -21.811195 2.1352408
-12.870566 -21.816034 2.072428
-12.166592 -21.808729 2.0432403
-10.822309 -21.810478 1.9920995
-2.2422998 -7.4687924 0.63802868
-2.1826708 -7.96316 0.67556304
-1.9926025 -8.0245132 0.67649078
-3.7702246 -21.833986 1.8128619
-2.6931787 -21.835287 1.8000588
-2.1594775 -21.833614 1.7951031
-1.6280273 -21.826641 1.7907797
-1.0989941 -21.822269 1.7877206
-0.57166016 -21.827604 1.7865061
-0.044799805 -21.861782 1.7886938
1.0158105 -21.962084 1.7988199
1.5523486 -22.028233 1.8067797
2.6646533 -22.358011 1.8422369
3.2955174 -22.92786 1.8951937
13.757236 -8.1545715 1.3084747
13.894546 -7.7891006 1.3032714
15.532573 16.528448 1.8557571
4.5101852 6.4594407 0.64457977
4.2825341 6.4601135 0.63414669
3.8074217 6.3932152 0.60881317
3.5929394 6.3783569 0.59896648
3.3931444 6.3789477 0.5911572
3.2205908 6.4238 0.58793777
2.1475048 6.4819312 0.55868757
1.9754052 6.4824424 0.55446029
1.6384033 6.4834447 0.54713863
1.3094238 6.4844236 0.54125184
1.1473876 6.4849081 0.53882217
0.98670894 6.4853854 0.53672761
0.66861814 6.4863353 0.53351086
0.51080567 6.4868078 0.53238064
0.19672851 6.4877462 0.53105897
0.040097654 6.488215 0.53086364
-0.27327147 6.4891539 0.53139997
-0.43038085 6.489625 0.53213453
-0.90563476 6.4910507 0.5362283
-1.2276367 6.4920187 0.54057676
-1.3908007 6.4925098 0.54325563
-1.7002734 6.4096446 0.54256243
-9.3030128 21.754517 1.9358341
-11.677744 21.343618 1.9905877
-12.362778 21.355028 2.0188985
-13.067988 21.366777 2.0492334
-13.834194 21.439428 2.0876181
-14.587338 21.451977 2.1225111
-19.445908 -6.6527429 1.6815622
-19.801548 -7.3127971 1.727078
-19.429594 -7.7131572 1.7103769
-18.648916 -8.4664745 1.6757003
-20.550781 -21.688173 2.4445827
-18.742636 -21.796476 2.351974
-17.848803 -21.799833 2.3052042
-13.840273 -21.812817 2.1136212
-13.11438 -21.815228 2.0825806
-12.403848 -21.808422 2.052743
-11.717007 -21.809317 2.025615
-11.04772 -21.810188 2.0003443
-3.2543602 -7.2757778 0.65212709
-3.1233544 -7.4608722 0.66176665
-2.9861133 -7.6459856 0.67159694
-2.8231053 -7.7774334 0.67696089
-2.2476854 -7.9422178 0.67533982
-2.0577636 -8.0034609 0.67612672
-1.6761864 -8.1273222 0.67895752
-2.3419042 -21.834187 1.7966802
-1.2798535 -21.821115 1.7884322
-0.75220704 -21.825775 1.7868072
1.3680273 -22.00539 1.8039181
3.0651414 -22.652939 1.8703088
14.554135 -7.8579826 1.3532711
16.555502 16.510983 1.9130353
15.053256 16.536625 1.8296227
14.349384 16.548626 1.7921023
4.5898633 6.4592066 0.64831936
3.9206054 6.4611826 0.61835265
3.6626074 6.3781495 0.60176998
-0.38511229 6.4893565 0.3847473
-0.5425781 6.48983 0.38543931
-0.7006982 6.490304 0.38635969
-0.85967773 6.4907823 0.38751036
-1.1809472 6.4917469 0.39051941
-1.3436573 6.4922352 0.39238539
-1.5080175 6.4927282 0.39450026
-1.8188134 6.4098682 0.39434448
-1.9873047 6.4103746 0.39721265
-8.8467579 26.277031 1.6409783
-8.8786917 24.407583 1.5371698
-10.257739 21.48562 1.409114
-10.907529 21.496445 1.4266775
-11.574097 21.507544 1.4455343
-12.258921 21.51895 1.4657642
-12.963608 21.530687 1.4874426
-13.689898 21.542782 1.5106716
-15.214951 21.568184 1.5621661
-15.893481 21.413631 1.5783032
-20.576342 21.685049 1.7692517
-20.851254 -6.9721169 1.3012429
-19.453423 -7.0310459 1.2242447
-19.350689 -7.5266933 1.2288578
-19.323393 -8.0581703 1.2391119
-18.993866 -21.780809 1.7103918
-18.102674 -21.799213 1.6770492
-16.397261 -21.806122 1.614761
-14.053315 -21.81213 1.5356936
-13.321103 -21.81456 1.5127844
-11.913286 -21.809917 1.4708346
-9.9388428 -21.812447 1.418667
-2.9828856 -7.483923 0.47682175
-2.3786767 -7.506506 0.46604431
-1.903496 -7.969007 0.48491317
-4.1130519 -21.833431 1.3149344
-3.5700097 -21.834822 1.3094543
-2.4955029 -21.834772 1.3007009
-0.90392089 -21.824396 1.2927819
-0.37692383 -21.835697 1.2925354
0.15040527 -21.87779 1.294866
0.68018067 -21.928242 1.2984457
2.8888183 -22.526171 1.3441309
14.101113 -8.18925 0.96510512
15.239863 -7.4321799 1.0035151
22.5681 -7.8076859 1.4133487
8.6851416 6.3631458 0.63723022
8.3693848 6.4478707 0.62529647
7.9656734 6.4490623 0.60658795
6.8848438 6.4522557 0.55845153
6.5610838 6.4532113 0.54466748
6.2527685 6.4541235 0.53185087
5.6768799 6.4558287 0.50880033
5.4069529 6.4566259 0.49843109
5.1476612 6.4573951 0.48875549
4.8981051 6.4581332 0.47972333
4.6574707 6.4588461 0.47128677
4.2000828 6.4602013 0.45604965
3.730581 6.3932934 0.43809417
2.6139746 6.4804053 0.41356885
2.4340429 6.4809408 0.40973312
2.257329 6.4814672 0.406203
1.7436084 6.4829979 0.39733076
1.576997 6.4834933 0.39491224
1.2493114 6.4844699 0.39084059
0.76843262 6.4859066 0.38655227
0.29553711 6.4873219 0.38434982
0.13879882 6.4877892 0.38406691
-0.017797852 6.4882565 0.38400725
-0.33131346 6.4891968 0.38456222
-0.96476072 6.491096 0.38839477
-1.2877636 6.4920664 0.39171812
-1.9293311 6.4102001 0.3961978
-8.8682222 25.020555 1.5711054
-9.3362989 21.304428 1.3766634
-10.683198 21.49271 1.4205233
-12.022265 21.515009 1.4586773
-12.719971 21.52663 1.4798541
-14.180141 21.550947 1.5268341
-19.796953 -7.5124998 1.2532079
-20.205257 -21.708233 1.7552068
-19.296988 -21.762646 1.7214475
-18.408106 -21.797974 1.6885967
-17.527582 -21.801542 1.6556154
-16.680267 -21.804977 1.6248263
-15.07268 -21.80875 1.5690234
-12.851269 -21.816118 1.4985749
-11.468022 -21.810488 1.4584167
-10.157261 -21.812168 1.4240561
-3.159868 -7.2370868 0.46737364
-2.7235401 -7.7172618 0.48435423
-6.5385008 -21.831032 1.3487744
-1.7792578 -8.0092764 0.48558334
-3.2152393 -21.835566 1.3062723
-2.6785595 -21.835346 1.3020104
-1.6135693 -21.826464 1.295325
-0.55724609 -21.827902 1.2923019
0.49840331 -21.909634 1.2970544
3.3198583 -22.989624 1.3747549
5.6499658 -7.8128872 0.57064742
15.135825 -7.5369201 1.0007315
8.8367968 6.362699 0.64447141
7.7130175 6.4498081 0.59506893
6.9995313 6.4519162 0.56341076
6.356699 6.4538169 0.53613675
5.7719383 6.4555454 0.51252061
5.4981394 6.4563575 0.50190157
4.7389255 6.4586048 0.47411102
4.5037403 6.4593015 0.46604583
3.8016307 6.3930821 0.44021696
3.2193456 6.4318795 0.42569426
3.049741 6.4791098 0.42382187
2.3174999 6.4812875 0.40737867
2.1427245 6.4818077 0.40404251
1.9706885 6.4823203 0.40099287
1.3049561 6.4843054 0.39146712
1.1429639 6.4847889 0.38971633
0.9823193 6.4852672 0.38820708
0.82282227 6.4857445 0.38693434
0.66428709 6.486217 0.38589385
0.50648922 6.4866891 0.38508192
0.19245116 6.4876294 0.38413849
0.035820313 6.4880981 0.38400254
-0.27755859 6.4890356 0.38440353
-0.43467772 6.4895067 0.38494095
-0.75069821 6.4904537 0.38669738
-0.90997559 6.4909325 0.3879219
-1.0703613 6.4914136 0.38938126
-1.2320606 6.4919004 0.39108092
-1.3952588 6.4923902 0.39302444
-1.5542822 6.4683228 0.39372465
-1.7047656 6.409524 0.39253539
-8.857275 25.661205 1.6066824
-8.9555073 22.380985 1.4267251
-10.460756 21.489004 1.4145162
-11.115693 21.499912 1.4324774
-12.478774 21.522612 1.4724358
-13.190053 21.534458 1.494591
-16.207758 21.493565 1.5932363
-20.744839 -7.11238 1.2979394
-19.604042 -21.744253 1.7327453
-18.71833 -21.797316 1.7004666
-17.825199 -21.800337 1.6666561
-16.966841 -21.803818 1.6351336
-16.139883 -21.807167 1.6057
-13.094829 -21.815308 1.5058981
-11.030097 -21.811049 1.4465665
-10.377304 -21.811884 1.4295917
-2.9402928 -7.5433884 0.47917098
-2.2851074 -7.4063888 0.45873579
-2.2207274 -7.8667955 0.48379087
-2.0326171 -7.9273615 0.48435789
-1.8439941 -7.9882798 0.48521909
-2.8620849 -21.836304 1.3034357
-1.2653369 -21.820936 1.2936389
-0.73776364 -21.826078 1.2925112
-0.21094726 -21.848946 1.2931879
1.3827783 -22.00782 1.3050985
2.4810157 -22.256063 1.3253806
13.671396 -8.2448473 0.94489318
14.305176 -8.1629133 0.97479397
8.9919434 6.3622398 0.6519264
8.5502443 6.3647876 0.63085979
8.2394819 6.4482541 0.61923796
7.8433981 6.4494247 0.60099393
7.1162839 6.4515719 0.5684973
6.4623241 6.4535046 0.54052919
6.1585641 6.4544029 0.52799928
5.8683887 6.4552612 0.51632947
5.3241453 6.4568725 0.49531052
5.0680127 6.4576306 0.48584244
4.1306639 6.4604077 0.45383346
3.9146826 6.4610472 0.44710997
3.6569285 6.3780174 0.43512908
3.2591748 6.379199 0.42397261
3.1153123 6.4789147 0.42547956
2.7392089 6.4800329 0.41637787
2.0293067 6.4821458 0.40200531
0.87731934 6.4855824 0.38734421
0.71847165 6.4860559 0.38622436
0.4030664 6.4869981 0.38467193
-0.22384766 6.4888744 0.38427153
-0.5382666 6.4898167 0.38541701
-0.69636714 6.4902902 0.38633177
-1.0153075 6.4912472 0.38885498
-1.3391943 6.4922204 0.39233017
-8.9465475 22.905575 1.4554009
-10.240214 21.485332 1.4086533
-11.555664 21.507236 1.4450015
-12.944126 21.530361 1.4868323
-13.669736 21.542446 1.5100143
-14.418818 21.554922 1.5348388
-15.193422 21.567822 1.5614184
-15.871323 21.413261 1.5774847
-20.57748 21.714926 1.7705771
-19.344233 -8.0519247 1.2401111
-18.126825 -21.799116 1.6779565
-16.419746 -21.806032 1.6155562
-15.610308 -21.806965 1.5872482
-14.829448 -21.809555 1.5609246
-14.073608 -21.812063 1.5363431
-13.340825 -21.814491 1.5133892
-11.931977 -21.809893 1.4713681
-9.9562159 -21.812426 1.4190921
-2.9865477 -7.478806 0.47662017
-2.8500683 -7.6694489 0.48424438
-2.3869336 -7.5153513 0.46669203
-2.0970752 -7.9065914 0.4841316
-1.9086474 -7.9673443 0.48488921
-1.7195801 -8.0286427 0.48595062
-4.1279783 -21.833418 1.3151141
-2.5100975 -21.83482 1.3008038
-1.9772998 -21.832241 1.2974288
-1.4465576 -21.823812 1.2944782
-0.91830075 -21.824249 1.2928094
1.7372607 -22.051748 1.3091732
2.2892969 -22.201138 1.3209409
2.8721728 -22.513916 1.3432837
15.231533 -7.440567 1.0032901
7.5953026 6.4501562 0.58975506
6.8939157 6.45223 0.55884278
6.2609863 6.4540992 0.53218842
4.6639256 6.458828 0.47151014
4.2061377 6.4601841 0.4562442
3.7362256 6.3932762 0.43826079
3.325835 6.3790011 0.42577392
3.1814063 6.4787192 0.4271791
2.8024805 6.4798436 0.41783965
2.2621093 6.4814539 0.4062973
1.7481885 6.4829831 0.39740005
1.5815283 6.483479 0.39497483
1.4167821 6.4839721 0.39280668
0.77277344 6.4858932 0.38658187
0.14307617 6.4877768 0.38407135
-0.01352539 6.4882445 0.38400602
-0.17016113 6.4887142 0.3841655
-0.32701659 6.4891834 0.38454834
-0.48428711 6.4896555 0.38515684
-0.64214355 6.490128 0.38599318
-1.2833203 6.492053 0.39166671
-1.5917284 6.4091845 0.39085007
-1.7571093 6.4096823 0.39335158
-1.9247216 6.4101868 0.39611846
-8.908061 27.261137 1.6974036
-8.9634418 21.916138 1.4013956
-10.02146 21.481689 1.4029361
-12.003515 21.514696 1.4581201
-12.70061 21.526308 1.4792516
-13.418706 21.538265 1.5018984
-14.159546 21.550606 1.5261487
-14.925156 21.563354 1.5521109
-15.595434 21.408672 1.5676223
-20.63896 -7.2519827 1.2947284
-19.799379 -7.498518 1.2530471
-19.639711 -7.9851298 1.254776
-18.851044 -8.1999531 1.2166809
-12.421166 -7.7030501 0.86503536
-18.432642 -21.797876 1.689533
-16.703007 -21.804884 1.6256421
-15.093901 -21.80868 1.5697335
-14.329731 -21.811213 1.5445709
-13.589277 -21.813669 1.5210705
-11.486372 -21.810463 1.4589206
-10.82272 -21.811314 1.4410825
-2.728374 -7.7147183 0.484308
-1.9732373 -7.946506 0.4845973
-4.3151221 -21.833233 1.3171951
-3.2299461 -21.835535 1.3063986
-2.6931834 -21.835392 1.3021185
-0.044809569 -21.862207 1.2939156
0.4839209 -21.90815 1.2969486
2.6650438 -22.361357 1.332822
3.2973926 -22.940931 1.3717105
13.866831 -8.2195368 0.95405227
13.61351 -7.6315551 0.92368633
14.335014 -7.5873456 0.9599275
15.127548 -7.5452518 1.0005139
8.8490181 6.3626623 0.6450578
7.7233253 6.4497776 0.59553498
7.3562598 6.4508629 0.57907027
6.365078 6.4537911 0.53648418
6.0657325 6.4546776 0.52423292
5.7795849 6.4555235 0.5128212
5.5054736 6.4563351 0.50218123
4.9892969 6.4578638 0.48299026
4.7454443 6.4585862 0.47433883
4.2824216 6.4599586 0.45871183
3.8073339 6.3930664 0.44038543
3.3930762 6.3788013 0.42761657
2.5001855 6.4807444 0.41111585
2.1474559 6.4817944 0.4041301
1.805747 6.482811 0.39829177
1.6383691 6.4833102 0.39577574
1.472998 6.4838037 0.39352095
1.3093945 6.4842906 0.39151824
0.98668945 6.4852548 0.38824537
0.82717282 6.4857311 0.38696638
0.51080078 6.4866772 0.38510117
0.19672851 6.487617 0.38414595
0.040092774 6.4880834 0.38400406
-0.11649414 6.4885545 0.38408554
-1.0659716 6.4913998 0.38933808
-1.2276171 6.4918857 0.39103058
-1.3907715 6.4923763 0.39296797
-1.7002343 6.4095101 0.39246505
-8.9487982 28.172329 1.7494742
-8.8563814 25.713514 1.609592
-9.1243353 21.33667 1.3733826
-10.443125 21.48871 1.4140429
-11.769223 21.510796 1.4512124
-12.459604 21.522295 1.4718491
-13.170327 21.534126 1.4939651
-13.903183 21.546333 1.5176553
-16.202396 21.515926 1.5940979
-20.530067 21.337437 1.7524796
-20.754023 -7.1002707 1.2982208
-19.189121 -7.6176915 1.2219254
-19.105419 -8.1235027 1.2287244
-20.5502 -21.687569 1.7682931
-19.628672 -21.742775 1.7336545
-18.742153 -21.795889 1.701304
-17.849155 -21.80024 1.6675482
-16.989882 -21.803724 1.635968
-16.162079 -21.807076 1.606477
-14.588647 -21.810354 1.5529934
-11.04814 -21.811026 1.4470446
-10.394937 -21.811863 1.4300369
-9.7565432 -21.812679 1.4142435
-3.0776465 -7.3516989 0.47169828
-2.8061767 -7.730814 0.48675811
-2.2258739 -7.8651414 0.4837808
-4.5028806 -21.833046 1.3193856
-1.8097754 -21.82958 1.2964166
-0.22539061 -21.847792 1.293128
0.83324218 -21.943911 1.2996826
1.3680664 -22.005995 1.3049381
1.9095995 -22.09236 1.3124102
2.4656494 -22.251659 1.3250222
3.0656054 -22.656385 1.3531265
15.020971 -7.6477628 0.99760848
9.004468 6.3622031 0.65253264
7.8539305 6.4493933 0.60147488
7.4796824 6.4504991 0.5845688
6.4708447 6.4534802 0.54088497
6.1666894 6.4543772 0.52832991
5.5980468 6.4560604 0.50574219
5.3312745 6.4568515 0.49557829
4.8279686 6.4583411 0.477236
4.589746 6.4590464 0.4689633
3.9205127 6.46103 0.44728866
3.6625242 6.3780017 0.43529266
3.4609179 6.3785996 0.42950621
3.2644873 6.3791842 0.42411789
-1.019668 6.4911289 0.24056731
-1.1809229 6.4916134 0.24157089
-1.3436279 6.4921017 0.24272567
-1.5079833 6.4925938 0.24403365
-8.8916159 26.410301 1.0202618
-8.9999657 21.456884 0.85188627
-9.5484324 21.307768 0.85486692
-10.257651 21.485424 0.87167203
-10.907422 21.496244 0.88253707
-15.893306 21.413412 0.97631592
-20.580742 21.689682 1.0946957
-20.251299 -7.3194318 0.78838319
-17.234131 -21.803135 1.0175176
-16.397558 -21.806515 0.99891418
-2.8042576 -7.5614038 0.29526275
-2.6623731 -7.7473569 0.2999275
-6.3423729 -21.831005 0.83232343
-1.885205 -7.8924432 0.29708603
-4.661118 -21.832672 0.81735164
-4.112998 -21.833218 0.81341523
-2.4955077 -21.834873 0.80462217
-1.962788 -21.83206 0.80253857
-1.4321142 -21.823637 0.80072296
0.68020016 -21.928755 0.80324036
1.2136914 -21.987463 0.80623031
1.752085 -22.054184 0.8099919
14.132168 -7.7574058 0.59024429
15.087368 -7.3578105 0.61456406
14.609316 6.4383273 0.58451384
11.468716 6.4397082 0.48155698
9.7508249 6.4448047 0.427928
9.2592573 6.4462619 0.4130635
8.3691158 6.44766 0.38679793
7.5849657 6.4499874 0.36453125
6.8846483 6.4520679 0.34544936
6.5608983 6.4530282 0.33692291
6.2525926 6.4539452 0.32899505
5.1475291 6.4572301 0.30233702
4.8979883 6.4579711 0.29675034
4.6573634 6.4586864 0.29153183
4.424912 6.4593773 0.28665984
3.9819579 6.4606957 0.27785751
3.7304981 6.3931456 0.27100098
3.1760497 6.478591 0.2641629
2.7973485 6.4797192 0.25839844
2.4339941 6.4808006 0.25345704
2.2572753 6.481329 0.25127348
1.9123242 6.4823585 0.24744399
