# .PCD v0.7 - Point Cloud Data file format
VERSION 0.7
FIELDS x y z
SIZE 4 4 4
TYPE F F F
COUNT 1 1 1
WIDTH 1531
HEIGHT 1
VIEWPOINT 0 0 0 1 0 0 0
POINTS 1531
DATA ascii
21.457817 -7.8001475 3.4319167
21.192896 -7.1298442 3.3610427
19.474203 21.452221 4.3550825
6.5031981 16.513514 2.6677654
4.7325683 16.542553 2.5863407
3.8832617 16.556484 2.556217
2.6410401 16.576864 2.5231683
1.8278369 16.59021 2.5088391
0.62057126 16.610023 2.4984691
0.21960449 16.616608 2.4979362
-0.18144043 16.62319 2.4988544
-0.58303219 16.629787 2.5012338
-1.3896387 16.64303 2.5103943
-2.6154981 16.66316 2.5353827
-3.4492383 16.676857 2.5598285
-3.8726659 16.683815 2.5744939
-4.7355127 16.697992 2.6089325
-5.1761475 16.705231 2.6288173
-12.538501 -6.7062397 2.137361
-12.946958 -7.3318067 2.2365017
-12.651201 -7.993988 2.2494812
-19.988316 -21.809999 4.4468946
-17.275839 -21.830429 4.1846366
-16.437485 -21.833628 4.1080079
-12.637959 -21.83523 3.7922616
-4.2540135 -7.7768044 1.332428
-11.260879 -21.820707 3.6909781
-10.605229 -21.826931 3.6476769
-9.9796143 -21.866297 3.6129534
-9.3724899 -21.921476 3.5836523
-8.7789545 -21.986162 3.5585544
-8.1967182 -22.059124 3.5373137
-7.1443014 -22.495869 3.5478833
-6.2050486 -25.902792 4.0037413
-6.121953 -28.583454 4.3939481
3.8158641 -7.6128435 1.280025
5.1187401 -7.723453 1.3927695
5.4319382 -7.3948212 1.3792062
17.597271 -21.68083 4.1973066
18.474907 -21.671789 4.2806349
20.299652 -9.3227854 3.3577375
20.729652 -8.9210749 3.3922632
20.418755 -8.2092657 3.3080034
21.0956 -7.8956323 3.3857992
19.909174 21.518032 4.4065499
6.2270017 16.518042 2.6534717
5.7783542 16.5254 2.6314816
5.3368649 16.53264 2.6113667
4.0485206 16.553774 2.5616066
3.6290965 16.560654 2.548377
2.8019383 16.574226 2.5266945
2.3931251 16.580933 2.5181792
1.9868213 16.587599 2.5111785
-0.023896484 16.620605 2.4983208
-0.82732421 16.633797 2.5033913
-1.2307519 16.640419 2.5081291
-2.0433447 16.653765 2.5220749
-3.2842138 16.674145 2.5545206
-3.705786 16.681074 2.5685353
-4.1322265 16.68808 2.5842171
-4.564199 16.695181 2.6016152
-12.962173 -7.1790581 2.2272754
-12.45292 -7.2950792 2.1693952
-12.83206 -7.9390926 2.2681582
-11.487744 -7.8982291 2.0955281
-12.030009 -8.7058144 2.2321179
-11.071079 -8.8561134 2.1310744
-16.761967 -21.830936 4.1371884
-15.941957 -21.833998 4.0636911
-13.636387 -21.833565 3.8694112
-12.915629 -21.834957 3.8133082
-4.337666 -7.7542858 1.3355533
-11.526294 -21.824976 3.7100136
-10.860874 -21.824394 3.6642935
-9.6086178 -21.897339 3.5944328
-8.424365 -22.030048 3.5452945
-7.8645749 -22.154228 3.5337071
-7.3339453 -22.356258 3.5366695
-6.4586377 -23.452909 3.6565459
-6.26542 -25.102285 3.8889925
3.6648877 -8.5041323 1.3919449
3.6852391 -7.5295238 1.2600876
4.0263329 -7.7472382 1.312402
4.6391749 -7.9624033 1.3851937
5.3708301 -7.4587498 1.381575
17.246147 -21.664528 4.1623316
18.1369 -21.688276 4.2497482
19.977564 -21.672768 4.4306102
20.503431 -9.0549622 3.3691359
21.322416 -8.2117119 3.4345403
21.503334 -7.6909194 3.4327834
22.022543 -7.2823071 3.4865997
6.405283 16.51512 2.6626313
5.9536619 16.522524 2.6398921
5.0719385 16.536985 2.6000335
3.7932959 16.557959 2.5533788
2.1461229 16.58499 2.5137482
0.93579102 16.604853 2.4999089
0.53455567 16.611437 2.4982331
-0.66927731 16.631201 2.5019329
-1.4765772 16.644457 2.5117285
-1.883042 16.651131 2.5188591
-2.2920897 16.65785 2.5275078
-3.5396729 16.678345 2.5628345
-3.9641552 16.68532 2.5778556
-13.015669 -6.6473284 2.1968267
-12.696191 -6.8753295 2.1702807
-12.534336 -7.5915999 2.2027187
-12.371919 -7.9074163 2.2070732
-11.755547 -7.9193034 2.1305902
-11.867022 -8.4176826 2.1869783
-11.244673 -8.8214951 2.1482942
-19.781836 -21.810244 4.4260073
-17.092968 -21.83061 4.1676579
-16.261211 -21.833759 4.0921445
-15.456938 -21.834362 4.0211778
-14.67955 -21.834944 3.95488
-13.926938 -21.835506 3.8929884
-11.118833 -21.821831 3.6813862
-10.466597 -21.828304 3.6388037
-9.8478756 -21.876791 3.6062214
-9.2441206 -21.934597 3.5779257
-7.0402393 -22.572475 3.554173
-6.6068311 -23.132355 3.6161661
3.888994 -7.6595244 1.2912408
4.24792 -7.8889127 1.3468024
5.309536 -7.5229516 1.3840866
5.6199021 -7.1986904 1.3727636
18.669615 -21.671917 4.2996931
19.600639 -21.672523 4.3923812
21.315971 -7.2734628 3.3854933
20.88059 -6.5668693 3.2902145
19.670229 21.481802 4.3782206
5.6830859 16.526962 2.6270134
3.1251268 16.56892 2.5344615
2.3057568 16.582365 2.5165491
1.8999658 16.589027 2.5098701
0.2910547 16.615435 2.4979258
-0.5113818 16.628609 2.5007021
-0.91374511 16.635218 2.5042827
-1.3174804 16.641846 2.5093384
-1.7231103 16.648508 2.5158811
-2.541919 16.661955 2.5335088
-2.9561474 16.66876 2.5446529
-4.2244287 16.689594 2.5878034
-12.411216 -6.5696812 2.1108303
-12.953867 -7.2623129 2.2322774
-12.481372 -7.3987694 2.1809919
-12.732846 -7.9691586 2.2578847
-18.307846 -21.829414 4.2825165
-15.769472 -21.834126 4.0484729
-14.981757 -21.834717 3.9803798
-13.480015 -21.833866 3.857048
-12.763686 -21.835251 3.8017702
-4.282207 -7.7490349 1.3308123
-8.8835249 -21.973219 3.5626082
-7.7474704 -22.187757 3.5326152
-7.2305517 -22.432377 3.5427423
-6.3919873 -23.689156 3.6881747
-6.1339307 -28.049835 4.3159308
3.4908056 -7.4884853 1.2419201
4.103291 -7.7964249 1.3243152
4.6876659 -7.9508023 1.3873751
5.127871 -7.8099785 1.4043826
5.2480421 -7.5874376 1.3867364
18.32939 -21.689377 4.2685089
19.230228 -21.672285 4.3552041
20.186127 -21.672905 4.4519391
20.110277 21.548672 4.4305043
-13.017944 -6.876245 1.8750329
-12.831435 -7.1789289 1.8725817
-12.79167 -7.567584 1.892879
-12.276499 -8.518487 1.9030566
-11.759663 -8.5874805 1.8545254
-11.339521 -8.7078037 1.820881
-20.197779 -21.810785 3.7859268
-17.459873 -21.82983 3.5601082
-16.614965 -21.833227 3.494256
-15.798349 -21.833843 3.4323354
-4.2893748 -7.7459502 1.1276757
-10.112031 -21.856213 3.0670755
-8.3210011 -22.043478 3.0007968
-7.7676463 -22.18329 2.9934392
-6.2447801 -25.485701 3.3418531
-6.1408834 -27.96423 3.6463597
3.6376708 -8.3420839 1.1590595
3.9959326 -7.6085911 1.0945342
4.3346434 -7.7909031 1.1354786
4.5959911 -7.8109012 1.154223
4.6263671 -7.4454746 1.1163979
5.0325098 -7.6793637 1.1693394
16.554985 -21.66436 3.4725199
18.296919 -21.689369 3.6139619
20.150669 -21.672859 3.7689731
12.556772 -7.8087816 1.8831561
20.74431 -9.054945 2.8827045
19.931509 -8.1334267 2.7416751
20.990103 -7.9802575 2.8599675
20.86809 -6.8011189 2.7953286
22.191772 -6.6446772 2.9502983
20.138676 20.525465 3.6622343
19.06148 20.389137 3.5547955
19.511919 21.907391 3.7363124
6.3241696 16.516306 2.252435
4.9946432 16.538359 2.2002695
3.7187986 16.559633 2.1615479
3.3026221 16.566553 2.1514189
2.0739014 16.586933 2.1289432
1.6692138 16.59363 2.1240146
1.2661718 16.60029 2.1203387
0.46309081 16.613529 2.1167068
-0.33908203 16.62672 2.118005
-0.74103028 16.633314 2.1205051
-1.1441455 16.639923 2.1242499
-1.5489209 16.646549 2.1292465
-2.3654199 16.659882 2.1430676
-2.778125 16.666613 2.151933
-3.1945164 16.673391 2.1621325
-3.6151073 16.680229 2.1737001
-4.4711766 16.694031 2.2010744
-4.9078074 16.700953 2.2169571
-5.3510547 16.707981 2.2343817
-28.466152 -8.2919626 3.7761037
-28.224194 -8.9656744 3.7716086
-22.418144 -7.72156 3.019769
-12.625712 -6.9075546 1.8329214
-12.807348 -7.4139109 1.8847177
-12.84103 -7.8530254 1.9170026
-12.153793 -7.8418188 1.8421285
-11.92914 -8.5390806 1.8684063
-11.09188 -8.7789593 1.8015792
-19.627188 -21.827681 3.7385364
-16.941835 -21.830347 3.51934
-16.115629 -21.833603 3.4561508
-14.543501 -21.834789 3.3412564
-13.794121 -21.833708 3.2891915
-13.068726 -21.835108 3.2409413
-12.362749 -21.834431 3.1956248
-11.672481 -21.827387 3.152442
-10.355405 -21.836828 3.0779877
-9.7390423 -21.885921 3.0508885
-9.1379633 -21.946001 3.0276361
-6.5416355 -23.2827 3.0800807
-6.2890868 -24.653402 3.2403879
3.4334178 -7.5690026 1.0585226
3.6305175 -7.5160031 1.0630558
3.8611717 -7.5243902 1.0771083
4.4770899 -8.2295351 1.1931692
4.5091357 -7.8321619 1.1509987
4.6284032 -7.6086679 1.1342397
4.9573145 -7.7233005 1.1688229
5.1275291 -7.5797391 1.1654855
5.2829347 -7.4173546 1.159784
17.057045 -21.656122 3.5108862
18.832661 -21.672001 3.6566601
19.770864 -21.672611 3.7361803
20.488413 -9.175375 2.8591013
20.955376 -8.1951742 2.8656917
22.203081 -6.8779979 2.9603307
20.580864 20.582323 3.7070119
19.504673 21.485786 3.6957619
6.5031395 16.513367 2.2603359
6.0498385 16.520803 2.240715
5.1652732 16.535507 2.2063019
4.7326074 16.542734 2.1913881
2.6411426 16.577536 2.137928
2.2333837 16.584293 2.1312265
1.0220263 16.604319 2.1187117
0.21960936 16.617538 2.1165795
-0.18145508 16.624132 2.1173577
-1.7957617 16.650585 2.1329024
-2.2042186 16.657255 2.1399443
-2.6156201 16.663961 2.1482909
-3.0305176 16.670723 2.1579642
-3.4493799 16.677534 2.1689887
-4.3013573 16.691338 2.1952443
-12.822939 -7.2615829 1.8768005
-12.783051 -7.6520782 1.897438
-12.444795 -7.8635616 1.8748559
-11.724487 -7.8104801 1.7942132
-11.251406 -8.7331018 1.8139688
-17.275517 -21.830013 3.545511
-15.626889 -21.833969 3.4195919
-14.84396 -21.83456 3.3625968
-13.351059 -21.834562 3.2594979
-12.638027 -21.835352 3.2131429
-10.605303 -21.827101 3.0906448
-9.3727102 -21.922009 3.036443
-6.6880612 -22.965864 3.0464163
-6.3583055 -23.973867 3.1588516
3.6121092 -7.6624713 1.0788822
4.0714111 -7.6557784 1.104339
4.6305661 -7.7772746 1.1527805
4.8654394 -7.7405548 1.1644037
5.0661325 -7.6440759 1.1679423
5.3766894 -7.3196054 1.1566951
16.728354 -21.657953 3.4853261
17.597603 -21.681223 3.5563815
20.360922 -21.672995 3.7872701
20.447651 -8.2208834 2.8067873
21.614838 -8.0899744 2.9393444
21.222651 -7.3644438 2.8610089
21.034731 20.641199 3.753355
19.90184 20.49522 3.6384094
18.839046 20.361393 3.5329156
6.226943 16.517897 2.248225
4.9018455 16.539909 2.1970685
4.4726124 16.547071 2.1830454
4.0486083 16.554142 2.1704571
3.6291845 16.561125 2.1592615
1.5826514 16.59506 2.1231215
0.77821285 16.608339 2.1175437
-0.023901368 16.621542 2.1169074
-0.42521483 16.628134 2.1184349
-0.82737303 16.634735 2.1212049
-2.0434618 16.654629 2.1370261
-2.4536622 16.661325 2.1448581
-3.7059374 16.681704 2.1763623
-4.1323581 16.688623 2.1896389
-12.791484 -7.084527 1.8622857
-12.798794 -7.497694 1.8891467
-12.705254 -7.8606396 1.9027838
-11.413242 -8.6866579 1.8267053
-19.423975 -21.827883 3.7212977
-18.500595 -21.828798 3.644269
-15.941757 -21.833735 3.443063
-15.148359 -21.834332 3.3845184
-10.860957 -21.824566 3.1047211
-9.0103512 -21.959042 3.0229623
-6.1522851 -27.452099 3.5830007
3.597456 -8.3476629 1.157673
3.7979295 -7.7597575 1.1002982
3.9342284 -7.5700312 1.0865424
4.3206739 -7.8450098 1.1406456
4.6272755 -7.5188866 1.1244104
5.1609864 -7.5447397 1.1641959
5.3161035 -7.3827558 1.1586595
16.411909 -21.669647 3.4620256
17.24645 -21.664917 3.5267401
18.137045 -21.688457 3.6007771
19.977533 -21.672747 3.753983
20.802631 -8.5934772 2.8665643
21.306744 -8.205677 2.9078953
20.337944 20.551029 3.6823668
19.248627 20.412592 3.573288
19.508608 21.714931 3.7177565
6.4052296 16.514975 2.2559872
5.5094385 16.529751 2.2190721
5.0719676 16.537067 2.2029762
4.2145605 16.551376 2.1752357
3.3765087 16.565327 2.1531255
2.9633887 16.572187 2.1440988
2.553452 16.578991 2.1363819
2.1462157 16.585737 2.1299567
1.3379053 16.599106 2.1209044
0.93584472 16.60574 2.1182489
0.13359375 16.618952 2.1166434
-0.26755857 16.625544 2.1176887
-0.66930664 16.632141 2.1199689
-1.4766552 16.645369 2.1282644
-2.292202 16.658689 2.1416259
-2.7043309 16.665409 2.1502554
-3.5398095 16.679003 2.171536
-3.9643066 16.685898 2.1842573
-28.558973 -6.7137132 3.7363973
-27.960234 -8.0143108 3.7043827
-12.52455 -6.7823882 1.8139856
-12.814428 -7.3446026 1.8810943
-12.793418 -7.7485137 1.9049059
-11.577451 -8.6396046 1.839801
-11.164003 -8.7582178 1.8071606
-18.858646 -21.828442 3.6738822
-17.958174 -21.829336 3.6000421
-17.092636 -21.830196 3.5311241
-16.261005 -21.833496 3.4671664
-15.456748 -21.834099 3.4070368
-14.679365 -21.834686 3.350867
-12.487309 -21.834848 3.2035131
-11.118911 -21.822004 3.1192088
-10.46667 -21.828476 3.0831249
-9.8480806 -21.877239 3.0555627
-8.6536179 -22.002314 3.0111377
-8.0797167 -22.093933 2.9961147
-6.6084666 -23.138086 3.0646813
-6.176074 -26.383968 3.4510736
3.4759276 -7.275703 1.0269433
4.1482663 -7.7038469 1.114355
4.6353321 -8.1320696 1.1921307
4.629365 -7.6844888 1.1425644
4.9167676 -7.733067 1.1670914
5.255332 -7.4461637 1.1607429
5.4097118 -7.2852097 1.1556692
16.902983 -21.651501 3.498316
17.788862 -21.686462 3.5722923
20.373705 -9.2293701 2.8486001
19.668276 20.465546 3.6150284
19.520004 22.378744 3.7820308
6.5847754 16.512032 2.264008
5.2430224 16.534206 2.2091157
4.8092823 16.541454 2.1939394
3.539746 16.562613 2.1570349
2.7140965 16.576324 2.139257
2.3058546 16.583094 2.1323285
1.496123 16.596491 2.1222839
0.29106933 16.616362 2.1165705
-0.10996094 16.622955 2.1171324
-0.51141113 16.629551 2.1189253
-1.3175536 16.642763 2.1262376
-2.5420508 16.662766 2.1467068
-3.7969627 16.68318 2.1790905
-4.2245655 16.690119 2.1926744
-4.6577344 16.696987 2.2077017
-14.048115 -7.0075607 1.9993954
-13.015713 -6.8896537 1.8755822
-12.83 -7.1928716 1.8732897
-12.790215 -7.5818419 1.8936447
-12.580346 -7.8737087 1.8901569
-12.240723 -8.5095434 1.8986651
-11.324585 -8.7120914 1.8197057
-20.162344 -21.810829 3.7828701
-19.222572 -21.828081 3.704314
-18.307508 -21.828989 3.6284356
-17.428593 -21.829863 3.5576253
-15.769277 -21.833862 3.430167
-4.2822218 -7.7490516 1.1275803
-10.721025 -21.825953 3.0969808
-10.089614 -21.857998 3.0660803
-9.4797163 -21.911074 3.0405495
-8.883769 -21.973829 3.018626
-8.299922 -22.046089 3.0001638
-7.2313719 -22.434946 3.0020549
-6.2387304 -25.557766 3.3505886
3.6458545 -8.34095 1.1593434
4.6040282 -7.808939 1.1545266
4.6261864 -7.4306912 1.1147887
5.0381885 -7.6733942 1.1691005
5.194365 -7.5098453 1.1629438
16.584126 -21.663286 3.4746666
17.437447 -21.673784 3.5428212
20.186108 -21.672882 3.7720523
20.768158 -9.0437241 2.8849163
20.017134 -8.1479349 2.7524719
21.067427 -7.9885154 2.8695493
20.845697 -6.7736816 2.7915361
19.023726 20.384417 3.5510721
19.512592 21.946768 3.7401166
-12.486684 -6.9860439 1.4956973
-20.1987 -21.811815 3.1075974
-16.614765 -21.83296 2.8680117
-15.798159 -21.833578 2.8171887
-14.246611 -21.834759 2.7253854
-13.506914 -21.834709 2.6839077
-12.789736 -21.835976 2.6453464
-4.2893848 -7.7459664 0.92558604
-11.405581 -21.823156 2.5740597
-10.744721 -21.825888 2.5430558
-9.5017672 -21.90937 2.4964042
-8.3212347 -22.044085 2.4630938
-7.7680612 -22.184469 2.4571118
-6.2482028 -25.499659 2.7444644
3.9064305 -7.4381847 0.87826198
4.3328028 -7.7875938 0.9315933
4.795361 -8.1497231 0.98846996
4.9815378 -7.601594 0.95006162
5.2900729 -7.2803674 0.94074982
16.554966 -21.664331 2.8502038
18.297066 -21.68955 2.9663179
20.150648 -21.672836 3.0935311
12.553969 -7.8070483 1.5453945
21.151459 -8.6312513 2.388078
21.766655 -7.0939684 2.3931732
19.904516 20.286823 2.9709778
12.338941 16.055799 2.1167734
10.970346 16.640667 2.0835259
11.215464 17.939922 2.2116709
6.3252001 16.518999 1.849075
2.2892821 6.4399362 0.71446759
1.9451513 6.4408836 0.7033307
1.6108154 6.4418063 0.69412655
1.2843701 6.4427099 0.68673962
1.1235498 6.4431529 0.68369764
0.64825684 6.4444699 0.67707032
0.49157226 6.4449072 0.67567241
0.1796582 6.4457736 0.67406887
-0.13148437 6.4466381 0.67403716
-0.28723145 6.4470739 0.67461103
-0.44333494 6.4475083 0.67557907
-0.59998047 6.4479465 0.67694503
-0.75734371 6.4483848 0.67871308
-1.2194335 6.3646359 0.67742687
-1.3795117 6.3650827 0.68082088
-1.5415967 6.3667831 0.68478191
-1.8955225 6.4503307 0.70279539
-2.0660009 6.450809 0.70807308
-2.2391601 6.4512963 0.71385163
-2.5946288 6.4522986 0.72698212
-2.7775195 6.4528136 0.73437637
-3.3508544 6.454432 0.76021969
-28.054516 -8.9117737 3.0770884
-22.420404 -7.7223425 2.4788463
-12.903173 -7.0593514 1.5375057
-12.039878 -7.768322 1.4978284
-11.36081 -8.5542383 1.4866143
-19.626816 -21.827246 3.0684915
-17.801069 -21.829077 2.9444482
-16.941504 -21.829939 2.8885715
-14.54333 -21.83453 2.7424393
-12.362837 -21.834551 2.6229477
-10.355619 -21.837275 2.5264304
-7.9826951 -22.123014 2.4585783
-7.4386816 -22.285463 2.4559619
-6.9550781 -22.641527 2.475975
-6.2929053 -24.668339 2.6612899
-6.1698875 -26.877851 2.8827517
3.6830175 -7.6246924 0.88516265
3.9953465 -7.7858567 0.91479993
4.3941698 -8.0771065 0.96120179
16.240795 -21.675941 2.8313601
17.057339 -21.656507 2.8817511
19.770844 -21.672588 3.0666132
20.797104 -8.1332722 2.3343613
21.398706 -7.7786603 2.380121
21.91441 -7.3725762 2.4169912
20.799379 19.820436 3.0033836
20.279232 20.280674 2.9980867
19.499506 21.480106 3.0326433
12.475571 15.919099 2.1142571
12.250933 16.434191 2.142756
10.882524 16.171833 2.0376492
11.115278 17.410429 2.1592803
2.3581836 6.4397459 0.71689332
2.1836376 6.440227 0.71087307
2.0118897 6.4407005 0.70536071
1.5109472 6.4420824 0.69169617
1.3479443 6.442534 0.68805009
1.1865381 6.4429798 0.68484098
0.55303222 6.4447351 0.67617476
0.24080566 6.4456015 0.67425901
0.085170895 6.4460349 0.67389327
-0.070375971 6.4464684 0.67391938
-0.53837889 6.4477735 0.67636061
-0.69544435 6.4482126 0.67797029
-0.85334957 6.4486547 0.67998475
-1.3164501 6.3649073 0.67943573
-1.477832 6.3666053 0.68322599
-1.8292528 6.4501438 0.70085448
-2.17083 6.4511046 0.71152192
-2.3457422 6.4515967 0.71761137
-2.5237842 6.4520993 0.72423106
-2.7052491 6.4526095 0.73140335
-3.4720459 6.4547753 0.7661708
-20.846846 20.944382 3.0891082
-13.951611 -7.0345178 1.6333303
-12.927573 -6.9143338 1.532536
-12.250068 -7.74052 1.5147836
-12.474707 -8.3102541 1.5669043
-11.94813 -8.3825827 1.5257287
-19.056318 -21.827816 3.0289865
-18.147919 -21.82873 2.9674714
-17.275175 -21.829603 2.9100637
-14.086079 -21.834883 2.7162976
-13.351328 -21.835009 2.6754127
-12.63809 -21.835468 2.6373272
-4.255034 -7.7786765 0.92685133
-11.260942 -21.820831 2.5668781
-9.3729391 -21.922537 2.4923449
-8.7794428 -21.987379 2.4749053
-8.1976023 -22.061481 2.4602616
-7.6509228 -22.21801 2.4564111
-6.689702 -22.971489 2.5010784
4.4080958 -7.8272715 0.93905681
4.858789 -7.7299767 0.95442456
5.0148973 -7.5667648 0.94894135
15.971108 -21.742414 2.8201406
17.597904 -21.68161 2.9190915
19.397552 -21.672346 3.0404346
12.633266 -7.7659554 1.5501873
20.68479 -8.9017687 2.3540173
20.013618 -8.0463772 2.2548783
21.004614 -7.2887821 2.324162
21.23436 -6.7991295 2.3307478
22.224409 19.797054 3.1112993
20.660942 20.27441 3.0259683
19.7027 20.290136 2.9564855
19.510677 22.135647 3.0845003
12.308159 16.188494 2.1258364
11.926108 16.497515 2.1280026
10.950258 15.944133 2.0219455
11.020229 16.906109 2.1095953
11.272514 18.240568 2.2415121
1.5754639 6.4419041 0.69324815
1.4117529 6.4423556 0.68943036
1.249751 6.4428039 0.68605053
0.93000484 6.4436898 0.68056899
0.7718457 6.4441295 0.67845029
0.6145947 6.4445639 0.67673767
0.30200195 6.4454331 0.67451048
-0.0092822267 6.4462986 0.67386216
-0.32067871 6.4471664 0.67478544
-0.79121095 6.4484801 0.67914456
-1.0947363 6.3642869 0.6750595
-1.2536377 6.3647313 0.67811888
-1.4143407 6.3664269 0.68173748
-1.76333 6.4499598 0.69898725
-2.1029003 6.450913 0.7092703
-2.2766798 6.4514036 0.71515745
-2.4534667 6.4519005 0.72156566
-2.6335449 6.4524069 0.72851914
-3.3934522 6.4545531 0.76229233
-12.387495 -6.8607745 1.4802698
-12.677129 -7.4264212 1.5358508
-12.65331 -8.2571993 1.5794388
-12.119765 -8.3327656 1.5374969
-19.423603 -21.82745 3.0543437
-18.500248 -21.828373 2.9911149
-15.148189 -21.834072 2.7779486
-14.38082 -21.834656 2.7330658
-13.636938 -21.834459 2.691061
-4.3359666 -7.7512479 0.9284358
-11.526357 -21.825098 2.580111
-10.86104 -21.824736 2.5483408
-10.222466 -21.847881 2.5215011
-9.6090822 -21.898403 2.49984
-9.0105762 -21.95957 2.4812791
-8.4248285 -22.031263 2.4656866
-7.8654199 -22.156597 2.457751
-6.2731738 -25.133364 2.7079165
3.7483056 -7.6583629 0.89131272
3.8467431 -7.4016991 0.87199217
4.3249803 -7.8528228 0.93716353
4.7970066 -7.7946782 0.95675719
5.1089845 -7.4687176 0.94593227
5.2627931 -7.3087139 0.94147873
19.030521 -21.672104 3.014966
19.977514 -21.672724 3.0812294
21.03433 -8.6891918 2.3790517
21.107025 -8.1287642 2.3643951
21.25725 -7.60291 2.3599803
21.924135 -7.2497659 2.4138937
21.049809 20.268026 3.0546584
20.073734 20.284048 2.9831841
12.364272 15.94635 2.1093314
12.162925 16.493628 2.1422741
11.56605 16.503426 2.1066778
10.929936 16.425217 2.0624177
6.4062743 16.517643 1.8519912
1.9753906 6.4408007 0.70424241
1.8066992 6.4412656 0.69932175
1.475835 6.4421787 0.69087642
1.3131787 6.4426293 0.68732542
0.67625976 6.4443946 0.6773622
0.51945311 6.4448299 0.67589295
-0.25945312 6.4469957 0.67447966
-0.72923338 6.448308 0.67836821
-0.8873437 6.4487486 0.68046993
-1.0327295 6.3641124 0.67397201
-1.1910645 6.3645568 0.67686689
-1.3508594 6.3650036 0.68018323
-2.9307129 6.4532456 0.74089581
-20.993486 20.874479 3.0947826
-28.312128 -8.8597679 3.1011362
-12.294218 -8.2821951 1.5495968
-11.855586 -8.4095612 1.5194503
-11.434248 -8.5327301 1.491408
-19.783661 -21.81229 3.078316
-18.858286 -21.828016 3.0154283
-17.957832 -21.828918 2.954819
-15.456562 -21.833838 2.7964272
-14.679199 -21.834429 2.7503281
-13.196748 -21.835302 2.6670473
-9.2445745 -21.935654 2.488358
-8.653862 -22.00292 2.4715788
-7.5338864 -22.251522 2.45577
-6.6100926 -23.143793 2.5160775
-6.1803956 -26.402433 2.8345852
3.6294627 -7.5970778 0.88013715
3.9151952 -7.7111325 0.90403473
4.2683496 -7.9268613 0.94112945
4.778657 -7.9322972 0.9680478
5.0481834 -7.5320601 0.94785202
16.114594 -21.701385 2.8255999
18.669565 -21.671869 2.9901819
19.60062 -21.672478 3.0546427
20.807377 -8.8271847 2.3627386
21.952124 -6.9038663 2.4055779
21.998304 19.800764 3.0939472
20.976265 19.817533 3.0165858
20.451548 20.277849 3.0106392
19.496294 21.291855 3.0178723
19.514711 22.372683 3.1034069
11.7981 16.499617 2.1203671
10.844096 15.966052 2.0175743
6.5858154 16.514641 1.8585681
2.3896093 6.4396605 0.71802139
2.2145362 6.4401417 0.71190947
1.8726709 6.4410825 0.70119733
1.5401856 6.4420018 0.69239259
1.3768604 6.4424534 0.68866867
0.89598632 6.4437828 0.68007994
0.73805171 6.4442225 0.67804837
0.580957 6.4446568 0.67642182
0.26856932 6.4455247 0.6743657
-0.19827148 6.446825 0.67423612
-0.35415038 6.4472594 0.67497861
-0.97088379 6.3639393 0.67295027
-1.2879199 6.3648276 0.67882979
-1.4489746 6.3665233 0.68254089
-1.9683496 6.4505358 0.70499951
-2.1399462 6.4510169 0.71049011
-2.3143456 6.4515085 0.71648693
-2.6726415 6.452518 0.73008376
-3.0456836 6.4535704 0.74597657
-3.2385986 6.4541149 0.75485408
-3.4362793 6.4546738 0.76439708
-20.866577 21.145292 3.1054745
-12.668359 -7.5096111 1.5394763
-12.381904 -7.749517 1.52695
-12.620557 -8.3292561 1.5807095
-11.597802 -8.4848719 1.5021859
-20.1633 -21.811855 3.1050868
-18.307148 -21.828569 2.9781225
-17.428261 -21.829451 2.9200082
-16.584585 -21.832983 2.8661056
-14.981401 -21.834198 2.7680566
-14.219345 -21.83478 2.7238302
-4.2822313 -7.7490683 0.92550778
-10.089819 -21.858446 2.5166597
-9.4799509 -21.911602 2.4957118
-7.7483006 -22.190128 2.4569893
-7.2322021 -22.43749 2.464335
-6.755127 -22.829872 2.4887991
-6.3977637 -23.710546 2.5672243
-6.1430712 -28.091644 3.0059566
3.9186914 -7.4456787 0.87955213
4.3454099 -7.7942381 0.9328416
4.793911 -8.1310034 0.98670805
4.9871826 -7.5957007 0.94987029
5.1420851 -7.4342551 0.94492477
16.584097 -21.663252 2.8519671
19.23019 -21.672235 3.0287869
12.559184 -7.7950473 1.5451856
20.583609 -8.9633579 2.3468661
21.187935 -8.6245117 2.3913448
21.118324 -7.4302282 2.3402596
19.48934 20.883329 2.9860198
19.507359 21.940882 3.0690236
12.033266 16.495756 2.1344335
10.978686 16.68504 2.0878818
-28.664721 -7.8960509 2.432646
-13.667646 -7.2194262 1.264679
-13.291196 -7.4361534 1.2460885
-11.470698 -8.3764715 1.1621151
-20.199663 -21.812841 2.4323907
-18.339325 -21.828115 2.3326046
-17.459229 -21.829008 2.2870069
-15.009375 -21.83392 2.1677992
-13.507187 -21.835154 2.1007042
-12.789795 -21.836098 2.0704937
-4.2893896 -7.745986 0.72444624
-9.5019922 -21.909897 1.9539498
-8.905591 -21.972403 1.9397922
-8.3214693 -22.044687 1.9278811
-6.7699852 -22.806789 1.9464849
-6.4079733 -23.666059 2.0060375
-6.149961 -28.005548 2.3459601
3.9795067 -7.5773249 0.70026273
4.3309717 -7.7843018 0.72883832
4.7766452 -7.6873298 0.74049497
15.827495 -21.782284 2.2029891
21.588696 -7.6169119 1.8730657
21.225367 -6.9175587 1.8265243
4.1867185 6.350781 0.6223622
3.9706492 6.3513741 0.61285001
3.6039989 6.4361777 0.60353333
3.4029737 6.4367294 0.59571058
3.2069726 6.4372692 0.5884251
2.828496 6.4383106 0.57536316
2.6452684 6.4388156 0.56953657
2.46562 6.4393115 0.56415296
2.2892334 6.4397984 0.55919307
2.1158202 6.4402757 0.5546385
1.9451073 6.4407482 0.55047637
1.4466845 6.4421277 0.54020858
1.2843456 6.4425755 0.53749067
1.1235254 6.4430213 0.5351094
0.80567867 6.4439025 0.53133225
0.17965332 6.445642 0.5275737
-0.13147949 6.4465084 0.52754879
-0.28722656 6.4469419 0.52799928
-0.44332519 6.4473777 0.52875626
-0.59996092 6.4478135 0.52982575
-1.0608203 6.3640599 0.52787822
-1.2194091 6.3645043 0.53020215
-1.3794873 6.3649521 0.53285784
-1.7274413 6.4497242 0.54630172
-2.4152293 6.451654 0.5636366
-2.7774608 6.4526706 0.57477444
-3.1552098 6.4537354 0.5877583
-3.3507812 6.4542856 0.59499955
-3.5513573 6.4548512 0.60277861
-4.8871045 6.4586239 0.66266251
-5.3974414 6.4600668 0.68875486
-5.6683202 6.460835 0.70321715
-5.9509668 6.4616342 0.71872723
-6.1803317 6.3939829 0.72757655
-6.4710984 6.3793139 0.74346757
-6.7922702 6.3802247 0.76245832
-22.422665 -7.7231097 1.9403576
-13.757187 -7.1007938 1.26668
-12.680322 -7.7547483 1.2161126
-11.633872 -8.3277283 1.1705952
-19.626415 -21.826813 2.401619
-13.069258 -21.835991 2.0821357
-11.672529 -21.827511 2.0252097
-11.001704 -21.823511 1.9996197
-10.355825 -21.837719 1.977442
-8.550024 -22.016403 1.9324099
-7.9831247 -22.124189 1.924399
-6.9558544 -22.644106 1.9381378
-6.5448585 -23.294209 1.9796884
-6.1742673 -26.896963 2.2579
4.2706785 -7.8501115 0.73117721
5.0253515 -7.4286942 0.73381287
15.567222 -21.856707 2.1954954
17.946489 -21.687719 2.3032019
19.770834 -21.672564 2.4001987
20.639975 -8.6515913 1.8310788
21.032465 -7.6455283 1.8310052
21.265131 20.264257 2.4033437
20.279009 20.280443 2.3465326
19.47691 20.441696 2.3101337
19.49437 21.474436 2.3729839
5.0470362 6.4401474 0.66945112
4.5642185 6.4414706 0.64592069
4.0547118 6.3511438 0.61650723
3.8473828 6.359642 0.60814285
3.6844189 6.4359555 0.60675931
3.4812939 6.4365134 0.59871674
3.0902441 6.4375901 0.58425325
2.901494 6.4381104 0.57777601
2.5357714 6.4391174 0.56621629
2.0118506 6.4405651 0.55206525
1.8426611 6.44103 0.54813325
1.3479151 6.4424 0.53851789
1.1865137 6.4428477 0.53600448
0.86775386 6.4437304 0.5319714
0.70997071 6.4441686 0.53043962
0.39669433 6.4450388 0.52831757
0.24080078 6.4454722 0.52772337
0.085175782 6.4459057 0.52743608
-0.69543457 6.448081 0.53062832
-0.85332519 6.4485226 0.53220445
-1.1569629 6.3643298 0.52925014
-1.4777979 6.3664732 0.53473967
-1.829209 6.4500084 0.54853821
-2.1707764 6.4509668 0.55688661
-2.3456933 6.4514585 0.56165236
-2.5237305 6.4519591 0.5668335
-2.8904004 6.4529881 0.57851362
-3.4719629 6.4546275 0.59965771
-3.8853173 6.455792 0.61648011
-4.101079 6.4564013 0.62580812
-4.5534568 6.4576807 0.64649475
-4.791338 6.4583521 0.65794694
-5.0379343 6.4590487 0.67020965
-5.5605955 6.4605298 0.69741756
-5.8384814 6.4613156 0.71250486
-6.1288428 6.4621387 0.72869414
-6.3492527 6.3789682 0.73638088
-13.618881 -7.2840824 1.2636386
-12.644887 -7.1607456 1.1889547
-12.725449 -7.6175928 1.2134613
-12.901294 -8.1520147 1.2486279
-19.055946 -21.827389 2.3706975
-17.274858 -21.829193 2.2776248
-14.843623 -21.834047 2.1601529
-14.085908 -21.834629 2.1259625
-13.351606 -21.835449 2.0940552
-12.638173 -21.83559 2.0642128
-4.2555418 -7.7796087 0.72552001
-11.260996 -21.820942 2.0090725
-10.605474 -21.82744 1.9855267
-9.9802198 -21.867636 1.966693
-9.3731537 -21.923063 1.9507724
-8.1980419 -22.062651 1.9257171
-7.6513329 -22.219187 1.9227026
-6.3640819 -23.995649 2.0311582
-6.2154198 -25.946114 2.1829116
3.8198779 -7.6208625 0.69746858
4.4062304 -7.8239594 0.73467726
4.8100829 -7.6524887 0.73952818
5.1183057 -7.3322887 0.73161972
15.970376 -21.741425 2.207185
16.728315 -21.657894 2.2390423
18.474838 -21.671722 2.3300009
20.360884 -21.672949 2.4330182
20.987299 -8.4378424 1.8507241
21.598549 -7.494885 1.8705267
22.832132 -7.3107305 1.9615119
21.747953 20.334579 2.436023
19.487396 21.062151 2.3477321
19.505444 22.129707 2.4135485
5.4051414 6.4391661 0.68785
4.6563478 6.4412179 0.65029114
4.4241648 6.441854 0.63939071
3.9251463 6.3514991 0.61089188
3.7214012 6.3599887 0.60289776
3.5604346 6.4362974 0.60180771
3.3605175 6.4368467 0.59410262
3.1655567 6.4373837 0.58693069
2.7888672 6.4384203 0.57407564
2.4275196 6.4394164 0.56305391
1.74104 6.4413123 0.54592729
1.5754346 6.4417701 0.54258531
1.2497216 6.4426718 0.5369519
1.0892138 6.4431176 0.53464204
0.77183104 6.4439964 0.53100312
0.61458492 6.4444346 0.52966249
0.45802733 6.4448681 0.52863675
0.30199218 6.4453025 0.52792007
0.14627929 6.4457359 0.52751267
-0.0092822267 6.4461679 0.52741319
-0.32066894 6.4470348 0.52813524
-0.47687498 6.4474716 0.52896011
-0.63364744 6.4479089 0.53009611
-0.79119629 6.4483495 0.53154647
-0.93717772 6.3637156 0.52628171
-1.0947168 6.3641553 0.52834946
-1.2536083 6.3645997 0.53074306
-1.763291 6.4498239 0.54707593
-2.1028564 6.4507751 0.55512434
-2.2766309 6.4512644 0.55973202
-2.4534082 6.4517612 0.56474727
-2.8171825 6.4527831 0.57607543
-3.0048242 6.4533114 0.5824281
-3.1967528 6.4538522 0.58926851
-3.393374 6.4544067 0.59662217
-4.6969042 6.458086 0.65335506
-4.9400001 6.4587731 0.66529405
-6.0132518 6.4618101 0.72219956
-6.9704733 6.4800196 0.77868348
-28.913628 -7.0868859 2.4356854
-13.708247 -7.165628 1.2655728
-13.36064 -7.3997498 1.249606
-12.594023 -7.3777366 1.1942108
-12.408613 -8.0975103 1.2122988
-11.544457 -8.3544312 1.1659322
-19.423212 -21.827021 2.390548
-18.499887 -21.827953 2.3410661
-17.613525 -21.82885 2.2949028
-11.526377 -21.825161 2.0194259
-10.222675 -21.848324 1.9735867
-9.6093063 -21.89893 1.9566394
-9.0107813 -21.960094 1.9421115
-8.4250631 -22.031868 1.9299102
-6.8510594 -22.721272 1.9416864
-6.4634619 -23.470444 1.9917974
-6.2770262 -25.148832 2.1207564
4.3292675 -7.8606153 0.73423171
4.6024218 -7.8993201 0.74800551
4.7488036 -7.7163534 0.74131638
4.9042969 -7.55439 0.73691344
15.709165 -21.816122 2.1995561
16.41185 -21.66959 2.2240698
17.247055 -21.665688 2.2657328
18.137348 -21.688812 2.3132706
20.751675 -7.9919076 1.8194265
21.580492 -7.7185202 1.8752187
21.049585 20.267792 2.3908134
5.2466259 6.4396005 0.67961091
4.9935594 6.4402928 0.66677016
4.5144238 6.4416075 0.64358306
4.2259421 6.3506737 0.62412506
4.008667 6.3512707 0.61449921
3.8026319 6.3597641 0.6062637
3.6403906 6.4360776 0.60498625
3.2415674 6.4371738 0.58968657
3.0493944 6.4377036 0.58282286
2.8615429 6.43822 0.57644838
2.6776612 6.4387264 0.57054323
1.9753516 6.4406652 0.55118912
0.83382809 6.4438257 0.53161573
0.67624998 6.4442625 0.53015167
0.51943845 6.4446983 0.52900207
-0.10375 6.4464307 0.52750134
-0.25944334 6.4468651 0.52789551
-0.41547361 6.4473009 0.52859956
-0.57200682 6.4477367 0.52961195
-0.72921383 6.4481759 0.53093976
-0.8873291 6.4486179 0.53258467
-1.1910352 6.3644238 0.52976441
-1.3508399 6.3648715 0.53236085
-1.5125928 6.3665695 0.53539962
-1.6977197 6.4496408 0.54567212
-1.8653662 6.4501095 0.54936004
-2.0353954 6.4505868 0.55342406
-2.2080419 6.4510717 0.55787414
-3.1208544 6.4536386 0.58652204
-3.3155663 6.4541869 0.59367067
-3.5152295 6.4547482 0.60135144
-3.7202392 6.455327 0.60959244
-3.9310644 6.4559216 0.6184274
-4.1482177 6.4565353 0.62789303
-4.6037841 6.4578223 0.64888519
-5.0920362 6.4592028 0.67295057
-5.3503222 6.4599338 0.68628007
-5.6192188 6.4606957 0.70056516
-6.4155078 6.3791566 0.74022752
-7.1792235 6.4806113 0.79131103
-28.142391 -8.8066673 2.412668
-13.797935 -7.0468392 1.2676278
-12.371177 -7.0905557 1.1666515
-19.78459 -21.813305 2.409481
-18.857914 -21.827589 2.3600891
-15.456382 -21.833578 2.1887016
-14.679028 -21.834175 2.1526208
-13.92645 -21.834751 2.1189425
-13.197021 -21.835745 2.0875068
-11.119097 -21.822348 2.003875
-10.466865 -21.828876 1.980701
-9.2447901 -21.936182 1.9476544
-8.0805807 -22.096283 1.9249743
-6.3190866 -24.333506 2.0569611
-6.1847067 -26.420855 2.2201416
4.210547 -7.8195148 0.72663391
4.5514793 -7.9849491 0.75199509
4.6872411 -7.7805495 0.74318314
16.113873 -21.700396 2.2114618
16.902935 -21.651438 2.24739
18.669546 -21.671848 2.3403749
19.60059 -21.672455 2.3908279
20.573277 -21.673088 2.4449582
21.111879 -8.3612223 1.8578717
21.608423 -7.3732519 1.8680547
21.527338 20.3382 2.4230752
20.451323 20.277615 2.3563595
19.491186 21.286274 2.3614304
5.3487158 6.4393201 0.68489987
4.8444433 6.4407029 0.65939194
4.6058836 6.4413571 0.64788967
3.6918945 6.3851657 0.60346723
3.3182957 6.4369626 0.59252071
3.124331 6.4374976 0.5854587
2.9348242 6.4380188 0.57889509
2.5677783 6.4390292 0.56717408
2.3895605 6.4395213 0.56197339
1.8726318 6.4409485 0.54880613
1.7053515 6.441411 0.5451802
1.5401562 6.4418674 0.54191434
1.2151757 6.4427686 0.53642803
0.89596677 6.4436536 0.53227949
0.738042 6.4440904 0.53068864
0.5809375 6.4445262 0.5294165
0.26856443 6.4453955 0.52780652
0.1128955 6.4458289 0.52746564
-0.97086424 6.3638086 0.52669847
-1.1286914 6.3642502 0.5288353
-1.2878954 6.364696 0.53130096
-1.4489453 6.3663917 0.53420514
-1.6324804 6.4494576 0.54432267
-1.7992578 6.4499254 0.54786801
-1.9683056 6.450398 0.55178237
-2.314292 6.4513707 0.56077343
-2.4917481 6.4518685 0.56587857
-2.6725829 6.4523778 0.57141417
-3.0456102 6.4534249 0.58385283
-3.4362011 6.4545264 0.59826994
-3.6390429 6.4550977 0.60628688
-4.0621433 6.4562912 0.62409896
-4.511919 6.457561 0.64453447
-4.7483201 6.458231 0.65584809
-4.9932957 6.4589243 0.66796154
-5.2476759 6.4596434 0.68093657
-5.5122948 6.4603915 0.69483674
-5.7880664 6.4611731 0.70973754
-6.3100533 6.3943505 0.73501492
-6.6068945 6.3796983 0.75144178
-13.659385 -7.2303762 1.2644988
-13.277123 -7.443532 1.245379
-12.735014 -7.5491247 1.2112671
-12.93645 -8.0965853 1.2486502
-11.875478 -8.2556391 1.1833484
-18.306797 -21.82815 2.3308947
-16.584389 -21.83272 2.2432375
-15.768901 -21.83334 2.2035608
-14.981235 -21.833942 2.1664968
-14.219189 -21.834526 2.1318831
-11.381104 -21.822826 2.0137327
-10.090019 -21.858889 1.9697912
-9.4801855 -21.912128 1.9534085
-7.2330127 -22.440033 1.9290231
-6.2455711 -25.585806 2.15485
4.0182762 -7.6348953 0.70590985
4.343574 -7.7909436 0.72981369
4.6253614 -7.8451219 0.74512982
4.9374461 -7.5199518 0.73603684
15.851635 -21.775381 2.203692
16.584076 -21.663221 2.2321944
17.43807 -21.674561 2.2760644
18.329847 -21.689917 2.3234971
20.18606 -21.672836 2.4232411
12.556499 -7.7933898 1.2090681
21.172514 -6.8798795 1.8214563
19.484282 20.877913 2.3365142
19.502153 21.935032 2.401444
4.6986036 6.441102 0.65231442
4.4649901 6.4417429 0.64127988
-28.386732 -8.561471 1.7548169
-13.494496 -7.1279626 0.90324277
-12.173999 -8.0192633 0.86279035
-11.744863 -8.1495943 0.84607178
-20.200609 -21.813862 1.7596033
-19.255396 -21.826763 1.722658
-18.338974 -21.827698 1.6873038
-16.614355 -21.832428 1.6237537
-15.009194 -21.833666 1.5681063
-4.2894044 -7.7460022 0.52404511
-10.744878 -21.826229 1.4398313
-9.5022316 -21.910421 1.4134655
-6.7716208 -22.81229 1.4083716
-6.41083 -23.676601 1.451755
-6.2550144 -25.527441 1.5555331
-6.1544776 -28.026108 1.6982471
4.0154395 -7.6457543 0.51112348
4.8833251 -7.4517283 0.52729446
18.297358 -21.689909 1.6794555
21.470913 -7.5753613 1.3475262
22.670795 -7.388639 1.4112316
9.2286472 6.3390951 0.66263825
8.4567232 6.4306202 0.62877977
8.0475435 6.4317417 0.60972011
6.6265674 6.4356408 0.54671234
6.315166 6.4364977 0.53368211
6.0181103 6.4373116 0.52155548
5.4619284 6.4388413 0.4997232
4.949326 6.4402514 0.48072174
4.7070899 6.440918 0.47215331
4.1866212 6.3506284 0.45018631
3.7655566 6.3597178 0.43742934
3.4028904 6.4365845 0.43090943
2.8284276 6.438169 0.4161914
2.6452098 6.4386754 0.41197738
2.2891846 6.4396591 0.40449554
2.1157763 6.4401402 0.40120086
1.9450684 6.4406128 0.39818984
1.2843213 6.4424438 0.38879713
1.1235058 6.4428906 0.38707519
0.96402341 6.4433322 0.38559219
0.80566895 6.4437733 0.38434279
0.33541992 6.4450793 0.38196686
0.17964843 6.4455128 0.38162398
0.024082031 6.4459457 0.38150421
-0.28721678 6.4468126 0.3819316
-0.91559082 6.4485655 0.38548416
-1.0608008 6.3639317 0.38184464
-1.379458 6.3648214 0.38544554
-1.5415331 6.3665185 0.38768798
-2.2390673 6.4510202 0.40414611
-2.4151709 6.4515147 0.40770981
-2.5945117 6.4520178 0.41157898
-2.7774022 6.452529 0.41576689
-2.9641602 6.453054 0.42028701
-3.7572801 6.4552817 0.44205856
-3.9691894 6.4558764 0.44852903
-4.6457715 6.4577808 0.47083005
-4.8869872 6.4584594 0.4793399
-5.3972998 6.4598975 0.49821228
-6.180161 6.3938036 0.52629715
-6.4709034 6.3791294 0.53778762
-6.7920704 6.3800354 0.55152631
-7.2415771 6.4805918 0.5751555
-7.6042428 6.481616 0.59136242
-7.9881396 6.4826999 0.60887468
-8.8297701 6.4850793 0.64839476
-10.325581 6.4893079 0.72178572
-10.903555 6.490942 0.75101852
-13.358896 -7.3086729 0.90123719
-13.098725 -7.5825863 0.89577144
-12.676948 -7.7526865 0.8794688
-11.911264 -8.0989075 0.85248899
-16.940865 -21.829126 1.6353518
-13.069521 -21.836428 1.5061902
-11.672573 -21.827572 1.4649819
-10.356045 -21.838163 1.4304544
-9.7396383 -21.887251 1.4178537
-9.1386232 -21.947578 1.4070727
-7.9835448 -22.125357 1.392128
-6.5464697 -23.299929 1.4324005
-6.3004932 -24.698124 1.5085706
-6.1786375 -26.915976 1.6344509
4.4447608 -8.170105 0.55047315
4.5118942 -7.8369522 0.53520674
4.8230371 -7.5140977 0.52844971
15.566518 -21.855722 1.5880862
16.240757 -21.675884 1.6030344
17.057934 -21.65727 1.6316274
17.946625 -21.687895 1.6660845
21.961117 -9.2053785 1.4093374
20.941509 -8.1897469 1.3308307
9.4262152 6.3441696 0.67247909
8.9460402 6.339869 0.64894319
8.6245356 6.4301596 0.63669735
7.4388328 6.4334116 0.58207744
7.0868993 6.4343786 0.56652451
6.7530909 6.4352927 0.55209535
5.5674658 6.4385509 0.50377315
5.3020358 6.439281 0.49367476
4.5641017 6.4413123 0.46722868
4.2733397 6.3503895 0.45302185
4.0546188 6.3509922 0.44595304
3.847285 6.3594933 0.43990171
3.6843309 6.4358082 0.43890274
3.4812157 6.436367 0.43308455
2.0118065 6.4404283 0.39934021
1.5108838 6.4418149 0.39160386
1.1864892 6.4427147 0.38772324
0.86773926 6.4436011 0.38480514
0.70996094 6.4440393 0.38369581
0.24079101 6.4453416 0.38173246
-0.070371091 6.4462085 0.38154069
-0.38195312 6.4470773 0.3822383
-0.69541991 6.4479513 0.38383314
-0.85331053 6.448391 0.38497329
-0.99889159 6.3637571 0.38124937
-1.4777637 6.3663402 0.38680634
-1.6620214 6.4494052 0.39417738
-1.8291748 6.449873 0.39678907
-2.1707323 6.4508286 0.40282789
-2.3456397 6.4513192 0.40627456
-2.5236766 6.4518185 0.41002211
-2.705127 6.4523263 0.4140828
-2.890332 6.4528465 0.41847122
-3.0796044 6.4533777 0.42320266
-3.8852196 6.4556408 0.44593382
-4.1009812 6.4562473 0.4526805
-4.3234863 6.4568725 0.45990616
-4.55334 6.4575195 0.46764374
-4.7912207 6.4581895 0.47592771
-5.0378075 6.4588842 0.48479736
-5.2939258 6.4596057 0.49429807
-5.5604491 6.4603562 0.50447768
-6.1286669 6.4619579 0.52710158
-7.1044922 6.4802051 0.56911939
-7.4593992 6.4812069 0.58485001
-7.8346777 6.4822669 0.60183239
-8.2326508 6.4833922 0.62020308
-10.671055 6.4902854 0.7392056
-11.278081 6.492002 0.77017945
-11.783765 6.4096408 0.79391795
-12.456689 -7.4567122 0.85924649
-12.523657 -7.9133983 0.87678343
-12.080454 -8.0476112 0.85910338
-19.992085 -21.814089 1.7512149
-19.055567 -21.826967 1.7148626
-18.147217 -21.827894 1.6800332
-16.436708 -21.832565 1.6174121
-15.626343 -21.833187 1.5890603
-13.35187 -21.83589 1.5148102
-4.2560449 -7.7805333 0.52488339
-10.605552 -21.827612 1.4362848
-8.7799215 -21.988586 1.4013019
-7.1475635 -22.506088 1.3975756
-6.6929541 -22.982668 1.4167336
-6.2188478 -25.96044 1.5799469
-6.1404734 -28.669899 1.7353137
4.4043603 -7.8206396 0.53121793
4.916152 -7.4177823 0.52668595
15.352885 -21.99395 1.5874701
15.969663 -21.740437 1.596542
16.728285 -21.657864 1.6196524
18.474819 -21.6717 1.6854522
19.397505 -21.672298 1.7214078
20.360844 -21.672926 1.7599697
12.633667 -7.7662058 0.87770092
21.087006 -8.4779339 1.3451229
21.077387 -7.8888221 1.3319775
21.641762 -7.5098777 1.3557937
9.1274853 6.3393712 0.657722
8.7966547 6.4296875 0.64487779
7.9629831 6.4319739 0.60582763
5.6747413 6.4382567 0.50793517
5.405005 6.4389977 0.49755704
4.8966208 6.4403968 0.47883329
4.6562352 6.4410596 0.47039047
4.4240575 6.4416981 0.46250671
4.1397071 6.3507566 0.44867232
3.5603466 6.4361486 0.43532181
3.1654882 6.4372396 0.42455962
2.7888036 6.4382801 0.41526046
2.0789452 6.4402413 0.40053162
1.9087793 6.4407129 0.39758042
1.5754004 6.4416356 0.39248365
1.4116943 6.442091 0.39031997
1.2496923 6.4425387 0.38840774
0.77181637 6.4438658 0.38410506
0.61457032 6.444303 0.3831349
0.30198729 6.4451718 0.38187468
-0.47686523 6.447341 0.38262647
-0.79117674 6.4482174 0.38449812
-1.253579 6.3644691 0.38391617
-1.4142871 6.3661633 0.38596511
-1.5969336 6.4492235 0.39322403
-1.7632519 6.4496899 0.39573118
-1.9318017 6.450161 0.39850524
-2.1028125 6.4506397 0.40155303
-2.4533594 6.451622 0.40851456
-2.6334229 6.4521265 0.41244948
-3.0047607 6.4531674 0.42130247
-3.1966796 6.4537072 0.42625013
-3.393291 6.4542589 0.43156922
-3.594995 6.4548254 0.43728209
-4.0154638 6.4560056 0.44997528
-4.6967869 6.4579248 0.47260633
-5.1921339 6.4593177 0.49048766
-5.4544678 6.4600573 0.50039536
-6.2446876 6.3939853 0.52896333
-6.5384421 6.3793201 0.54064941
-7.3176951 6.4808078 0.57852876
-7.6847215 6.481843 0.59500504
-8.0735054 6.4829431 0.61281341
-8.9266109 6.4853525 0.65303266
-9.9020014 6.4881091 0.70064723
-10.445732 6.4896469 0.72782665
-11.567656 6.434895 0.7834329
-28.609955 -8.4947557 1.7663416
-13.050957 -7.645412 0.89519894
-12.829287 -7.9373808 0.89287257
-12.252338 -7.9955316 0.86589903
-11.820044 -8.1266899 0.8489601
-20.375341 -21.813671 1.7666388
-18.499537 -21.827534 1.6934267
-17.613207 -21.828438 1.6600366
-16.760702 -21.829311 1.6288693
-15.941181 -21.832949 1.5999658
-15.147832 -21.833559 1.5727643
-14.380483 -21.83415 1.547351
-13.637509 -21.835348 1.5236682
-11.526425 -21.825224 1.4607992
-9.6095457 -21.899458 1.4154114
-8.425293 -22.032467 1.3960822
-7.3372703 -22.36639 1.3931631
-6.8518357 -22.723846 1.4047189
-6.4650583 -23.476234 1.4411612
-6.2808738 -25.164228 1.5350332
-6.165669 -27.511791 1.6686718
3.9588573 -7.6174212 0.50808746
4.5456495 -7.8018885 0.53441221
4.8560009 -7.4799957 0.52781159
17.247358 -21.666071 1.6389966
18.137505 -21.688992 1.6733569
19.030474 -21.67206 1.706989
19.977474 -21.672678 1.7445053
20.848198 -8.6122971 1.3350345
21.06521 -8.1126528 1.3360062
22.601381 -7.4737158 1.4088998
8.9359426 6.402462 0.65061092
8.5323486 6.4304113 0.63234144
8.1186571 6.4315467 0.61300766
7.7292724 6.4326134 0.5951553
7.0138426 6.4345789 0.56333935
6.369575 6.4363461 0.53593522
5.509614 6.4387097 0.50154662
5.246489 6.4394345 0.49159819
4.9934325 6.4401302 0.48231077
4.7496238 6.4408007 0.47363707
4.2258396 6.3505211 0.45146254
4.0085788 6.3511181 0.44450027
3.8025389 6.3596168 0.43854445
3.6403027 6.4359288 0.43762007
3.2414892 6.4370289 0.42655212
2.8614795 6.4380774 0.41697782
2.3203905 6.4395728 0.40511215
2.1464794 6.4400558 0.40176651
1.9753076 6.4405284 0.39870664
1.8066211 6.4409962 0.3959201
1.4757665 6.4419127 0.39113966
1.3131299 6.4423642 0.38912994
0.99235839 6.4432545 0.38583893
0.363208 6.4450021 0.38205153
0.20740233 6.445437 0.38166898
0.05180664 6.445869 0.38150939
-0.10375488 6.446301 0.38157165
-1.0326855 6.3638511 0.38157088
-1.3508105 6.3647408 0.38508573
-1.5125732 6.3664379 0.38728514
-1.865332 6.4499741 0.39738327
-2.3835595 6.4514256 0.40705276
-2.7445362 6.4524374 0.41499603
-3.120786 6.4534936 0.42426407
-3.3154979 6.4540405 0.42943481
-4.3721433 6.4570117 0.46152219
-4.6036668 6.4576612 0.46937391
-4.8433542 6.4583359 0.47778013
-6.4153271 6.3789735 0.53544372
-7.5381103 6.4814291 0.58838224
-7.9180417 6.4825025 0.60565019
-8.3212252 6.4836411 0.62433881
-9.2084665 6.4861498 0.66662687
-10.797099 6.4906406 0.74560058
-11.415 6.4923902 0.77722424
-13.398613 -7.2557163 0.90180296
-12.427031 -7.9426389 0.87288648
-11.987724 -8.0757189 0.85546845
-18.857544 -21.827168 1.7071862
-17.957144 -21.828089 1.6728787
-17.091679 -21.828972 1.6408349
-16.260429 -21.832703 1.6111701
-15.456201 -21.833323 1.5832257
-14.678852 -21.83392 1.5571258
-13.197275 -21.836185 1.5100735
-12.48751 -21.835205 1.4887244
-11.119175 -21.822517 1.449558
-10.467075 -21.829321 1.4328107
-9.8486767 -21.878569 1.4200262
-8.0810108 -22.09745 1.3925439
-7.5346823 -22.253874 1.3905386
-6.6133299 -23.155121 1.4252335
4.4837742 -7.8661723 0.53588057
4.6406641 -7.7032342 0.53225553
4.7956052 -7.5425119 0.52899396
15.467573 -21.91564 1.5875796
16.11315 -21.699406 1.5996344
18.669537 -21.671825 1.6929562
19.600561 -21.672432 1.7294534
20.573256 -21.673063 1.7686124
20.839487 -8.2533455 1.3265905
21.397055 -7.8824039 1.3495806
21.354633 -7.2866559 1.3354248
9.0277681 6.3396444 0.65289229
8.2781 6.4311094 0.62041444
7.8794675 6.4322033 0.60199875
6.8113427 6.4351339 0.55458951
5.6159177 6.4384189 0.50564879
5.3485742 6.4391527 0.49542388
5.0916648 6.4398594 0.48588181
4.0930958 6.3508859 0.44717711
3.6906152 6.3829417 0.43637434
3.1242676 6.4373522 0.42349502
2.9347606 6.4378757 0.4187471
2.7493701 6.4383883 0.41434416
2.5677245 6.4388905 0.4102684
2.2144432 6.439868 0.40304703
1.8725927 6.4408131 0.39698303
1.7053174 6.441278 0.39435974
1.5401171 6.4417343 0.39199781
1.3768066 6.4421873 0.38988984
1.0549316 6.4430809 0.38640898
0.58093262 6.444397 0.38295624
0.42450196 6.4448314 0.38226271
0.26855958 6.4452658 0.38179228
0.1128955 6.4456983 0.38154539
-0.19826171 6.4465647 0.3817189
-0.82509762 6.4483118 0.3847537
-1.1286621 6.3641195 0.38253662
-1.448916 6.3662596 0.38642105
-1.6324463 6.4493237 0.39373854
-1.7992187 6.44979 0.39630356
-1.9682666 6.4502621 0.39913559
-2.1398582 6.4507422 0.40224379
-2.3142481 6.4512329 0.40563887
-3.238452 6.4538231 0.42735916
-3.4361229 6.4543786 0.43276244
-4.0620456 6.4561377 0.45144409
-4.2832956 6.4567599 0.45858139
-4.5118113 6.4574032 0.46622726
-4.7482028 6.4580688 0.47440946
-5.247539 6.459475 0.49255645
-5.78791 6.4609971 0.51338989
-6.0759568 6.4618092 0.5249536
-7.0432272 6.4800329 0.56643903
-7.7661963 6.4820738 0.59870636
-9.5024118 6.4869809 0.68095183
-10.015224 6.48843 0.7062732
-10.567915 6.4899936 0.73398954
-11.663374 6.4093003 0.78765488
-28.34166 -8.5749445 1.7524954
-13.486372 -7.1387858 0.90311855
-12.604619 -7.888905 0.88006908
-11.729619 -8.1542377 0.84548569
-20.165186 -21.8139 1.7581906
-18.30645 -21.827728 1.6860687
-17.427603 -21.828627 1.653168
-15.768705 -21.83308 1.5939742
-14.981054 -21.833687 1.5671659
-14.219023 -21.834274 1.5421377
-4.2822461 -7.7491055 0.52399993
-11.381152 -21.822887 1.4566803
-10.721289 -21.826462 1.4392285
-9.4804049 -21.912651 1.4130707
-8.8845119 -21.975643 1.4028982
-8.3006048 -22.047895 1.3943149
-7.7491207 -22.192478 1.3912311
-7.2338281 -22.44256 1.3955579
-6.4034958 -23.731798 1.4547964
-6.2489796 -25.599745 1.5596036
-6.1521482 -28.133158 1.7044082
4.0270457 -7.6515656 0.51174831
4.341743 -7.7876573 0.5277037
4.579277 -7.7669616 0.53363556
4.7349558 -7.6054001 0.5302316
4.8888769 -7.4459867 0.52719098
18.330004 -21.690094 1.6807592
19.230141 -21.672192 1.7148123
20.186049 -21.672812 1.7528998
21.27643 -7.4858575 1.3349105
22.68479 -7.3712835 1.4117013
9.2114305 6.3391418 0.6618008
8.0331984 6.4317808 0.60905838
7.2855124 6.4338326 0.57526046
6.941577 6.4347754 0.56020308
6.3041844 6.4365268 0.53322798
6.0076022 6.4373422 0.52113187
5.1913719 6.4395862 0.48955122
4.940371 6.4402771 0.48039946
4.6984816 6.4409409 0.47185394
4.1786718 6.3506503 0.44993088
-12.888442 -7.6248345 0.54826158
-12.73309 -7.9537945 0.54966033
-12.02352 -7.9201422 0.52712709
-19.25503 -21.826338 1.0656195
-18.338633 -21.82728 1.0437512
-17.458565 -21.828188 1.0233486
-16.614161 -21.832165 1.0044478
-15.797603 -21.832798 0.98664778
-14.246103 -21.834003 0.95451981
-13.507734 -21.836037 0.94005996
-12.789946 -21.836332 0.92651165
-4.2894139 -7.7460198 0.32417464
-11.405679 -21.823341 0.90153271
-10.112842 -21.857988 0.88176799
-9.5024462 -21.910946 0.87439358
