# .PCD v0.7 - Point Cloud Data file format
VERSION 0.7
FIELDS x y z
SIZE 4 4 4
TYPE F F F
COUNT 1 1 1
WIDTH 1562
HEIGHT 1
VIEWPOINT 0 0 0 1 0 0 0
POINTS 1562
DATA ascii
-0.4314453 4.1018558 -1.9232775
-0.62827146 4.0731535 -1.9218055
-0.82336915 4.0350418 -1.9203442
-1.0162598 3.9876251 -1.9188974
-1.3005078 3.8993559 -1.9167607
-1.3936719 3.8654339 -1.9160593
-1.4859668 3.8292973 -1.9153637
-1.5773437 3.790977 -1.9146746
-1.7570996 3.7078581 -1.9133171
-1.8453808 3.6631145 -1.9126495
-2.0185351 3.5674005 -1.9113382
-2.103291 3.5164936 -1.9106954
-2.3497558 3.3519068 -1.9088223
-2.5070996 3.2326403 -1.9076231
-2.5835643 3.1702557 -1.9070394
-2.7318358 3.0401471 -1.9059054
-2.8736424 2.9031956 -1.9048178
-3.0735643 2.6856298 -1.9032791
-3.1979101 2.5329809 -1.9023178
-3.2572949 2.4545116 -1.9018573
-3.3147557 2.3746703 -1.9014111
-3.3703222 2.293499 -1.9009783
-3.3974218 -2.2482276 -1.8997195
-3.1677442 -2.5673146 -1.9013551
-3.1056249 -2.6436071 -1.9017997
-3.0416601 -2.7184055 -1.9022585
-2.9759667 -2.7916727 -1.9027307
-2.6960058 -3.0686705 -1.9047503
-2.6219237 -3.1337008 -1.9052866
-1.9770606 -3.5872238 -1.9099816
-1.7141992 -3.7245452 -1.9119064
-1.4419237 -3.8427632 -1.9139059
-1.3492773 -3.877809 -1.9145874
-1.2558007 -3.9106319 -1.9152757
-1.1615235 -3.9412162 -1.9159704
-0.87446284 -4.0193295 -1.9180893
-0.68007809 -4.0598679 -1.9195269
-0.5821777 -4.0766292 -1.9202517
-0.18698242 -4.120039 -1.9231836
-0.087587886 -4.1249332 -1.9239224
0.011962891 -4.1274357 -1.9246631
0.11158203 -4.1275358 -1.9254044
0.903916 -4.041894 -1.9313229
1.5744824 -3.8424721 -1.9363613
1.667334 -3.8047473 -1.9370611
1.759248 -3.7647748 -1.9377548
2.0290136 -3.6315231 -1.9397941
2.1167481 -3.5827444 -1.9404585
2.2033007 -3.531832 -1.9411148
2.2886035 -3.4788203 -1.9417622
2.3726172 -3.4237359 -1.9424005
2.6164942 -3.2462964 -1.9442571
2.6948829 -3.1832211 -1.9448555
2.7716992 -3.118237 -1.9454424
2.8469532 -3.051369 -1.9460183
3.5026073 -2.2887743 -1.9510766
3.5575781 -2.2040956 -1.9515057
3.6115038 2.1205766 -1.9529138
3.5585938 2.2066607 -1.9525398
3.4466503 2.3747394 -1.9517455
3.3876269 2.4566627 -1.9513253
2.6956835 3.1867192 -1.9463441
2.5373535 3.3110631 -1.9451944
2.4559863 3.3702819 -1.9446024
2.3732421 3.4274766 -1.9439999
2.2891502 3.4826305 -1.9433864
2.2037694 3.535706 -1.9427633
2.1171679 3.5866644 -1.9421304
1.9404297 3.682143 -1.9408369
1.7593652 3.7688725 -1.9395093
1.4806542 3.8821208 -1.9374608
1.3861035 3.9152985 -1.9367648
1.1947753 3.974694 -1.9353541
1.0981348 4.0008817 -1.9346408
0.80504882 4.0652604 -1.9324739
1.8760449 -7.5800643 2.0923541
2.1586328 -7.210691 2.0168185
7.063652 -21.677507 6.1090608
8.8466892 -21.683359 6.2749963
9.4639549 -21.685373 6.3398275
10.096279 -21.691332 6.4109306
12.078125 -21.694145 6.6531196
12.773808 -21.695122 6.7459874
16.435516 -8.6353207 4.9747324
17.670263 -7.7092185 5.1657224
17.779072 -6.7558084 5.0962272
21.068417 7.9456644 6.0333872
19.328251 7.827023 5.5875154
19.190596 8.3156061 5.6040964
17.817812 8.7645712 5.3206091
18.298321 9.5559244 5.5313468
17.932598 9.9226961 5.4915705
17.075947 9.9941883 5.3015485
17.438486 11.369804 5.578064
16.677704 11.456467 5.4215608
15.104062 11.485829 5.0843787
13.852148 11.071245 4.7515039
14.869473 13.759807 5.4284253
14.119169 13.712402 5.2737699
14.11374 15.096667 5.53759
13.718691 15.402698 5.5268059
13.72537 16.179762 5.6851349
13.731689 18.788677 6.2356415
12.654286 18.221483 5.9443235
6.091074 24.350021 6.7256064
5.4538279 24.275995 6.6668677
4.21457 24.155416 6.5702
3.6094141 24.108223 6.531774
1.834414 24.016109 6.4538412
1.2518066 24.001352 6.4398832
0.67161131 23.994398 6.4317985
0.092548825 23.995192 6.4295382
-17.168207 -7.3330479 5.002265
-17.198223 -7.841702 5.0646706
-16.047533 -8.274147 4.8378339
-16.031553 -8.7617826 4.8953328
-8.0867281 -7.7721105 3.0053444
-6.5608301 -23.300938 6.4862375
-4.4406543 -21.674175 5.9282174
-2.8288183 -21.686731 5.8601665
-0.26250976 -7.9024792 2.1186321
-0.072861329 -8.0247974 2.1503277
0.12112305 -8.0489531 2.1569552
0.31616211 -8.0669422 2.1631906
0.87624019 -7.8224607 2.1091311
1.0406543 -7.6229763 2.0615158
1.1981055 -7.4335117 2.0175092
1.498623 -8.0557518 2.1955657
1.7152051 -8.1247053 2.2249913
1.9582909 -7.4724131 2.0698433
7.3936324 -21.678593 6.1373057
8.5833693 -21.682499 6.2484727
9.1952534 -21.684496 6.311152
9.819912 -21.686531 6.3788571
11.113222 -21.692778 6.5309339
12.470351 -21.694695 6.7050004
13.340634 -21.964729 6.8859119
17.727871 -9.0069609 5.3281007
16.879326 -8.0696192 5.0130877
17.940556 -7.5366373 5.2141056
18.35957 -7.1966748 5.2838769
19.386572 7.6159868 5.5810819
18.965752 8.5283041 5.572001
18.51668 8.8694134 5.5013409
16.924004 9.6694221 5.2227378
17.241787 12.194543 5.6586485
14.265986 11.725469 4.9480329
13.709639 13.684153 5.1902704
14.285302 14.963855 5.5432882
13.913135 16.058168 5.6931491
13.352822 16.184435 5.6220427
12.969345 19.231592 6.2153697
7.7035351 24.571527 6.899909
6.3711228 24.385038 6.7532849
5.7280564 24.306864 6.6914048
5.097959 24.238152 6.636693
4.4792576 24.178503 6.5888453
3.8703027 24.127604 6.5476174
3.2696483 24.08519 6.5128021
2.0876172 24.024937 6.4617181
-1.3973535 24.032837 6.4504566
-16.494497 -6.3806415 4.7388449
-17.069859 -7.0812092 4.9517922
-17.211367 -7.6316319 5.0448008
-15.371103 -9.1718636 4.7961664
-6.0224805 -22.568256 6.2587571
-3.59041 -21.659121 5.8827395
-3.0590625 -21.683842 5.8676977
-0.89075196 -7.6426711 2.0617082
-0.6533789 -7.0896192 1.9077069
-0.50161129 -7.3899941 1.9846996
0.037031248 -8.0413084 2.1546841
0.35743162 -6.7560782 1.8128189
0.97041011 -7.708087 2.0816786
1.1307422 -7.5141306 2.0360744
1.6271484 -8.1265841 2.2207315
1.8310839 -8.1220722 2.2309225
1.8957031 -7.5543394 2.0869396
6.5688477 -21.686335 6.0715561
7.1415625 -21.677763 6.1156254
7.7267575 -21.679689 6.1669731
8.322217 -21.681644 6.2228384
9.5479193 -21.685646 6.3489237
11.490898 -21.693312 6.5778217
12.866572 -21.691576 6.7578177
16.649317 -8.6788979 5.0309019
16.76956 -8.2333536 5.0057468
18.006727 -8.3078251 5.3136582
17.668085 -7.6401715 5.1578226
17.916473 -7.2397027 5.177824
21.019501 8.0051823 6.0267825
18.883564 8.2553778 5.5222273
16.774902 9.3532753 5.1463108
17.12372 10.096829 5.3265147
13.947158 11.221448 4.7965426
19.726397 17.503918 7.0665359
14.021123 13.705795 5.2537236
13.311074 13.654985 5.1096363
14.060547 15.137856 5.5359478
13.636309 16.180864 5.6699567
14.208291 18.612167 6.2741799
13.58041 18.70875 6.1944647
12.559297 19.184704 6.1440959
6.653955 24.421909 6.7823687
4.7457418 24.203224 6.6087265
4.1327538 24.148577 6.5646634
3.5286913 24.102531 6.5270996
2.9320996 24.064816 6.495832
2.3416212 24.035254 6.4707193
1.7559179 24.01368 6.4516263
1.1737207 23.99996 6.4384532
0.59373045 23.994047 6.4311504
-1.7287304 24.04813 6.4603014
-16.803705 -6.766026 4.8538303
-15.550317 -9.0599794 4.8223066
-6.4199023 -23.087063 6.4208755
-5.5888085 -22.15583 6.1225977
-4.9427052 -21.799072 5.9893084
-4.3669138 -21.671452 5.9235673
-2.7573633 -21.687145 5.85783
-0.77785152 -7.5741892 2.0401704
-0.56876951 -7.257019 1.9504741
-0.40995115 -7.5719037 2.0318558
-0.23733398 -7.9186668 2.1227527
-0.046894532 -8.0337238 2.1526663
0.14726563 -8.0513439 2.1577115
0.53699219 -8.0580931 2.1639485
0.7417773 -8.158967 2.1952057
1.5394628 -8.128602 2.2167702
1.7426171 -8.1241379 2.2263722
1.8320507 -7.6376886 2.1045642
1.9775293 -7.4472451 2.0646367
7.4722753 -21.678854 6.1442041
8.0631838 -21.680796 6.1980958
9.2784376 -21.684767 6.3199577
9.9068165 -21.691061 6.389606
11.87416 -21.693857 6.6266403
16.70997 -9.458849 5.1449976
17.934492 -7.4657621 5.2052841
18.104004 -7.0288591 5.2037401
19.368544 7.6815152 5.5830326
19.23209 8.1696692 5.5989008
16.725615 8.5819063 5.037128
17.895674 9.7346354 5.4586606
16.970869 9.7693424 5.2469544
16.722353 10.171084 5.2444706
13.64748 10.747582 4.6546388
14.224316 11.768747 4.9468007
13.728877 11.928227 4.8731732
15.100752 13.77333 5.4765124
13.614238 13.677331 5.1709075
13.836406 15.311484 5.5296788
13.858691 16.100536 5.692205
12.632031 16.193926 5.5031509
14.028037 18.906967 6.3082495
12.871308 19.220407 6.1982288
13.029219 20.509687 6.510716
6.2838769 24.373962 6.7445354
5.6426368 24.297094 6.6836452
4.3968654 24.171164 6.5829263
3.1894825 24.080126 6.5086026
2.0089061 24.02203 6.459147
0.8445605 23.995653 6.4335947
0.26527342 23.99415 6.4296069
-1.4757812 24.036228 6.4526129
-16.521919 -6.4529114 4.7527094
-17.058569 -7.1414523 4.9552145
-16.521587 -7.8736362 4.9039602
-15.58188 -7.8925762 4.6802015
-15.106831 -8.1156988 4.5950027
-14.729887 -8.3772449 4.5405164
-5.9139256 -22.453451 6.2215676
-4.0569921 -21.660004 5.9047093
-3.5188086 -21.662451 5.8805151
-2.9875977 -21.685812 5.8655801
-0.86720699 -7.6565409 2.0646818
-0.4802832 -7.4322996 1.9956319
-0.31802735 -7.8668242 2.1096311
-0.13003907 -7.9878321 2.1406167
0.4019531 -7.1575284 1.9208752
0.82571286 -7.8839712 2.1240563
1.440498 -8.0658264 2.1954274
1.654453 -8.1259918 2.222023
1.7985058 -7.8586993 2.1601729
1.9152441 -7.5287485 2.0815744
6.6457224 -21.686432 6.0775876
7.8061814 -21.679953 6.1742163
12.263223 -21.694405 6.6774492
14.608408 -21.966461 7.0686316
9.2212887 -8.0639143 3.2823398
18.090508 -8.8092108 5.391499
18.001972 -8.2349358 5.304348
17.666094 -7.571414 5.1500449
17.911015 -7.1700253 5.1695037
17.312012 -6.4501791 4.9502516
20.970673 8.0645475 6.0202551
18.908926 8.3395977 5.5375199
16.796757 8.3980227 5.0318689
17.842695 9.4657307 5.4120536
16.986776 10.090453 5.2940698
15.352012 9.6278381 4.8555708
16.706503 11.63644 5.4553404
14.044024 11.374609 4.8425193
19.672276 17.570232 7.0675178
14.66416 13.747375 5.3858972
14.007392 15.17903 5.5343661
14.165811 18.68181 6.282136
12.463467 19.173708 6.1275992
7.9083786 24.603003 6.9245567
7.228457 24.501362 6.8448706
6.5658102 24.410257 6.7731838
4.051074 24.141899 6.5592437
2.2626562 24.031887 6.4678016
1.6775 24.011372 6.4495068
0.51587892 23.993849 6.4306173
-0.063037105 23.996742 6.4299321
-0.64242184 24.007378 6.4350619
-1.2234668 24.025814 6.4460392
-1.8074218 24.052134 6.4629216
-16.996786 -6.9079099 4.9160452
-16.431334 -7.6211252 4.8532825
-15.915961 -7.8540568 4.7556639
-15.957338 -8.3590841 4.8268862
-6.2817478 -22.877426 6.3568769
-5.4967871 -22.092896 6.100246
-4.2932911 -21.668732 5.9189878
-3.7495215 -21.651716 5.8879089
-2.6860743 -21.687557 5.8555655
-0.75454098 -7.588913 2.043469
-0.020859374 -8.0360746 2.153266
0.17342773 -8.0537415 2.1584942
0.36878905 -8.0718575 2.1651032
0.75111324 -7.9749393 2.1463344
1.0836231 -7.571032 2.0493252
1.2393457 -7.3842525 2.0062802
1.5666504 -8.1279316 2.2179596
1.7700683 -8.1235781 2.2277787
1.8519336 -7.6116509 2.099035
1.9966699 -7.4222093 2.0594797
2.1362109 -7.2399497 2.0226214
8.7466602 -21.683035 6.2648416
9.3618746 -21.68504 6.3288541
9.9918947 -21.691183 6.3991404
11.965752 -21.693983 6.6384864
12.6583 -21.69496 6.7302952
16.779522 -9.4266014 5.1569843
16.18037 -8.5832014 4.9077563
16.289677 -8.1438532 4.8798828
17.37998 -8.17097 5.1459417
17.928759 -7.3953028 5.1966352
17.917784 -6.8898234 5.1437664
19.213457 8.2353554 5.6012139
18.077324 8.8035526 5.3876605
17.018036 9.8700905 5.2713976
16.641151 10.195764 5.2293444
16.454287 10.635571 5.2497425
16.660526 11.34791 5.401341
15.893535 11.396314 5.2403088
15.191562 11.457707 5.0985227
13.738505 10.891542 4.6976948
14.156933 11.790432 4.9366145
13.519492 13.670442 5.151721
14.17875 15.046337 5.5396795
13.804277 16.142826 5.6913114
13.919199 18.887861 6.2867932
12.82374 18.310371 5.9898362
12.773877 19.209276 6.1812558
12.982597 20.58333 6.5207005
6.8506641 24.448429 6.8032575
6.1969433 24.363083 6.7359366
5.557539 24.287493 6.6760159
4.9306641 24.221245 6.623168
4.3147264 24.163979 6.577127
1.3471973 24.003237 6.4417691
0.76666993 23.995008 6.432725
0.18750976 23.994534 6.4295111
-1.5542578 24.039764 6.4548821
1.3862207 -8.0637093 1.9960189
1.5863769 -8.0585928 2.0036445
1.759873 -7.9259152 1.9806384
2.0111425 -7.3597836 1.8612652
6.4921875 -21.686413 5.5224371
7.0639939 -21.678547 5.5622201
10.096533 -21.69187 5.8369336
11.40124 -21.693735 5.9786201
15.774424 -21.697109 6.5441117
16.599628 -8.2168131 4.5184879
17.737148 -7.7384024 4.7209067
18.143145 -7.3998179 4.7800455
21.171171 7.9844193 5.5198536
18.840019 8.1636953 5.0090084
17.726894 9.2575045 4.8787117
17.951601 10.506692 5.074275
17.775097 10.987478 5.0978456
14.565605 11.641464 4.5487881
14.452939 12.134204 4.603703
14.884805 14.455983 5.0618439
14.309394 14.584208 4.9843831
13.66418 16.107618 5.152916
13.016943 16.117239 5.0540376
13.337041 17.353912 5.3393583
14.163877 19.380022 5.855885
12.74954 19.338209 5.6506324
10.464521 23.815878 6.3460574
9.0290432 23.575911 6.1587658
8.3456249 23.471766 6.0771794
6.4061522 23.215471 5.8751402
5.1866598 23.086748 5.7724552
4.0109568 22.988417 5.6928077
3.4359961 22.949995 5.6611142
2.867871 22.918442 5.6346183
1.1924609 22.863701 5.5852408
-1.5716991 22.901564 5.6000347
-13.5475 19.832487 5.8592443
-14.406987 20.035307 6.020123
-24.959858 -6.6109586 6.2989879
-16.905991 -7.2210507 4.4847226
-15.733154 -8.5986958 4.3739638
-15.611674 -9.0280933 4.3994803
-8.0867968 -7.772191 2.7362258
-8.0250196 -26.072941 6.6550326
-6.5576758 -23.289742 5.9025183
-5.6806641 -22.215986 5.5940223
-4.4406443 -21.674152 5.3972998
-3.360127 -21.670139 5.3496623
-2.8288379 -21.686874 5.3353858
-0.5838086 -7.1511025 1.7503351
-0.42796874 -7.4566345 1.8220593
0.12029297 -7.9936032 1.9502814
0.46535155 -7.3418388 1.7946554
0.71591794 -8.1680393 2.0002542
0.86075193 -7.6841364 1.8862894
1.7006934 -8.0559683 2.0085912
2.0901756 -7.2569799 1.8423288
7.3939939 -21.67964 5.5879407
7.9835448 -21.681587 5.636456
8.5837889 -21.683563 5.6891637
10.460254 -21.692392 5.8750439
11.113496 -21.693325 5.9461999
11.783154 -21.694279 6.022645
12.470674 -21.695255 6.1046824
13.175566 -21.693024 6.1917143
14.654452 -21.695356 6.3869176
15.430331 -21.696571 6.4949994
16.251524 -21.722038 6.6180911
18.160801 -21.978451 6.9552975
9.2670698 -7.9869537 2.9845128
16.589609 -9.4619093 4.6590724
17.111328 -9.2196598 4.7417254
17.756063 -7.9683814 4.7478342
18.128769 -7.6157041 4.7969499
18.127344 -7.1056461 4.749825
19.907333 7.8205681 5.2177515
19.72039 8.3016901 5.2197385
18.9471 8.5199175 5.0680017
17.986631 9.1553822 4.9236155
18.02751 10.299902 5.0650511
17.823105 10.761581 5.0791068
18.129414 11.552329 5.2443137
17.175253 12.14749 5.1320057
15.319023 11.398843 4.6581931
14.789433 11.569363 4.5807099
19.055527 16.448145 6.140893
15.058251 14.321895 5.0696826
13.878115 14.537312 4.9029946
13.866025 15.244595 5.0272226
13.952393 16.103468 5.1979136
13.293945 16.113071 5.0959811
13.344853 16.993822 5.271153
13.820644 19.463999 5.8235631
12.342382 19.289953 5.5866566
10.788759 23.873817 6.3911686
7.9669433 23.417048 6.0342202
7.3136325 23.32786 5.9640203
6.0551758 23.175737 5.8435669
4.8493066 23.055882 5.7476077
4.2622557 23.007231 5.7081776
3.6839452 22.965761 5.6741796
2.5481932 22.903547 5.6218567
0.87879878 22.859926 5.5808573
0.32686523 22.858295 5.5769105
-0.77692384 22.874254 5.5834494
-1.3310156 22.891909 5.5939722
-1.8880566 22.91609 5.6093822
-13.816679 20.686998 6.0687518
-16.964994 -7.0377159 4.4806352
-16.861557 -7.4765301 4.4996533
-16.482435 -7.7895007 4.44735
-15.916152 -8.4840918 4.3999739
-15.399878 -9.1890364 4.3748155
-4.6879783 -21.725159 5.4218979
-4.1302538 -21.662687 5.3798666
-2.5277636 -21.688618 5.3268118
-0.70977539 -7.701756 1.886825
-0.4969531 -7.3213263 1.7901663
-0.33770508 -7.7322745 1.8881073
-0.15325195 -7.8492198 1.9152029
0.036708985 -7.9703093 1.9443988
0.42440429 -8.0216789 1.9596475
0.63188475 -8.1918545 2.0043607
1.2141894 -8.0685997 1.9905188
1.3764355 -7.854207 1.9452544
2.03 -7.3352218 1.8567096
8.9293747 -21.6847 5.7209878
10.182304 -21.691994 5.8458238
11.4912 -21.693865 5.9888849
12.867148 -21.692533 6.1528869
14.326523 -21.694841 6.3423777
16.590107 -8.6480417 4.5640688
21.121904 8.0441828 5.5137796
18.449648 9.1497717 5.023932
17.960566 10.014365 5.0165896
17.378164 12.020754 5.1548448
15.553935 11.323237 4.6934156
15.016436 11.496255 4.6135893
14.496758 11.663642 4.539073
17.447285 15.481589 5.6903644
14.831074 14.497526 5.0595255
14.206074 14.57312 4.9648294
13.642666 15.417717 5.022275
13.575673 16.108912 5.1392179
13.389062 19.413509 5.7531009
8.9359369 23.561331 6.1473565
7.5942283 23.365349 5.9935555
6.3226075 23.20583 5.8674874
5.7083983 23.138596 5.8139639
4.5151954 23.027397 5.7245679
3.9332519 22.982845 5.688241
2.7919629 22.914721 5.6314487
1.672539 22.873459 5.5949388
1.1180859 22.862627 5.584065
0.014082031 22.860224 5.5768151
-1.6465331 22.904816 5.6021085
-14.554897 20.10318 6.0546618
-15.314214 -7.9590173 4.210362
-15.023686 -8.2742805 4.1841598
-15.411582 -8.9791546 4.3512745
-8.0680761 -7.8046889 2.7384396
-6.4168358 -23.076071 5.8430614
-3.2887011 -21.673462 5.3478222
-0.78684568 -7.6618094 1.8789489
-0.40605468 -7.499661 1.8322414
-0.2337207 -7.7981348 1.90323
-0.046210937 -7.9173613 1.9314935
0.14624999 -7.9959707 1.9509653
0.34011719 -8.0138283 1.9567541
0.53525388 -8.0320635 1.9637887
0.88293946 -7.6576428 1.8804791
1.7278711 -8.0553627 2.0098259
1.9689062 -7.414773 1.8715384
2.1086621 -7.2329392 1.8379519
6.8915625 -21.677975 5.5491996
9.2789059 -21.685844 5.7542486
9.9070501 -21.691597 5.8175211
10.547197 -21.692516 5.8843141
11.874473 -21.694408 6.0333338
12.564502 -21.695391 6.116148
14.757236 -21.69552 6.4010162
15.53664 -21.696737 6.5100937
16.361982 -21.722492 6.6343627
16.658779 -9.4298649 4.6698771
17.800331 -8.9713001 4.8627791
17.750147 -7.8966665 4.7393708
17.918282 -6.9567471 4.6891022
19.889004 7.8879313 5.2196269
19.712275 8.3736506 5.2247558
18.972841 8.6055355 5.0823255
17.772997 9.1193218 4.8732028
18.011494 9.797637 5.001967
17.582958 11.892922 5.1784801
17.112627 12.186633 5.1250749
14.71957 11.591865 4.570694
15.004326 14.363574 5.0671859
14.541367 14.608737 5.0284204
13.481563 14.21393 4.7791586
13.813046 15.285645 5.0259633
13.862344 16.104755 5.1837897
13.521377 17.334045 5.3630571
14.284374 19.252443 5.8482533
13.717422 19.451948 5.806613
12.247177 19.278633 5.5718427
10.68751 23.855587 6.3769798
9.2371187 23.608959 6.1846094
8.5473824 23.501795 6.1007266
7.2271481 23.316566 5.9551115
6.5925584 23.237436 5.8925552
5.3655567 23.103973 5.7862744
1.3577441 22.86652 5.5881739
0.80456054 22.859333 5.5800457
0.25272462 22.858566 5.5767465
-0.85126948 22.876255 5.5845838
-1.4056835 22.894779 5.5957603
-14.085263 19.888369 5.9453502
-15.201055 20.402002 6.2067294
-16.46557 -6.4309049 4.3123178
-16.818617 -7.5228415 4.4946818
-16.532436 -7.878809 4.467711
-15.858965 -8.5197592 4.3917766
-14.362353 -8.1682148 4.0307355
-5.9123731 -22.447556 5.6629028
-4.6095214 -21.702702 5.4125342
-0.6279785 -7.0645852 1.7302194
-0.12804687 -7.8652396 1.9190005
0.84413081 -8.0598021 1.9769641
0.97509766 -7.5477657 1.8566
1.6404785 -8.0573339 2.005935
1.7594141 -7.6878929 1.923969
1.9068261 -7.4956536 1.8868258
6.645781 -21.686609 5.5333447
7.8065429 -21.681004 5.6215477
9.0118361 -21.684971 5.7287393
9.632597 -21.687004 5.7889948
10.916894 -21.693045 5.9244208
11.581523 -21.693995 5.9992599
12.263535 -21.694963 6.0795951
13.684004 -21.693829 6.257164
16.834276 -21.724436 6.7046881
17.663534 -8.6012917 4.7928019
17.393858 -7.956749 4.6661716
18.152597 -7.2667365 4.7700229
17.195204 -6.406662 4.4765177
19.738623 8.1425638 5.2089148
18.890438 8.3314495 5.0366721
18.426504 9.2128544 5.025733
17.834764 9.4615231 4.925179
18.111776 11.358594 5.2154222
17.789755 11.76395 5.2029204
14.945596 11.519072 4.6032753
15.178144 14.229233 5.0754304
14.777392 14.539047 5.0572691
13.487666 16.110199 5.1256495
13.172597 17.371965 5.3185167
14.051924 19.490952 5.8617382
13.288213 19.401674 5.7367868
12.555478 19.315239 5.6200171
11.01542 23.915079 6.4232755
8.1654005 23.445454 6.0565324
6.8653808 23.270643 5.9188404
5.0263767 23.071821 5.7604523
2.7161717 22.911118 5.6283689
2.1549706 22.888086 5.6083035
1.5978711 22.871628 5.5931954
1.0437499 22.861654 5.5829716
0.49146482 22.858112 5.5775857
-0.060058594 22.860981 5.5770178
-1.7214648 22.908188 5.6042695
-13.624756 20.721079 6.0498161
-13.634111 19.684034 5.8413763
-14.704761 20.172153 6.0897598
-16.378422 -6.2005563 4.2723036
-16.582094 -6.7393622 4.3665805
-16.869385 -7.3351417 4.4875369
-16.63855 -7.7172399 4.4743652
-16.044033 -8.4045067 4.4184828
-15.513843 -9.1062355 4.3884516
-6.278789 -22.866642 5.7848477
-3.7495701 -21.65202 5.3606849
-3.2174315 -21.676777 5.3460417
-2.686084 -21.687702 5.3311968
-0.38389647 -7.5432143 1.8425683
0.17223632 -7.9983439 1.951668
0.56158203 -8.0345449 1.9648293
0.76792967 -8.1533909 1.9978436
0.90497071 -7.63135 1.874732
1.0650293 -7.4411426 1.8337854
1.3535352 -8.0646152 1.9949008
1.5534277 -8.0593748 2.0022957
1.9879687 -7.3899326 1.8668865
2.12708 -7.2090106 1.8336129
8.7470999 -21.684101 5.7040658
9.3623343 -21.686117 5.7623487
11.291748 -21.693579 5.9662061
11.966054 -21.69454 6.0441232
12.658623 -21.695522 6.1277165
14.102998 -21.694489 6.3124256
15.643369 -21.696903 6.5253243
16.472919 -21.722948 6.6507668
16.337637 -8.1678257 4.4559412
17.747559 -8.3437796 4.7841763
17.744267 -7.8252664 4.7310095
18.137442 -7.4813738 4.7863107
17.522978 -6.7380114 4.5799189
19.765585 7.9132047 5.1939416
18.067158 9.9039726 5.026319
17.804159 10.908322 5.09376
15.878672 11.385659 4.7665467
15.17498 11.445208 4.6368546
14.324707 11.930154 4.5477729
17.302704 15.884741 5.7300749
14.950507 14.405186 5.0647488
14.436494 14.59771 5.0084925
13.678046 14.514995 4.8654561
13.760146 15.326653 5.0247583
13.772832 16.106045 5.1698112
13.121416 16.11566 5.0697904
13.438173 17.34297 5.3523154
14.230175 19.309835 5.8516474
13.614843 19.439953 5.7898383
11.348866 23.976933 6.4713693
7.7896972 23.392187 6.0146756
7.1410546 23.305441 5.9463305
5.8903809 23.157822 5.8293004
5.2849317 23.096144 5.7799935
4.1060548 22.99539 5.6985135
1.2833301 22.865183 5.5868015
0.73038083 22.858864 5.5793266
0.17864257 22.858955 5.5766716
-0.37299803 22.865448 5.5788293
-0.92565429 22.878366 5.585803
1.1777637 -8.0029116 1.7813711
2.0025487 -7.3283544 1.6730075
7.0643358 -21.679577 5.0213079
7.6482811 -21.681519 5.0630326
8.242363 -21.683485 5.1084485
8.8475685 -21.685488 5.1577191
12.078759 -21.695248 5.468256
13.488564 -21.694479 5.6256809
14.987773 -21.696869 5.8072143
15.775166 -21.698116 5.9077067
17.457811 -21.726427 6.1377988
18.340712 -21.730051 6.2620273
19.238808 -21.709209 6.3879423
16.762079 -9.3296652 4.2245784
16.320253 -8.5747633 4.0598946
17.848955 -8.8352251 4.3858657
18.213984 -8.4751711 4.4240241
17.726044 -7.733561 4.2589402
17.279961 -6.5661554 4.0708332
18.724277 -6.6026187 4.3722849
21.025381 7.9294391 4.948514
19.011885 8.7888393 4.6124854
18.474669 9.0876837 4.5340357
18.128437 10.031057 4.5626259
17.953457 10.507771 4.5810714
18.33622 11.334326 4.7471437
17.374853 11.935361 4.6420579
21.087948 16.036257 5.8341794
19.341572 16.238523 5.5614843
18.945967 16.701948 5.5620079
18.549736 17.165424 5.5656686
13.672744 15.351108 4.5270853
14.05373 18.286451 5.0788946
14.164062 19.380285 5.2862372
13.592236 19.572083 5.2475586
11.381914 22.843615 5.6204381
9.9352932 22.611435 5.4389362
8.5852051 22.417049 5.2862964
7.3135352 22.255899 5.1590018
6.7022557 22.186638 5.1039701
6.1050782 22.124414 5.0542951
3.2801366 21.908913 4.87852
1.1390625 21.839827 4.8160706
0.61119139 21.835964 4.810565
0.084228516 21.837379 4.8090267
-0.44280273 21.844074 4.8114572
-0.97092772 21.856064 4.817853
-13.979101 21.563324 5.6591926
-14.017549 19.493698 5.2875147
-13.58499 17.961643 4.9594345
-18.359247 19.944059 5.969614
-16.9354 -6.286149 3.9781168
-16.470469 -6.5698633 3.9050071
-16.732363 -7.1468859 4.006825
-16.597363 -7.5677299 4.017055
-15.863809 -8.1794214 3.9305332
-15.104131 -8.2549181 3.7905583
-8.0868845 -7.7722712 2.470042
-6.5545602 -23.278673 5.3257303
-4.4406347 -21.674129 4.87219
-3.8947265 -21.653967 4.84512
-3.3601756 -21.670437 4.8292584
-2.8288574 -21.687019 4.8163381
-0.57860351 -7.0874157 1.5659714
-0.25468749 -7.666944 1.6893332
0.11890624 -7.9017491 1.7403085
0.31185547 -7.9570713 1.7536389
0.65538085 -7.4773908 1.6529717
0.89746094 -8.0118341 1.7753885
1.0928808 -8.0055361 1.7793182
1.2893456 -7.9995623 1.7843851
1.4871484 -7.9940629 1.7906432
1.9413378 -7.4077239 1.6864069
2.0813379 -7.2262979 1.6560574
6.8144922 -21.678747 5.004364
7.3943553 -21.680676 5.044529
7.9839258 -21.682631 5.0883288
9.1961622 -21.686636 5.187438
10.460517 -21.692924 5.3035932
11.11377 -21.693865 5.3678226
13.90417 -21.695143 5.6746583
14.655127 -21.696342 5.7657971
17.954237 -21.728464 6.2072015
18.837305 -21.708632 6.3295527
9.2673635 -7.9872055 2.6942327
16.64208 -9.4918289 4.2190886
16.391151 -8.3278189 4.0487995
17.89082 -8.0288534 4.3184395
18.381132 -7.7217193 4.3905363
25.501778 -7.9221611 5.8805814
20.450684 8.0340176 4.8386722
18.92868 8.511631 4.5704846
18.376913 9.3540373 4.5410337
18.00041 9.7161036 4.5046234
18.029366 10.300966 4.572742
17.779247 10.735095 4.5736771
18.058985 11.507451 4.7157001
17.57917 11.807458 4.6634531
17.109961 12.101311 4.6151004
17.649794 14.506689 5.0312028
15.032939 14.297822 4.5687571
14.633828 14.606599 4.5532613
13.842919 15.219184 4.5305591
13.450127 15.523765 4.5232902
13.236211 16.0431 4.5802164
10.960645 22.773623 5.5657949
8.2173042 22.368147 5.2477546
5.1939158 22.040293 4.9866261
4.0673923 21.95528 4.9172268
3.5164452 21.921677 4.8892698
2.9721484 21.893785 4.8656373
2.4333789 21.871469 4.8462205
0.83947265 21.836983 4.8124552
-0.2146582 21.840525 4.8099155
-1.2713281 21.865242 4.8232617
-13.578135 18.347654 5.0265779
-14.146679 18.18173 5.0731745
-16.41416 19.116831 5.5487981
-19.223061 20.317307 6.1595001
-16.655796 -7.3852921 4.0123153
-16.047861 -8.0633307 3.9550564
-15.52204 -8.2740107 3.8735476
-15.355478 -9.1625462 3.9378023
-4.6877537 -21.724089 4.8941593
-4.1302538 -21.662666 4.8564529
-2.5277734 -21.688763 4.8085933
-1.9972851 -21.672173 4.7928348
-0.33057615 -7.5690808 1.6684396
0.036142576 -7.8495779 1.7286395
0.81312495 -8.0146627 1.7740359
1.4013281 -7.9963174 1.7877725
1.8791504 -7.4884057 1.7002151
2.0213573 -7.3039718 1.6689295
6.5689549 -21.686682 4.9900885
7.1422362 -21.679836 5.0267091
8.9297943 -21.685759 5.164638
11.491494 -21.694408 5.4063616
12.171113 -21.695383 5.4782057
14.327168 -21.69582 5.7255845
15.092021 -21.697035 5.8203235
15.898993 -21.720036 5.9276829
18.462128 -21.730549 6.2793913
16.831913 -9.2972059 4.2345638
17.930479 -8.8033314 4.3988619
17.73045 -7.6671429 4.2540059
18.346073 -7.4132972 4.3575187
17.179892 -6.4644666 4.0423002
18.720585 -6.5331411 4.366446
20.371601 8.3264847 4.846468
18.846981 8.239377 4.5297365
18.451542 9.1507044 4.5356154
18.146835 9.5518055 4.5160599
17.747637 10.464705 4.53719
18.270176 11.375554 4.739573
17.785498 11.678406 4.6855764
17.311796 11.974854 4.6355624
19.201435 13.978599 5.2303386
21.068544 16.129614 5.8432508
19.683838 15.837011 5.5635767
19.288437 16.300806 5.5613751
18.496435 17.22772 5.5663977
14.806201 14.473207 4.5596242
13.735322 14.090202 4.333282
13.602685 15.372529 4.5203691
13.516231 16.038368 4.6189051
13.364365 16.657631 4.7030044
14.512802 19.011059 5.2670488
14.109677 19.43787 5.2894316
7.8553219 22.321814 5.2111759
7.2304883 22.246174 5.1512852
5.4428024 22.061947 5.004117
4.8706837 22.01371 4.9650669
4.3081837 21.971636 4.9306946
3.7540233 21.935511 4.9008303
2.665957 21.880449 4.8541121
2.1298339 21.861235 4.8370376
1.5975195 21.847443 4.8240552
0.54032224 21.835844 4.8101263
-0.51368165 21.845381 4.8120847
-1.0420215 21.858086 4.8190193
-1.5725781 21.876137 4.829958
-13.516045 21.83478 5.6551428
-14.019843 19.364166 5.264679
-14.745024 18.424873 5.196836
-15.883999 18.895029 5.4359741
-18.558662 20.029945 6.0133066
-16.935644 -6.348794 3.982991
-16.497993 -6.6429319 3.9166207
-16.563358 -7.617197 4.0147843
-16.234545 -7.9459219 3.9804018
-15.807173 -8.2152119 3.9230783
-14.940825 -8.2286501 3.7562499
-15.499468 -9.0303497 3.9503329
-8.0689545 -7.8055325 2.4722836
-6.4138184 -23.06522 5.2721076
-5.5871873 -22.149435 5.0305052
-3.8217969 -21.651272 4.8417215
-3.2887597 -21.673759 4.8275952
-2.7573829 -21.687431 4.8144183
-0.55852538 -7.1263609 1.5741675
-0.23025391 -7.6822257 1.6925272
-0.045517579 -7.7981529 1.7173254
0.14483398 -7.9181175 1.7440072
0.46705076 -7.0085912 1.5468447
0.72761714 -8.0031652 1.7697128
0.92368162 -8.0109682 1.7758514
1.5138574 -7.9933786 1.7915808
1.7135156 -7.9884744 1.7992251
1.8159277 -7.5704679 1.7144479
6.3224216 -21.686369 4.974555
6.8918848 -21.679003 5.009553
7.4730077 -21.680937 5.0502009
8.0639648 -21.682896 5.0944972
8.6657419 -21.684887 5.1426029
9.279355 -21.686911 5.1946735
9.9073048 -21.692125 5.2516623
11.202842 -21.693995 5.3768182
11.874765 -21.694958 5.4464874
14.75791 -21.696507 5.7785273
15.537354 -21.697741 5.8769956
16.361563 -21.721933 5.9887433
17.201044 -21.725372 6.102355
17.130341 -9.1583309 4.2777033
17.64291 -8.8919611 4.3508554
17.899872 -7.963275 4.3143659
18.425596 -7.6701932 4.3951902
18.732557 -6.7575574 4.3854618
20.291269 8.6196051 4.8549695
18.525995 8.9478436 4.5307016
17.919619 9.7476587 4.49229
17.829784 10.844666 4.5956984
17.047655 12.140366 4.6088843
20.821299 15.598212 5.7291946
20.648895 16.261286 5.7880425
17.663389 14.614123 5.0485654
14.857383 14.22291 4.5293994
13.397431 15.564638 4.5225205
13.150225 16.044569 4.5684395
14.214268 18.2223 5.0893693
13.821679 19.599794 5.2815275
10.862158 22.757526 5.5532217
10.144502 22.643549 5.4640875
9.4516993 22.539194 5.3822985
8.1310053 22.356934 5.2389073
7.4989157 22.277985 5.1765008
6.8830857 22.206556 5.1198206
5.6937013 22.084791 5.022511
5.1170311 22.03381 4.9813786
4.5505371 21.989105 4.9450111
3.4429393 21.917597 4.8858457
2.8994434 21.890467 4.8627872
2.3613183 21.868887 4.8439245
1.296914 21.841993 4.8184791
0.24142578 21.836411 4.8090754
-0.2855078 21.841522 4.8103151
-1.8749022 21.888781 4.8379626
-15.377046 18.684643 5.3289623
-17.927715 19.758867 5.8754015
-16.409946 -6.4091744 3.8796172
-16.772661 -7.0217576 4.0042653
-16.386547 -7.8092847 3.9974568
-15.990435 -8.0995159 3.9473531
-15.394707 -8.2703505 3.8484409
-14.484453 -9.1894417 3.7775326
-4.6093163 -21.701643 4.8857074
-3.5189159 -21.663052 4.8331308
-0.47143555 -7.2954168 1.6099359
-0.12612304 -7.7474899 1.7063656
0.061738279 -7.8656912 1.7322216
0.44755858 -7.9696054 1.7578188
0.83930659 -8.0137768 1.7744323
1.2306055 -8.0013113 1.7827536
1.6268749 -7.9905581 1.7957696
1.7516503 -7.6539612 1.7291207
7.2203417 -21.680098 5.0321708
7.8069334 -21.682045 5.0748706
12.963096 -21.693638 5.5652881
13.684609 -21.694792 5.6486583
15.196787 -21.697201 5.8335533
16.833838 -21.723869 6.0522285
19.491962 -21.709572 6.4251189
16.902109 -9.2645807 4.2446432
15.952656 -8.2500734 3.9550595
16.63327 -8.0996037 4.0741563
18.143934 -8.2998714 4.3938437
18.370878 -7.3541164 4.3577256
18.744717 -6.983983 4.4051423
18.716894 -6.4638524 4.3606782
21.012236 8.0805292 4.9576497
18.872196 8.3233938 4.5422578
18.600292 8.7453899 4.526288
18.428389 9.2137966 4.5372453
18.081543 10.15882 4.5673037
17.906172 10.636589 4.5865064
18.204365 11.41665 4.7320766
17.721201 11.718608 4.6786246
17.248926 12.014238 4.629127
19.130352 14.021995 5.2233367
19.630703 15.899384 5.5630956
19.235273 16.3631 5.5613213
18.83955 16.826487 5.5626798
18.632607 17.467724 5.6243916
13.500127 15.356679 4.5028105
14.458828 19.068214 5.2698669
14.055224 19.495527 5.2926917
13.387988 19.547354 5.2175336
10.451904 22.691658 5.5017319
9.7486525 22.583221 5.4168296
8.4100876 22.393555 5.267787
6.5404296 22.169243 5.0901093
5.9467869 22.108845 5.0418215
5.365283 22.05509 4.9985847
4.7945409 22.007702 4.9601803
4.233242 21.966434 4.9264207
3.6800976 21.931099 4.8971534
0.99703121 21.838266 4.814198
-1.6441211 21.878979 4.8317385
-13.518769 21.681833 5.6268163
-14.022119 19.23572 5.2420902
-13.844433 18.060015 5.0112734
-14.891621 18.484865 5.2273498
-16.046045 18.962633 5.4703612
-17.327627 19.502844 5.7451591
-16.176294 -7.9825253 3.9724452
-15.454634 -9.0714827 3.9463801
-6.2758689 -22.855995 5.2196088
-5.4952049 -22.08654 5.012145
-2.6861131 -21.687843 4.8125558
0.17085937 -7.9345593 1.7477401
0.36374998 -7.9618478 1.7551749
0.75789058 -8.0467672 1.7798886
0.94988281 -8.0101099 1.776333
1.1455663 -8.0038996 1.7805682
1.5405859 -7.9927025 1.7925394
1.6993262 -7.7989416 1.757767
6.3988085 -21.686466 4.979311
6.9694433 -21.67926 5.0148106
7.5518355 -21.681198 5.0559382
8.1441994 -21.683163 5.1007423
8.7475195 -21.685156 5.1493688
9.362793 -21.687185 5.2019868
9.992383 -21.692247 5.2594995
10.634492 -21.693176 5.3203936
11.292041 -21.69412 5.3858843
14.861084 -21.696669 5.7913647
15.644101 -21.69791 5.8907447
16.4725 -21.722387 6.0035572
17.316259 -21.725847 6.1182165
18.193388 -21.729445 6.2410502
17.201748 -9.1250067 4.288136
18.174404 -8.5444574 4.4225912
18.291504 -7.5449271 4.3573508
17.40415 -6.6923208 4.1063013
18.728819 -6.6876993 4.3794942
20.413359 8.1725407 4.8422785
18.980165 8.683177 4.596416
18.50288 9.0107965 4.5321732
18.330479 9.4805737 4.5446577
17.982256 10.429317 4.5778518
18.417089 11.283853 4.7564845
17.928915 11.588735 4.7012625
17.05913 12.232095 4.6226869
20.994375 15.834268 5.7908964
17.675215 14.720592 5.0655422
19.010918 16.6259 5.5617008
14.9254 14.380996 4.5643172
14.52704 14.689253 4.5495706
14.131143 14.995832 4.5375896
13.344785 15.60548 4.5217981
13.064716 16.046034 4.556777
14.141924 18.251213 5.0846195
13.718037 19.587284 5.2661486
10.05001 22.628981 5.4526811
9.3603315 22.525866 5.3718405
8.6927338 22.431679 5.2978148
7.4153318 22.267969 5.1685658
6.8015623 22.197512 5.1126261
6.2021775 22.134163 5.0620923
5.6156054 22.077566 5.0166969
4.4751563 21.983564 4.9404769
2.826875 21.887241 4.8600068
1.7560742 21.851 4.8275061
1.2258301 21.84096 4.8173499
0.69770509 21.836235 4.8111954
0.17066406 21.836784 4.8090086
-0.88418943 21.853735 4.8165317
-1.4139843 21.870188 4.8262739
1.1682324 -7.9381652 1.5784032
1.3636328 -7.9322405 1.5833069
1.5604589 -7.9269094 1.589296
1.8466113 -7.4611082 1.5120233
1.9937695 -7.296267 1.4879346
8.2427635 -21.684523 4.5635352
9.4653511 -21.68858 4.6551542
10.097031 -21.692924 4.707016
12.773281 -21.694267 4.9524603
13.48915 -21.695431 5.0255752
19.23954 -21.710051 5.7064981
17.105 -8.9870815 3.8010442
17.328983 -8.0633669 3.7599041
17.918652 -7.8175926 3.845799
21.007011 8.5068436 4.4584455
20.642792 8.9448662 4.4256592
18.648232 8.6207304 4.0414681
18.303965 9.5588617 4.0621614
18.130283 10.03208 4.0761557
17.955303 10.50885 4.0926332
20.154842 13.140857 4.7331119
19.75868 13.572887 4.7156191
19.834179 14.341071 4.8148251
19.800478 15.825407 4.9863453
19.403769 16.290752 4.9839849
18.609444 17.220676 4.9877458
14.835166 14.407785 4.0681553
14.043183 15.021189 4.0451679
13.650234 15.325839 4.0373306
13.258681 15.629619 4.0318971
14.333486 17.747353 4.4876709
10.821914 21.719719 4.773653
10.129902 21.622446 4.6971879
9.461504 21.533169 4.6268454
8.1867676 21.376667 4.503027
7.5764937 21.308571 4.4488759
6.4014454 21.190866 4.3546848
5.2770605 21.095903 4.277822
4.1927538 21.021803 4.216825
-0.42403319 20.917482 4.1157002
-0.92970699 20.927792 4.1209469
-1.9476074 20.961567 4.1412868
-14.02163 19.499407 4.7246561
-14.038183 18.560802 4.5779777
-13.828047 16.558035 4.2437544
-18.542427 18.288286 5.1233106
-16.411743 -6.5464401 3.4758599
-15.747426 -8.1194153 3.4853363
-15.576557 -9.0077858 3.5396731
-14.840742 -9.0668907 3.4211829
-8.0869627 -7.7723484 2.2064798
-6.5514746 -23.267717 4.7551703
-5.6790333 -22.209608 4.5096097
-5.0215721 -21.818628 4.4043345
-3.8947167 -21.653944 4.3280873
-3.3602343 -21.670732 4.3139768
-0.25098631 -7.5559087 1.4872073
-0.069619142 -7.6680193 1.5085034
0.11713867 -7.7840171 1.5314331
0.30977538 -7.9039984 1.5560555
0.50209957 -7.9216213 1.5614563
0.68987304 -7.8709741 1.554302
1.2788965 -7.9347358 1.5810531
1.7814453 -7.5342908 1.5229995
7.3947067 -21.681698 4.5064268
11.114062 -21.694401 4.7951331
12.471298 -21.696362 4.9229407
13.176719 -21.694923 4.9933057
14.65579 -21.697317 5.1507449
15.431747 -21.698566 5.2379136
17.95376 -21.72789 5.5446734
18.838026 -21.709465 5.6543298
9.2676563 -7.9874554 2.406801
16.937391 -9.1259518 3.7847645
17.979404 -8.0686073 3.876709
17.493164 -6.8570576 3.6961622
25.496025 -7.9203744 5.2519269
20.799824 8.7561035 4.439487
18.378778 9.3549881 4.0568628
18.205595 9.8268566 4.0697956
18.0312 10.302021 4.085196
17.327509 14.956574 4.5028381
18.781563 17.019379 4.9859729
19.100264 18.166264 5.1854377
13.97539 13.949404 3.884366
13.820107 15.194111 4.0404258
13.427998 15.498227 4.0339565
11.129404 21.764456 4.8087678
7.8385839 21.337254 4.4717093
6.6510253 21.214336 4.3735414
6.0778904 21.161713 4.3311939
5.5166502 21.114624 4.2930636
2.8447266 20.95507 4.1600575
2.3294432 20.937292 4.1441622
0.80385739 20.910509 4.1165204
0.29899412 20.910278 4.1138577
-0.20554687 20.914364 4.1144361
-0.71064454 20.922792 4.1182742
-13.976397 22.060415 5.1373334
-13.995928 20.955366 4.9572005
-14.031152 18.959824 4.6400032
-14.047109 18.053762 4.4999051
-14.38768 16.756704 4.3447294
-17.929926 18.057343 5.0058966
-19.394257 18.611807 5.287797
-21.050819 19.247824 5.6111841
-16.494188 -6.8424082 3.5128229
-16.487549 -7.3106894 3.5479481
-15.107973 -9.0148611 3.4608953
-14.499761 -9.1333523 3.371073
-6.0177636 -22.550591 4.591352
-5.2926464 -21.945488 4.4408526
-4.6875095 -21.723034 4.3716774
-4.1302443 -21.662643 4.3382077
-3.0591991 -21.684736 4.3080287
-1.9972754 -21.672155 4.2813778
-0.14874999 -7.6190395 1.4990911
0.035605468 -7.7333126 1.5213028
0.22565429 -7.8516693 1.5452065
0.4186914 -7.9139476 1.5589962
0.59099609 -7.6617608 1.5116869
0.84357423 -8.3147726 1.6440655
1.0000488 -7.9435735 1.5749819
1.1944336 -7.937345 1.5790039
1.3899707 -7.9315085 1.5840524
1.5870312 -7.9262142 1.59018
1.715332 -7.6086364 1.534324
2.012871 -7.273294 1.484573
7.1425681 -21.680859 4.4905081
7.7278609 -21.68281 4.5282164
8.930234 -21.686806 4.6137342
9.5493355 -21.688856 4.6618376
10.182802 -21.693048 4.7141833
10.829355 -21.693987 4.7697811
11.491787 -21.694946 4.8295541
12.171426 -21.69593 4.8937378
12.868261 -21.694422 4.9619942
14.327822 -21.696787 5.1148243
16.720585 -21.722847 5.3926044
17.573965 -21.726336 5.4971495
18.461639 -21.729967 5.6091557
16.781065 -9.2691231 3.7712572
17.551962 -8.6174908 3.8464987
17.879921 -7.2249322 3.7936103
18.580263 -6.9914036 3.9052761
18.453407 9.1516352 4.0520205
18.106855 10.095927 4.0782223
20.295761 12.636743 4.703198
20.133085 13.219905 4.7380433
19.762314 13.669907 4.7270355
19.812832 14.423708 4.8209729
21.112549 16.163303 5.2306094
18.488916 14.875607 4.6681709
19.350468 16.353239 4.9838839
18.73789 17.452623 5.0373077
14.384814 14.756484 4.0539126
13.990273 15.062195 4.043973
13.206122 15.670403 4.0313511
10.727451 21.706161 4.7630067
9.3733492 21.521757 4.6178412
8.7290335 21.44096 4.5539846
8.1037598 21.367136 4.49546
6.9030857 21.238892 4.3932252
5.2030663 21.090284 4.2732368
4.6577635 21.051416 4.2413559
4.1210938 21.017536 4.2132668
3.5919433 20.988503 4.1888514
3.0692186 20.964174 4.1680021
1.5295898 20.918392 4.1260233
0.012880859 20.912075 4.1137953
-1.5056444 20.944767 4.1308522
-13.938954 22.518007 5.2097149
-14.023915 19.369785 4.7042403
-14.040322 18.439095 4.5591598
-13.958036 16.603987 4.2671089
-16.10103 17.377493 4.6602783
-17.346952 17.838966 4.8948727
-20.307749 18.9615 5.4655986
-16.885933 -6.3301592 3.5475106
-16.431099 -6.6159992 3.4844856
-16.545523 -7.1306033 3.5442059
-16.411606 -7.5474114 3.5535011
-14.859707 -8.1839666 3.3371947
-15.381953 -8.9618902 3.5020304
-14.759038 -9.0828085 3.4091182
-8.0698242 -7.8063674 2.2086983
-6.4108396 -23.05448 4.7073183
-5.5863962 -22.146294 4.4930506
-4.3669043 -21.671387 4.3488498
-3.2887988 -21.674057 4.3124924
-2.2256544 -21.671999 4.2857056
-1.6985449 -21.672358 4.2764254
-0.22691406 -7.5707636 1.4899774
-0.044843748 -7.6833735 1.5114858
0.14266601 -7.7999191 1.5346435
0.33555663 -7.9063449 1.5567232
0.52805662 -7.9240198 1.5622576
0.91623044 -7.9463568 1.5735509
1.5015625 -7.928472 1.5874017
8.0643549 -21.683929 4.5510726
8.666172 -21.685932 4.5940442
9.2798042 -21.687965 4.6405654
9.9075489 -21.692648 4.6913576
10.547705 -21.693579 4.7452235
11.203125 -21.694529 4.8031654
11.875068 -21.695499 4.8654032
12.565146 -21.696497 4.9321909
14.004345 -21.696266 5.0799518
16.361143 -21.721378 5.3495359
17.200596 -21.72481 5.4510198
18.961952 -21.709646 5.6703663
16.661406 -9.4313526 3.766288
16.989286 -9.0829229 3.7897558
16.866493 -7.9963889 3.6719494
18.099932 -7.5346289 3.8567779
18.665956 -6.73353 3.9035518
25.500673 -7.8312435 5.2476773
21.041162 9.5436707 4.5450587
18.355576 9.4182348 4.0584583
19.869032 12.751604 4.6443238
19.88163 14.158562 4.8014774
21.252617 15.921328 5.2238388
20.849091 16.418945 5.2205153
17.230751 14.970803 4.490283
15.681689 15.012007 4.2705383
14.247744 14.313769 3.9729452
13.767314 15.235036 4.0394154
13.37539 15.539045 4.0332675
13.094072 15.976057 4.0635023
14.040859 18.000013 4.4908133
11.033379 21.750393 4.7977328
9.6586132 21.558998 4.6472163
7.756875 21.32822 4.4645209
6.5732422 21.206934 4.367599
6.0017872 21.155067 4.3258295
4.8926463 21.067617 4.2546811
4.3523927 21.031599 4.224966
3.8201072 21.000484 4.1989741
3.2947264 20.974134 4.1765943
2.7752049 20.952421 4.1577253
2.2605078 20.935246 4.1422858
1.7496972 20.922527 4.1302128
1.2418164 20.914202 4.1214533
0.73595703 20.910225 4.115972
-0.27339843 20.915253 4.1147676
-0.77863282 20.924252 4.1190348
-1.2855273 20.937622 4.1265707
-13.998447 20.812702 4.934166
-14.016484 19.79126 4.7708015
-14.524687 16.805672 4.3696175
-15.601054 17.194544 4.5672793
-16.79126 17.632214 4.7897673
-19.604906 18.692202 5.3286729
-21.290356 19.340466 5.6582904
-16.469551 -7.3667035 3.5491982
-16.177647 -8.1943502 3.5674071
-15.024262 -9.0311537 3.4484134
-14.420434 -9.1488256 3.359508
-4.6090918 -21.70059 4.3641324
-4.0569825 -21.659939 4.3350062
-2.9876659 -21.686239 4.3063788
-1.9264355 -21.672201 4.2801318
-0.12427734 -7.6341715 1.5019809
0.06080078 -7.7489734 1.5244128
0.25165039 -7.8679056 1.5485531
0.4445703 -7.9163222 1.5597397
0.67855465 -8.4397802 1.6656185
1.0261133 -7.9427195 1.5754645
1.4163769 -7.9307809 1.5848156
1.5801464 -7.761065 1.5580679
2.0315332 -7.2492108 1.4809933
6.6458788 -21.686951 4.4620481
9.6335449 -21.689135 4.6685848
10.917432 -21.694117 4.7775679
11.582099 -21.695078 4.8379202
12.26416 -21.696062 4.902709
12.963652 -21.694576 4.9716177
14.42917 -21.696951 5.1258655
15.197471 -21.698189 5.2112794
17.691221 -21.726816 5.5117583
18.583731 -21.730469 5.6248088
19.492714 -21.710417 5.7397056
16.850927 -9.2365313 3.7802083
17.605713 -8.5731344 3.8521657
18.306738 -6.8207994 3.8431146
18.257393 9.6857338 4.06568
18.083378 10.159855 4.0803366
18.406601 10.933847 4.2115774
20.273779 12.714465 4.7076316
19.689638 13.714251 4.7202687
21.049961 16.223919 5.2281079
19.297129 16.41573 4.9838357
19.196602 17.996464 5.1762815
14.728164 14.490618 4.0644956
14.33167 14.797656 4.0524335
13.937392 15.103176 4.0428243
13.544863 15.407565 4.0356355
14.221445 17.844151 4.488729
10.633457 21.69276 4.7524786
9.2855759 21.510475 4.6089358
8.0210838 21.357721 4.4879818
6.8245215 21.23115 4.3870249
6.2476463 21.17684 4.3433924
5.6829782 21.128115 4.3040147
4.0495605 21.013357 4.2097745
3.5213377 20.984962 4.1858444
1.9703612 20.927486 4.1350279
0.95469725 20.911411 4.1179433
-0.054931641 20.912697 4.1139255
-1.0658886 20.931303 4.1229105
-1.5741016 20.947161 4.1323104
-13.970283 22.405945 5.1942387
-14.008828 20.225006 4.8398271
-14.042451 18.318344 4.5405397
-16.260893 17.436272 4.6901593
-17.52494 17.905478 4.9286885
-20.534039 19.048527 5.5098486
-16.880791 -6.3907452 3.5507669
-16.450565 -6.6859093 3.4931936
-16.729897 -8.2557173 3.6699781
-15.489516 -8.1140261 3.4398339
-15.296103 -8.9784307 3.4890924
-4.8626366 -21.773149 4.3886933
-3.7496679 -21.652617 4.322866
-2.6861327 -21.687984 4.2990236
-2.1547656 -21.672049 4.2843118
-0.53350586 -7.1024036 1.4011105
-0.2027539 -7.5856724 1.4927756
0.16830078 -7.8158927 1.537887
1.6691895 -7.6605921 1.5423383
1.8220215 -7.4887042 1.5161428
7.5521874 -21.682224 4.516623
8.1445894 -21.684198 4.5566468
11.292315 -21.694658 4.8112655
11.96666 -21.695631 4.8741016
12.659267 -21.69663 4.9415159
13.370224 -21.695238 5.0132251
14.104258 -21.696424 5.0906663
14.861767 -21.697649 5.1735883
16.47209 -21.721832 5.3627691
18.192919 -21.728867 5.5749083
16.6271 -9.3409719 3.7516787
17.04126 -9.0398664 3.7947993
17.038975 -8.5184479 3.7474246
18.124434 -7.4760089 3.8568149
17.288067 -6.6476831 3.6436429
18.662323 -6.66395 3.8982534
18.676329 8.5441742 4.0401978
18.332335 9.4815397 4.0601001
17.984091 10.430386 4.0897622
18.545761 12.631989 4.4141803
21.233477 16.014608 5.2318516
17.670391 14.716577 4.5237527
17.189892 15.033327 4.4923067
14.949502 14.404223 4.0838318
14.502997 14.66495 4.0573521
14.107832 14.971087 4.0466862
13.7146 15.27592 4.0384521
14.191504 18.31521 4.5579529
10.937851 21.736477 4.7868123
10.241699 21.637831 4.7092948
8.919199 21.464312 4.5724592
8.2884569 21.388454 4.512382
7.6754394 21.3193 4.4574213
7.078496 21.25647 4.4072919
5.9259958 21.148529 4.3205452
5.3676953 21.10289 4.283514
4.8195801 21.062487 4.2504687
3.7491698 20.996677 4.195765
3.2246192 20.970955 4.1738605
1.6813378 20.921154 4.1288466
0.66810548 20.910027 4.1154871
0.16341797 20.910957 4.1136961
-1.8636621 20.958126 4.1391182
1.1589453 -7.8750167 1.3804427
1.3527637 -7.8690696 1.3847179
1.5176269 -7.7093439 1.362659
1.6732812 -7.5359073 1.3387506
5.9260154 -21.686201 3.8988371
7.06499 -21.681606 3.9547408
7.648994 -21.683563 3.9876034
8.243144 -21.685555 4.0233774
10.097265 -21.693445 4.1497779
10.741856 -21.694387 4.1983199
11.402089 -21.695349 4.2505131
12.079346 -21.696335 4.3065586
12.773848 -21.695198 4.3662477
13.489736 -21.696375 4.4307113
14.227519 -21.697582 4.4997501
14.98912 -21.698826 4.5736918
15.776611 -21.700108 4.6528797
16.607939 -21.721836 4.7420602
17.456903 -21.725294 4.8333688
18.339746 -21.728895 4.9311924
17.058241 -8.9625072 3.3418117
17.282715 -8.554945 3.3443744
18.688192 -7.6221247 3.5002222
18.343388 -6.970243 3.4031429
26.526768 10.004207 4.9167175
26.411308 10.695327 4.9417176
26.491014 11.479006 5.0069981
18.132109 10.033092 3.5938768
17.928213 10.492998 3.6025972
20.973808 12.964719 4.2762184
21.610762 14.845141 4.5469422
21.47333 15.526264 4.5955157
19.863838 15.876044 4.409997
19.067696 16.809267 4.40832
18.669014 17.275787 4.4112411
15.111796 14.676433 3.6533356
14.414385 14.691208 3.5693965
15.250215 17.977289 4.0884061
14.543379 18.007227 4.0142365
14.15207 18.414423 4.0277066
16.241026 24.63402 5.1171079
14.382442 24.288507 4.8953605
10.994599 20.793936 4.0792646
10.31873 20.709806 4.0127487
9.6660833 20.63241 3.9514065
7.2471189 20.38224 3.7515993
6.1287985 20.288326 3.6755538
1.0466504 20.068045 3.4850481
0.56166017 20.066355 3.4813867
-1.3790624 20.094772 3.49315
-1.8685546 20.110769 3.5027487
-13.697206 23.543678 4.7238016
-13.96914 22.731174 4.6270685
-14.025683 19.505024 4.1664305
-14.042109 18.565996 4.0370493
-14.487983 16.521288 3.8108513
-16.204227 15.982126 3.9471262
-20.320601 17.329481 4.6316023
-22.063051 17.914381 4.9287806
-16.052387 -6.4030924 2.9972024
-16.266499 -7.4168677 3.1004376
-16.341543 -7.9326944 3.15031
-15.926963 -8.2119846 3.1076863
-14.940234 -8.1653357 2.9527397
-15.398027 -8.904542 3.0847859
-14.774824 -9.0266199 3.0026991
-5.6782322 -22.206474 3.9750831
-5.021338 -21.81757 3.8826473
-2.2967186 -21.671936 3.7795196
-1.7692578 -21.672293 3.7710392
-0.24801758 -7.4666724 1.2956277
-0.068623044 -7.5579729 1.3108014
0.11542968 -7.6706314 1.3304361
0.30520508 -7.7872882 1.3515539
0.50124997 -7.9082894 1.3742529
0.90196288 -8.0521364 1.4051821
1.0754297 -7.8777447 1.3788763
1.2687012 -7.8715329 1.3827454
1.4485449 -7.7866092 1.3735681
1.606582 -7.6101584 1.3488867
1.7592285 -7.4403782 1.3259323
1.9069726 -7.2765656 1.3045611
6.8151169 -21.680769 3.94139
7.3950391 -21.682714 3.9730294
7.9846969 -21.684689 4.0075278
9.1970606 -21.688734 4.0855918
9.8218555 -21.690813 4.1294222
13.177295 -21.695862 4.4022603
14.656455 -21.698284 4.5410695
15.432461 -21.699549 4.6179271
16.855839 -9.0820112 3.3205626
16.179922 -8.2204981 3.1474087
