# .PCD v0.7 - Point Cloud Data file format
VERSION 0.7
FIELDS x y z
SIZE 4 4 4
TYPE F F F
COUNT 1 1 1
WIDTH 1495
HEIGHT 1
VIEWPOINT 0 0 0 1 0 0 0
POINTS 1495
DATA ascii
3.9202929 6.3075595 -0.90337765
3.7128026 6.3081589 -0.89037436
3.5110741 6.3087411 -0.87824386
2.9361033 6.3104014 -0.84662288
2.0561817 6.3129296 -0.80761749
1.8891796 6.3134103 -0.80161458
1.7245409 6.3138819 -0.79616058
1.072041 6.2400632 -0.77016783
0.76353514 6.2328453 -0.7638371
0.61139649 6.2332797 -0.76186126
0.46672851 6.3255701 -0.77154022
0.31359375 6.3260059 -0.77044678
0.16078125 6.3264389 -0.76980287
-0.14454101 6.3273058 -0.76985973
-0.29736328 6.3277392 -0.77056122
-0.45057616 6.3281727 -0.77171296
-0.60432613 6.3286057 -0.77331966
-0.75881833 6.3290429 -0.77538437
-1.0707421 6.3299232 -0.78091598
-1.2285644 6.3303671 -0.78439909
-1.3878808 6.3308153 -0.78837383
-1.7119336 6.3317261 -0.79785156
-2.0446191 6.3326597 -0.80946636
-2.3879492 6.3336205 -0.8233673
-2.9277735 6.3351293 -0.84892625
-3.1156542 6.3356528 -0.85882139
-3.3080273 6.3361902 -0.86946028
-3.5053613 6.3367381 -0.8808853
-3.7080662 6.3373032 -0.8931396
-3.9166014 6.337882 -0.90627539
-4.0752635 6.252213 -0.90782237
-5.0647459 6.3387399 -0.98695379
-5.8659372 6.3409557 -1.050752
-6.4623337 6.3426013 -1.1014432
-6.7830176 6.3434849 -1.1296886
-7.4774704 6.3453989 -1.1929338
-8.2562695 6.3475428 -1.2668083
-9.1399899 6.3499718 -1.3537862
-10.738281 6.3615441 -1.5182285
-12.411435 6.1871824 -1.6869417
-12.549257 5.88238 -1.6858947
-12.679971 5.5746861 -1.6848974
-12.803555 5.2642674 -1.6839498
-14.30122 4.3237963 -1.8173928
-14.543047 3.6415405 -1.823655
-14.621543 3.2885547 -1.8230169
-14.75415 2.5780358 -1.8219126
-14.808261 2.2208593 -1.8214463
-14.85417 1.8626214 -1.8210379
-14.891913 1.5035119 -1.8206872
-14.921454 1.1437116 -1.8203943
-14.942773 0.78337461 -1.8201596
-14.955869 0.42262939 -1.8199831
-14.764863 -2.4543722 -1.820668
-14.704141 -2.8103771 -1.8210155
-14.27957 -4.5656323 -1.8236154
-14.170664 -4.9105773 -1.8243066
-14.053838 -5.2530856 -1.8250548
-13.929257 -5.592999 -1.8258582
-12.58456 -6.1442699 -1.7035185
-12.296387 -6.3753405 -1.6848395
-12.146181 -6.6740146 -1.6858341
-11.825175 -7.261189 -1.6879716
-10.905419 -8.662899 -1.6941613
-10.702011 -8.930685 -1.6955401
-10.670772 -10.810573 -1.8477285
-10.416699 -11.075241 -1.8494669
-10.156318 -11.334202 -1.8512511
-6.4360447 -7.9199486 -1.2413911
-9.0540724 -12.310116 -1.8588325
-8.1671772 -12.975173 -1.8649606
-6.9112692 -13.765669 -1.8736733
-6.5851755 -13.945214 -1.8759418
-6.2545896 -14.117302 -1.8782433
-5.5804391 -14.438535 -1.8829443
-4.5393162 -14.861462 -1.8902209
-4.185029 -14.986281 -1.8927016
-3.8274024 -15.102816 -1.8952078
-3.4666502 -15.211018 -1.8977383
-2.3673534 -15.484616 -1.9054617
0.65349609 -15.826325 -1.9267809
1.0365039 -15.8282 -1.9294937
1.8037499 -15.804238 -1.934934
1.0953808 -7.900929 -0.97027427
2.9541407 -15.698483 -1.9431076
3.3365917 -15.644558 -1.9458294
4.4776268 -15.42657 -1.9539627
4.8551073 -15.335205 -1.9566578
5.2308006 -15.234499 -1.9593425
5.6043553 -15.124495 -1.9620141
5.9755955 -15.005232 -1.9646716
6.7101951 -14.738981 -1.9699371
7.0730858 -14.592126 -1.9725418
7.4327145 -14.436168 -1.9751254
8.1412106 -14.097213 -1.9802229
9.1735744 -13.522305 -1.9876693
9.5086126 -13.313298 -1.9900912
10.163798 -12.86989 -1.9948351
10.797441 -12.393256 -1.9994345
11.407871 -11.884428 -2.0038767
11.993242 -11.344605 -2.0081487
12.276015 -11.063409 -2.010217
12.551904 -10.774916 -2.0122383
10.399267 -8.0896759 -1.6026635
12.280801 -9.0865078 -1.8583061
12.507686 -8.7955818 -1.8599809
13.144179 -7.8881392 -1.8647003
14.786347 -6.178061 -1.9493226
15.585917 -6.0748844 -2.0348215
15.736806 -5.7004328 -2.0359774
15.878252 -5.3220472 -2.0370672
16.010038 -4.9400067 -2.0380895
16.438868 -3.3802907 -2.0414896
16.65501 -2.1847327 -2.0432982
16.778856 -0.97537535 -2.0444562
16.799482 -0.57045346 -2.0446963
16.809727 -0.16510803 -2.044863
16.778145 1.0508106 -2.0449219
16.653349 2.2604942 -2.0443187
16.591171 2.6610565 -2.0439713
16.343525 3.8508849 -2.0424933
16.240791 4.2427111 -2.0418565
14.981425 4.3022799 -1.8960223
14.486513 5.3210731 -1.8772764
14.04205 6.344697 -1.8743658
12.296094 6.2867417 -1.679873
11.443701 6.2035608 -1.5834152
10.961288 6.2887597 -1.5372072
10.376162 6.2904735 -1.4760031
9.8355465 6.292058 -1.42028
7.6355858 6.2984886 -1.2040248
6.928369 6.3005514 -1.1391457
6.6022263 6.3015037 -1.1101959
6.2069335 6.2171359 -1.0686368
5.7123828 6.3023596 -1.0346746
5.4420214 6.3031454 -1.0129528
4.2372656 6.3066406 -0.92421883
3.8099511 6.3078785 -0.89639801
3.605576 6.3084693 -0.88386226
3.4066992 6.3090429 -0.87217337
3.21292 6.3096018 -0.86128324
3.0237694 6.3101478 -0.85115075
2.6580663 6.3112011 -0.83301163
2.4808006 6.3117113 -0.82493818
2.3068261 6.3122106 -0.81749237
1.967666 6.3131857 -0.80437756
1.4769531 6.3145895 -0.78884381
1.3172559 6.3150473 -0.78470165
0.98912108 6.232203 -0.76757932
0.83561522 6.2326403 -0.76492804
0.68309569 6.2330737 -0.76273602
0.53916991 6.3253651 -0.77221388
0.080136716 6.3266687 -0.76964253
-0.072499998 6.3271017 -0.76968533
-0.22521484 6.3275342 -0.7701751
-1.153916 6.3301573 -0.78269416
-1.4727441 6.3310547 -0.79067749
-1.7988671 6.3319702 -0.80070585
-2.3058789 6.3333912 -0.81987244
-2.4806542 6.3338804 -0.82744271
-2.8406541 6.3348866 -0.84451002
-3.2166698 6.3359351 -0.86434478
-3.6117187 6.3370347 -0.88725179
-3.817451 6.3376074 -0.89996481
-4.1899314 6.2525306 -0.9155485
-4.6446972 6.2561216 -0.94780576
-4.9473338 6.3384142 -0.97807127
-5.1987205 6.3391099 -0.99724323
-5.4603224 6.3398337 -1.0177857
-5.7330761 6.3405881 -1.0398107
-6.0180564 6.3413744 -1.06344
-6.316494 6.3421984 -1.0888199
-6.9592285 6.3439708 -1.1454777
-7.6742578 6.3459411 -1.2113247
-8.4784565 6.3481531 -1.2883843
-9.3126459 6.2955432 -1.3673648
-9.7717571 6.267921 -1.4121608
-12.196279 6.6305213 -1.6886408
-12.343955 6.329968 -1.6874529
-12.746142 5.4110656 -1.6843907
-12.865908 5.0992651 -1.6834698
-13.083711 4.4683871 -1.6817805
-13.770801 4.3350306 -1.7561438
-14.412822 4.1578321 -1.8246973
-14.503202 3.8074877 -1.8239758
-14.833535 2.0317731 -1.8212234
-14.908545 1.3134869 -1.8205252
-14.950723 0.59284729 -1.8200592
-14.959482 0.23204102 -1.8199133
-14.95999 -0.12882996 -1.8198259
-14.912255 -1.2101953 -1.819913
-14.790673 -2.2860537 -1.8205242
-14.668828 -2.9978259 -1.8212222
-14.595742 -3.3515565 -1.8216577
-14.514589 -3.7036285 -1.8221508
-14.328213 -4.4020777 -1.8233088
-13.988994 -5.4330211 -1.8254724
-13.723613 -6.10707 -1.8271956
-12.364942 -6.2333074 -1.6843868
-12.21793 -6.5334935 -1.6853585
-12.064092 -6.8304191 -1.6863793
-11.903359 -7.1239338 -1.6874496
-11.193222 -8.2608595 -1.692216
-10.999208 -8.5350246 -1.6935266
-10.592031 -9.0702963 -1.6962866
-10.379033 -9.3311024 -1.697735
-10.788369 -10.683825 -1.846925
-10.537344 -10.951089 -1.8486412
-10.279942 -11.212733 -1.8504037
-6.539248 -7.8623877 -1.243953
-9.470664 -11.962483 -1.8559622
-9.1889944 -12.200174 -1.8579022
-8.9015522 -12.431503 -1.8598847
-6.7396092 -13.861428 -1.8748672
-6.4111228 -14.037036 -1.8771533
-6.0781837 -14.205122 -1.8794726
-5.39958 -14.51822 -1.8842068
-5.0543065 -14.662977 -1.8866191
-4.7052441 -14.799739 -1.8890599
-3.9965429 -15.048859 -1.8940222
-2.9096875 -15.360034 -1.9016489
-2.541748 -15.446738 -1.9042352
-2.1713965 -15.524761 -1.9068404
-1.7987792 -15.594047 -1.9094639
-0.28972656 -15.782303 -1.9201096
0.47302732 -15.822216 -1.9255035
2.0064354 -15.791697 -1.936373
3.5382519 -15.612285 -1.9472653
3.9192283 -15.544047 -1.9499798
4.2990332 -15.466417 -1.9526882
4.6772752 -15.379467 -1.9553878
5.4283786 -15.177568 -1.9607552
6.1706543 -14.938486 -1.9660689
6.53792 -14.805121 -1.9687015
6.902246 -14.662548 -1.9713153
9.0138474 -13.617922 -1.9865156
10.011065 -12.977505 -1.9937283
10.333301 -12.747202 -1.9960644
10.961016 -12.261932 -2.0006237
11.85748 -11.474689 -2.0071566
12.143456 -11.197001 -2.0092468
12.694765 -10.619653 -2.0132864
11.934131 -9.5036297 -1.8557534
12.401563 -8.9335442 -1.859197
13.441943 -7.4071689 -1.8669213
13.626797 -7.0860534 -1.8683053
13.97209 -6.4295206 -1.8709036
15.311885 -6.1697159 -2.0080833
15.666826 -5.8776078 -2.0354407
15.949072 -5.1207104 -2.0376158
16.075712 -4.7368183 -2.0386019
16.192568 -4.3496652 -2.0395195
16.29957 -3.9594929 -2.0403681
16.396582 -3.5664897 -2.0411465
16.483555 -3.1710782 -2.0418546
16.683525 -1.9726089 -2.0435495
16.729677 -1.569961 -2.0439696
16.8062 -0.35639647 -2.0447936
16.810947 0.049140625 -2.0449216
16.789307 0.85980529 -2.0449564
16.76293 1.2644464 -2.0448635
16.726162 1.6682568 -2.0446968
16.476406 3.2697003 -2.0432994
16.290497 4.0582142 -2.0421658
15.601464 4.2887487 -1.968189
14.549267 5.1569691 -1.8776829
11.108838 6.2064352 -1.5478903
9.5660744 6.2928452 -1.3928338
8.2107515 6.2968078 -1.2586578
7.4410644 6.2990561 -1.1859114
-3.2750292 6.3359532 -1.03106
-3.8807616 6.3376317 -1.0742947
-4.0670314 6.2956357 -1.0834984
-4.2563963 6.2525611 -1.093436
-5.5414453 6.3398862 -1.2172534
-6.7273731 6.3431444 -1.3366497
-7.4154587 6.3450294 -1.4108517
-7.7894139 6.3460531 -1.4524456
-8.6088476 6.3482947 -1.5462903
-9.6679974 6.7754979 -1.7066745
-9.9694042 6.2924633 -1.7042648
-10.379512 5.5451341 -1.7011862
-10.84291 4.5100083 -1.6976579
-11.183945 4.3384933 -1.734162
-12.171465 3.7342064 -1.8404759
-12.328975 3.1407385 -1.8392223
-12.397412 2.8415868 -1.8386682
-12.458906 2.5410364 -1.8381628
-12.513467 2.2392347 -1.8377061
-12.601621 1.6324737 -1.8369408
-12.635234 1.3278198 -1.836632
-12.681328 0.71674865 -1.8361636
-12.693809 0.41062683 -1.836004
-12.697676 -0.20200805 -1.8358343
-12.584208 -1.7287451 -1.8362836
-12.540479 -2.0320303 -1.8365229
-12.489785 -2.3342919 -1.8368118
-12.432148 -2.6353445 -1.8371501
-12.296113 -3.2332911 -1.8379748
-12.217783 -3.5298641 -1.8384609
-11.941923 -4.4081988 -1.840211
-11.836493 -4.6966901 -1.8408908
-11.348603 -5.8252635 -1.8440847
-11.210381 -6.1003242 -1.8449999
-10.657451 -6.1371589 -1.7778536
-9.9062109 -6.3596668 -1.7017742
-9.5995998 -6.8382678 -1.703835
-9.4379196 -7.0723486 -1.704926
-9.098115 -7.5294151 -1.7072269
-8.920166 -7.7521653 -1.7084357
-8.548584 -8.1854372 -1.7109672
-8.3551073 -8.3957338 -1.7122887
-8.1566401 -8.6016207 -1.7136468
-6.68292 -7.765554 -1.4810723
-7.3146286 -9.378974 -1.7194309
-7.0925779 -9.5611887 -1.7209616
-7.4562011 -10.57518 -1.8705542
-7.2056251 -10.761917 -1.8722857
-6.6909375 -11.118025 -1.875849
-6.4270897 -11.287166 -1.8776788
-6.1590719 -11.450239 -1.8795395
-5.6110644 -11.757722 -1.8833499
-5.3313379 -11.901948 -1.8852978
-4.7611814 -12.170822 -1.8892742
-4.471035 -12.295295 -1.8913006
-4.1776953 -12.412994 -1.8933511
-3.5820508 -12.627773 -1.8975207
-2.9755664 -12.814479 -1.9017733
-1.7351074 -13.101341 -1.9104937
-0.78601563 -13.238724 -1.9171848
-0.46703124 -13.269385 -1.9194374
0.49536133 -13.315478 -1.9262439
0.81736326 -13.31541 -1.9285249
1.1396484 -13.30757 -1.9308096
1.4620215 -13.29194 -1.9330969
2.1063182 -13.237228 -1.9376736
2.4278417 -13.198125 -1.9399602
2.7487304 -13.151196 -1.9422442
4.3362107 -12.799149 -1.9535711
4.649004 -12.705358 -1.9558086
5.2682419 -12.49466 -1.9602439
5.8777637 -12.25333 -1.9646176
6.4760056 -11.981787 -1.9689184
6.7704 -11.834823 -1.971038
7.0613766 -11.680486 -1.973135
7.6323829 -11.350013 -1.9772564
7.9120016 -11.174038 -1.9792782
8.1874609 -10.991018 -1.981272
8.4585257 -10.801017 -1.9832362
8.2758694 -9.5775433 -1.8298225
8.5123138 -9.3839693 -1.8315424
8.7442474 -9.1843863 -1.8332316
8.9713478 -8.978898 -1.8348882
9.1934271 -8.7676439 -1.8365103
9.4103613 -8.5507374 -1.8380975
9.6219921 -8.3282824 -1.8396481
10.028671 -7.8673182 -1.8426361
10.223476 -7.6290817 -1.8440711
10.942402 -6.6277552 -1.8493963
11.413047 -6.1810045 -1.8763146
12.701123 -5.7327757 -2.0144663
12.842539 -5.4276462 -2.0155389
12.976269 -5.1189008 -2.0165579
13.220312 -4.4913225 -2.0184324
13.33042 -4.1729088 -2.0192862
13.612226 -3.2016635 -2.0215077
13.758896 -2.5429683 -2.0226998
13.872099 -1.8773721 -2.0236564
13.996689 -0.53251159 -2.0248511
14.006474 -0.19477294 -2.0249989
14.007705 0.14312805 -2.0250859
13.95999 1.1555004 -2.0249832
13.926991 1.4917632 -2.0248275
13.885439 1.8270538 -2.0246112
13.710195 2.8248417 -2.0236013
11.982236 4.6757712 -1.8593872
11.860908 4.961307 -1.8585941
11.596963 5.5223584 -1.8568548
10.987236 6.5996532 -1.8528481
9.9238186 6.2915597 -1.6986237
8.0880861 6.296958 -1.4818001
6.9850879 6.3001938 -1.3598312
6.6560841 6.3011594 -1.3249921
6.2575192 6.2168088 -1.2751362
5.75916 6.3020506 -1.2341495
5.2256641 6.303607 -1.1836654
4.974658 6.3043408 -1.1609273
4.7329884 6.3050437 -1.1396976
4.4998631 6.3057237 -1.1198684
4.2745895 6.3063793 -1.1013492
4.0565038 6.307013 -1.0840524
3.6396778 6.3082223 -1.0528287
3.4399023 6.3088012 -1.0387713
2.6883788 6.3109751 -0.99164975
2.5105274 6.3114877 -0.98192739
2.3360252 6.3119907 -0.97295392
1.8297851 6.313447 -0.95023799
1.1716113 6.2396507 -0.91777396
1.0165234 6.2400937 -0.91396588
0.86151367 6.2324376 -0.90953511
0.70883787 6.2328734 -0.90683883
0.41170898 6.3255968 -0.91637045
0.25871092 6.3260326 -0.91526228
0.10597656 6.326467 -0.91468853
-0.19933593 6.3273325 -0.91513914
-0.35228515 6.3277636 -0.91616452
-1.445459 6.3308444 -0.93874508
-1.7708983 6.331759 -0.95045239
-1.9368652 6.3322229 -0.95725721
-2.1053319 6.3326926 -0.96472728
-2.6283495 6.3341541 -0.99137479
-2.8095214 6.3346581 -1.0017711
-3.1840723 6.3356996 -1.0250536
-4.9055858 6.3381348 -1.1586281
-5.1553221 6.3388233 -1.1811483
-5.6859078 6.3402843 -1.2311404
-6.5753808 6.3427281 -1.320708
-7.2463279 6.3445678 -1.3923205
-7.6102829 6.3455639 -1.4324183
-8.4061327 6.3477402 -1.522753
-9.900156 6.4074621 -1.704782
-10.045429 6.1628747 -1.7036963
-10.318505 5.6644201 -1.7016461
-10.567968 5.1544971 -1.6997606
-11.593984 4.3284144 -1.7890402
-12.038056 4.166244 -1.8415213
-12.215713 3.5781384 -1.8401262
-12.365976 2.982909 -1.8389236
-12.488593 2.3817668 -1.8379153
-12.539463 2.0793517 -1.8374847
-12.583379 1.7759326 -1.8371034
-12.672988 0.86106259 -1.836256
-12.697588 0.2488507 -1.8359396
-12.693984 -0.36376891 -1.8358228
-12.662246 -0.97557676 -1.8359057
-12.602402 -1.5853356 -1.836188
-12.51457 -2.1918359 -1.8366693
-12.330684 -3.0927827 -1.8377627
-12.173633 -3.685796 -1.8387375
-11.778115 -4.8481174 -1.8412691
-11.540312 -5.4150529 -1.8428221
-11.411582 -5.6944408 -1.8436691
-10.361796 -6.1440234 -1.7414529
-9.9751759 -6.2448206 -1.7013125
-9.8274117 -6.4873691 -1.7023028
-9.514883 -6.9623556 -1.7044064
-9.3502827 -7.1945224 -1.7055185
-8.8240528 -7.8682017 -1.7090896
-8.2509079 -8.5050373 -1.7130017
-7.8438964 -8.907526 -1.7157912
-6.566875 -7.8303442 -1.4773495
-7.1978807 -9.4758444 -1.7202356
-7.0714355 -10.858231 -1.8732141
-6.5520992 -11.20811 -1.8768115
-6.0158591 -11.533879 -1.8805343
-5.4637594 -11.834709 -1.8843755
-5.1821384 -11.97551 -1.8863375
-4.896904 -12.109774 -1.888327
-3.7236133 -12.579604 -1.8965292
-3.4229002 -12.679832 -1.8986359
-1.5689844 -13.13042 -1.9116638
-0.93612301 -13.221606 -1.9161254
-0.29810545 -13.282524 -1.9206309
0.34363282 -13.312822 -1.9251696
1.3099414 -13.30029 -1.9320174
1.6322851 -13.28054 -1.9343055
2.5974512 -13.174304 -1.9411671
2.917871 -13.123241 -1.9434488
3.5556445 -12.997595 -1.9479957
3.8726072 -12.923048 -1.9502581
4.8134079 -12.652714 -1.9569855
5.4302049 -12.433869 -1.9614053
5.7349415 -12.312995 -1.9635919
6.0369239 -12.184528 -1.9657611
6.3359861 -12.048535 -1.967911
6.9245214 -11.754213 -1.9721484
7.4990625 -11.430569 -1.9762934
8.3311815 -10.891519 -1.982313
8.8640137 -10.497495 -1.9861789
9.308672 -8.6537752 -1.8373531
9.5228119 -8.4339037 -1.8389212
9.9347849 -7.9779472 -1.8419452
10.324003 -7.5012097 -1.844813
10.689384 -7.0048547 -1.8475164
11.029853 -6.4900823 -1.8500478
11.190439 -6.2261839 -1.8512466
12.776768 -5.5720596 -2.0150392
12.914141 -5.2650003 -2.0160837
13.385361 -4.0035639 -2.0197146
13.654209 -3.0284717 -2.0218456
13.727295 -2.6990378 -2.0224397
13.79205 -2.3677821 -2.0229754
13.966689 -1.0288275 -2.0245235
13.989092 -0.69174135 -2.0247605
13.972588 0.99659359 -2.0250356
13.943613 1.333233 -2.0249085
13.742764 2.6688929 -2.0237961
13.671474 2.9989495 -2.0233676
13.591914 3.3270373 -2.0228803
13.504052 3.65291 -2.0223334
12.305058 4.3050413 -1.8845662
12.036972 4.5399804 -1.8597434
11.919033 4.8269849 -1.8589746
11.793935 5.1108251 -1.8581543
11.223799 6.2106028 -1.8543712
10.176933 6.290813 -1.7295799
9.6509371 6.2923617 -1.6655029
9.1622362 6.2937999 -1.6069025
8.7065134 6.2951417 -1.5531622
8.2800484 6.2963953 -1.5037465
7.5025682 6.2986779 -1.4161279
7.1464353 6.2997217 -1.3771948
6.8091893 6.3007116 -1.3411069
6.4011621 6.2163877 -1.2899075
5.8152833 6.2198377 -1.2309285
5.3475585 6.3032517 -1.1949492
5.0918555 6.3039989 -1.1714596
4.8458982 6.3047142 -1.1495326
4.6088281 6.3054066 -1.1290547
4.3799314 6.3060718 -1.1099293
3.1444335 6.3096566 -1.0191243
2.9569139 6.3102002 -1.0073948
1.9078612 6.3132224 -0.95341063
1.0895312 6.2398863 -0.91569179
0.78075194 6.2326684 -0.90804386
0.62852538 6.2331018 -0.90563285
0.48404297 6.3253918 -0.91707885
0.025361327 6.326694 -0.91460097
-0.58692384 6.3284278 -0.91877025
-0.74131835 6.3288646 -0.92116195
-0.89661133 6.3293018 -0.92410576
-1.2106543 6.3301854 -0.9316833
-1.8582715 6.3320017 -0.95396519
-2.025537 6.3324704 -0.961119
-2.3681934 6.3334289 -0.97747952
-2.9067872 6.3349304 -1.0075907
-3.2859862 6.3359823 -1.0317906
-3.482744 6.3365293 -1.0452595
-3.6847949 6.3370886 -1.0597081
-4.2688966 6.2525949 -1.0944623
-4.7910056 6.3378196 -1.1485276
-5.0362988 6.3384957 -1.17033
-5.5567284 6.3399291 -1.2187132
-5.8337207 6.3406906 -1.2455516
-6.1233888 6.3414855 -1.2743593
-6.7458005 6.3431945 -1.3385944
-7.081543 6.3441162 -1.3744442
-7.811162 6.3461132 -1.4548917
-9.6768064 6.7620444 -1.7066008
-9.9776068 6.2786741 -1.7042035
-10.119824 6.0324044 -1.7031388
-10.25621 5.7830749 -1.7021148
-11.992197 4.3037963 -1.8418781
-12.087636 4.0116735 -1.841134
-12.17625 3.7175536 -1.8404382
-12.258085 3.4215672 -1.8397897
-12.333027 3.1238892 -1.8391898
-12.401054 2.8246605 -1.8386383
-12.462187 2.524035 -1.8381355
-12.516347 2.2221508 -1.8376819
-12.603721 1.6153033 -1.8369219
-12.682226 0.69947386 -1.8361533
-12.694325 0.39334288 -1.8359964
-12.699375 0.087022699 -1.8358892
-12.68835 -0.52549988 -1.8358252
-12.64917 -1.1368756 -1.8359607
-12.363721 -2.9519413 -1.8375612
-12.291845 -3.2500811 -1.838001
-12.213154 -3.5465527 -1.8384899
-12.127587 -3.8412237 -1.8390274
-12.035244 -4.133934 -1.8396136
-11.830341 -4.7129045 -1.8409307
-11.598789 -5.2822742 -1.8424386
-11.473134 -5.5629911 -1.8432635
-11.202382 -6.1157541 -1.8450531
-10.625254 -6.137908 -1.7738773
-10.077881 -6.1505694 -1.7067699
-9.7470503 -6.6141748 -1.7028427
-9.2611322 -7.3156629 -1.7061218
-9.0882025 -7.5421038 -1.7072941
-8.7264643 -7.9831066 -1.7097541
-8.1453123 -8.6131124 -1.7137246
-7.9416404 -8.8142385 -1.7151206
-6.6704884 -7.7724962 -1.4806634
-7.0799122 -9.5713043 -1.7210488
-7.1913476 -10.772278 -1.8723845
-6.4120798 -11.296524 -1.8777828
-6.1438279 -11.459261 -1.8796453
-5.8715525 -11.615796 -1.8815378
-5.5953708 -11.766044 -1.8834591
-3.5651073 -12.633435 -1.8976393
-2.9583104 -12.819346 -1.9018945
-2.3419628 -12.97658 -1.906224
-2.0306151 -13.044247 -1.9084138
-1.0859082 -13.202807 -1.915069
-0.76805663 -13.240651 -1.9173117
-0.44898435 -13.270901 -1.9195647
0.51353514 -13.315685 -1.9263726
0.83554685 -13.315164 -1.9286537
1.1578418 -13.306907 -1.9309387
1.0768261 -7.9258423 -1.1563152
2.1244531 -13.235227 -1.9378024
2.4459765 -13.195683 -1.9400892
2.7667871 -13.148293 -1.9423727
3.0867479 -13.093093 -1.9446521
4.3539257 -12.794059 -1.9536978
4.9771972 -12.597896 -1.9581583
5.5914941 -12.370967 -1.9625626
7.9276562 -11.163897 -1.9793913
8.2028513 -10.980471 -1.9813833
8.7399902 -10.592888 -1.9852782
8.2892084 -9.5667915 -1.8299196
8.757246 -9.1729527 -1.8333263
8.9840231 -8.9671345 -1.8349806
9.6337595 -8.315567 -1.8397344
9.8395901 -8.0874195 -1.8412455
10.039824 -7.8540192 -1.842718
10.234297 -7.6155009 -1.8441509
10.781767 -6.8706498 -1.848202
12.560752 -6.0171957 -2.0134058
12.709307 -5.7156706 -2.014528
12.850292 -5.4103174 -2.0155978
12.983593 -5.1013618 -2.0166137
13.109111 -4.7890105 -2.0175753
13.438046 -3.8334775 -2.0201273
13.616806 -3.1831973 -2.0215447
13.693848 -2.8546901 -2.0221667
13.762558 -2.5242748 -2.0227301
13.997451 -0.51346618 -2.0248609
14.007509 0.16220641 -2.025089
13.999678 0.50001949 -2.0251122
13.958349 1.1744934 -2.024976
13.924853 1.5107 -2.0248168
13.773466 2.5125353 -2.023977
13.706133 2.8434508 -2.023577
13.454326 3.8240843 -2.0220211
13.353965 4.1461768 -2.021385
12.090097 4.4035192 -1.860088
11.975586 4.6919675 -1.8593439
11.853838 4.9773107 -1.8585476
11.72501 5.2593784 -1.8577005
11.1404 6.3511839 -1.8538132
9.8941498 6.2916479 -1.695007
9.3884468 6.2931356 -1.6339087
8.4778318 6.2958131 -1.5265538
6.2405467 6.2168589 -1.2734064
5.7434864 6.3020959 -1.232627
5.2112207 6.3036499 -1.1823398
4.7196188 6.3050828 -1.1385428
4.4869628 6.3057604 -1.1187906
3.8333006 6.3076611 -1.0670239
3.6282616 6.3082557 -1.0520095
3.2344627 6.3093967 -1.0249611
2.5005858 6.3115172 -0.98140174
1.9864745 6.3129969 -0.9567284
1.8204687 6.3134742 -0.94986743
1.4950585 6.3144064 -0.93805522
1.3351953 6.3148642 -0.93306631
1.1628125 6.2396765 -0.91754395
0.85288084 6.2324634 -0.90936941
0.25007811 6.326057 -0.91521573
0.097363278 6.3264904 -0.91467297
-0.20796874 6.3273559 -0.91518307
-0.36093751 6.3277893 -0.91623867
-0.51434571 6.3282237 -0.9178316
-0.82322264 6.3290939 -0.92264783
-1.1361035 6.3299756 -0.92969036
-1.2945215 6.3304224 -0.93407035
-1.4545214 6.3308702 -0.93904102
-1.6163477 6.3313241 -0.94461936
-1.9463085 6.3322496 -0.95766181
-2.2863085 6.3331995 -0.97336644
-2.6384766 6.3341808 -0.9919408
-2.8198633 6.3346872 -1.0023818
-3.0052049 6.3352027 -1.0136422
-3.1948924 6.3357301 -1.0257623
-3.7938378 6.3373923 -1.0677565
-4.3869529 6.2529221 -1.1042131
-4.6181345 6.2558885 -1.1240832
-4.919414 6.3381739 -1.1598575
-5.1697264 6.3388619 -1.1824661
-5.9850683 6.3411059 -1.2605116
-6.5933785 6.3427768 -1.3225877
-6.9209471 6.3436742 -1.3571976
-7.2663083 6.3446217 -1.3945025
-9.7582521 6.6355371 -1.7059175
-9.9085255 6.3937354 -1.7047195
-10.053467 6.1489673 -1.7036362
-10.192588 5.9010839 -1.7025928
-10.325869 5.6501856 -1.7015905
-10.453252 5.3964438 -1.7006292
-10.690039 4.8808703 -1.6988322
-10.799345 4.6193395 -1.6979972
-12.043467 4.149745 -1.8414792
-12.220342 3.5614343 -1.8400896
-12.369814 2.9660082 -1.8388925
-12.434199 2.6660223 -1.8383666
-12.49166 2.3647277 -1.8378897
-12.542129 2.0622716 -1.8374618
-12.622128 1.4544312 -1.8367541
-12.697861 0.23154968 -1.8359338
-12.693486 -0.38105774 -1.8358225
-12.680732 -0.68711549 -1.8358417
-12.634121 -1.2980036 -1.8360299
-12.511699 -2.2089007 -1.8366858
-12.456923 -2.5104702 -1.8370037
-12.326621 -3.1096089 -1.8377874
-12.251143 -3.4068849 -1.8382531
-12.168798 -3.702446 -1.8387678
-12.079678 -3.9960959 -1.839331
-11.983749 -4.2877097 -1.8399427
-11.881093 -4.577147 -1.8406026
-11.771748 -4.8642707 -1.8413104
-11.268594 -5.9864392 -1.844614
-10.89873 -6.1315222 -1.8077623
-9.9670115 -6.2586007 -1.701367
-9.8189058 -6.5009665 -1.7023599
-9.3408298 -7.2075205 -1.7055823
-8.8136721 -7.8805399 -1.7091603
-8.4360743 -8.3089104 -1.7117356
-8.0383205 -8.7199335 -1.7144576
-7.1853418 -9.4861269 -1.7203219
-7.5589156 -10.495994 -1.8698449
-6.0004978 -11.542729 -1.8806411
-5.7261424 -11.695946 -1.882549
-5.4479489 -11.842832 -1.8844856
-5.1660938 -11.983263 -1.8864496
-4.880703 -12.117153 -1.8884399
-4.5919337 -12.244399 -1.8904558
-4.299912 -12.364942 -1.8924966
-4.004756 -12.478657 -1.8945609
-3.7066894 -12.585464 -1.8966476
-3.1023438 -12.778044 -1.9008838
-2.7963769 -12.863679 -1.9030312
-2.1777442 -13.013229 -1.9073788
-1.8653808 -13.077032 -1.9095767
-1.5512304 -13.13341 -1.9117889
-1.2354199 -13.182332 -1.9140146
-0.59966797 -13.25758 -1.9185007
1.3281054 -13.299366 -1.9321465
1.1766211 -7.9040279 -1.1552207
2.2943652 -13.215322 -1.9390106
2.6155372 -13.171648 -1.9412957
2.9359276 -13.120129 -1.9435775
3.5735741 -12.993593 -1.9481237
4.5193262 -12.745253 -1.9548806
4.8309374 -12.646943 -1.9571109
5.4474802 -12.427265 -1.9615291
6.0538864 -12.177046 -1.9658828
6.3527832 -12.040642 -1.9680319
6.6485157 -11.896765 -1.9701601
7.5150681 -11.421018 -1.976409
8.073554 -11.067885 -1.9804471
8.3465033 -10.88077 -1.982424
8.6149702 -10.68678 -1.9843709
8.8787889 -10.485983 -1.9862863
9.1018162 -8.8560848 -1.8358408
9.3209076 -8.6415119 -1.8374426
9.5347166 -8.4213428 -1.8390085
9.7431927 -8.195713 -1.8405375
10.143262 -7.7286491 -1.8434799
10.334648 -7.4874783 -1.8448917
11.039111 -6.4753056 -1.8501168
12.640185 -5.8583961 -2.0140054
12.921699 -5.2475495 -2.0161414
13.172246 -4.6226978 -2.0180612
13.731172 -2.6804004 -2.0224717
13.795449 -2.3490245 -2.0230038
13.851347 -2.0160635 -2.0234771
13.898788 -1.6817352 -2.0238907
13.937763 -1.3462505 -2.0242448
14.003447 -0.33507994 -2.0249448
14.008232 0.0027758789 -2.0250571
13.90373 1.6879247 -2.0247083
13.802324 2.3558393 -2.0241449
13.738975 2.6875689 -2.0237732
13.402333 3.9945629 -2.0216923
12.255146 4.3063011 -1.8778188
11.912158 4.8431005 -1.8589298
11.654092 5.406992 -1.8572326
11.514561 5.6836791 -1.8563083
11.214971 6.2256808 -1.8543121
11.055204 6.4906468 -1.8532492
9.6223822 6.2924476 -1.6620544
8.2567873 6.2964635 -1.5010769
7.4819236 6.298739 -1.4138489
6.0839648 6.2173166 -1.2575164
5.7994723 6.2198825 -1.2293751
5.3328514 6.3032947 -1.1935809
5.0777345 6.304039 -1.1701832
4.5956931 6.3054442 -1.1279404
4.3672462 6.3061094 -1.1088895
4.1462498 6.3067503 -1.0910932
3.325537 6.3091331 -1.0310009
3.1337304 6.3096886 -1.0184386
2.946455 6.3102293 -1.0067586
2.7633007 6.3107591 -0.99591589
1.5710937 6.314188 -0.94061702
1.2513866 6.315105 -0.93066907
0.9252246 6.2322569 -0.91081554
0.77213866 6.2326927 -0.90789241
0.47539061 6.3254161 -0.91698754
0.32222655 6.3258519 -0.91565722
0.016748047 6.3267188 -0.91460055
-0.13589844 6.3271518 -0.91487098
-0.75006837 6.3288889 -0.92131346
-1.0618457 6.3297668 -0.92782354
-1.5397754 6.3311105 -0.94191062
-1.8676367 6.3320289 -0.95435202
-2.0350487 6.3324976 -0.96154231
-2.2050977 6.3329735 -0.96941084
-2.3780468 6.3334556 -0.9779833
-2.9172559 6.3349586 -1.0082264
-3.1048534 6.3354807 -1.0199342
-4.2813869 6.2526307 -1.0954818
-4.8046188 6.3378577 -1.1497192
-5.0504198 6.3385339 -1.1716061
-5.3059373 6.3392382 -1.1950493
-5.8497458 6.340735 -1.2471255
-6.764277 6.3432455 -1.3405472
-7.1010547 6.3441696 -1.3765522
-7.4565916 6.3451428 -1.4153874
-7.8329978 6.3461742 -1.4573509
-8.232666 6.3472657 -1.5027745
-8.6583099 6.3484302 -1.5520614
-9.685586 6.7485642 -1.7065274
-10.26373 5.7689061 -1.7020583
-10.518134 5.2612867 -1.7001383
-10.636357 5.0034189 -1.699241
-10.748526 4.7430148 -1.6983858
-10.854609 4.4802308 -1.6975735
-11.269472 4.3363953 -1.7455834
-11.997764 4.287374 -1.8418347
-12.181074 3.7008824 -1.8404001
-12.26249 3.4048145 -1.8397546
-12.33705 3.1070421 -1.8391573
-12.465429 2.5070183 -1.8381084
-12.519189 2.2050829 -1.8376576
-12.565986 1.9020733 -1.8372558
-12.664335 0.98802245 -1.8363469
-12.694776 0.37606201 -1.835989
-12.647666 -1.1540893 -1.8359675
-12.425185 -2.6692412 -1.8371915
-12.287598 -3.2668571 -1.8380275
-12.122568 -3.8577886 -1.8390591
-11.930361 -4.4408898 -1.8402853
-11.82418 -4.7291112 -1.8409704
-11.711328 -5.0149221 -1.8417034
-11.465927 -5.5787668 -1.8433108
-11.182802 -6.1248503 -1.8432014
-10.593262 -6.1386528 -1.7699267
-10.048203 -6.1512513 -1.7031589
-9.4193068 -7.0985289 -1.7050519
-9.2515039 -7.3285513 -1.7061869
-9.0783005 -7.5547585 -1.7073615
-8.8997459 -7.7770538 -1.7085745
-8.5269918 -8.2093964 -1.7111146
-8.1339455 -8.6245852 -1.7138025
-6.6580758 -7.7794247 -1.480256
-7.2897654 -9.3998032 -1.7196023
-7.4281735 -10.596558 -1.8707477
-7.1770411 -10.782639 -1.8724835
-6.9214354 -10.96296 -1.8742523
-6.1285739 -11.46824 -1.8797512
-5.8560448 -11.624448 -1.8816454
-5.5796776 -11.774331 -1.8835684
-5.299531 -11.917813 -1.8855195
-5.0158005 -12.05481 -1.8874975
-4.7285838 -12.185201 -1.8895018
-4.4380469 -12.308922 -1.891531
-3.8476758 -12.535928 -1.8956604
-3.5480957 -12.639073 -1.8977586
-3.2458301 -12.735181 -1.8998773
-2.6338573 -12.905999 -1.9041727
-2.3244336 -12.980578 -1.9063472
-1.6996386 -13.107744 -1.9107435
-1.068037 -13.205148 -1.915195
-0.4309375 -13.272375 -1.9196924
0.85374999 -13.314917 -1.9287828
1.4984082 -13.289678 -1.9333551
2.1426466 -13.233212 -1.9379318
2.7848828 -13.145413 -1.9425014
3.4235644 -13.026264 -1.9470534
3.7411621 -12.954949 -1.9493197
4.0572166 -12.875834 -1.9515771
4.994668 -12.591908 -1.9582835
6.2121191 -12.105935 -1.9670204
6.5093846 -11.965561 -1.9691585
7.9433007 -11.153729 -1.9795045
8.2182617 -10.969912 -1.981495
8.7549124 -10.581562 -1.9853866
8.5387697 -9.3617268 -1.831735
8.9966602 -8.955348 -1.8350729
9.2181835 -8.7434387 -1.8366913
9.4345217 -8.5258846 -1.8382742
9.6455173 -8.3028326 -1.8398206
9.8510647 -8.0743971 -1.8413296
10.050986 -7.8406711 -1.8428003
10.245127 -7.6018677 -1.8442309
10.615527 -7.1094956 -1.8469691
10.791543 -6.8562336 -1.8482746
11.124531 -6.3362913 -1.8507541
12.156133 -6.1673517 -1.970541
12.858017 -5.392971 -2.0156565
13.115956 -4.7712822 -2.0176277
13.233134 -4.4555125 -2.0185316
13.342353 -4.1367788 -2.0193791
13.536562 -3.491169 -2.0209045
13.826055 -2.1733513 -2.0232613
13.920439 -1.5046417 -2.0240853
13.98082 -0.83182067 -2.0246694
14.007304 0.18127625 -2.0250921
13.922714 1.5296801 -2.0248063
13.829296 2.1987731 -2.0242996
13.702089 2.8621037 -2.0235529
13.625966 3.1910319 -2.0230899
13.448896 3.8423314 -2.0219867
12.683847 4.2954321 -1.9358938
11.7175 5.2752218 -1.857651
11.58125 5.553617 -1.8567506
11.438046 5.8283396 -1.8557998
10.968584 6.6291623 -1.8527377
8.8920698 6.2945957 -1.5749313
8.4538279 6.2958837 -1.5237761
8.0429487 6.297091 -1.4766715
7.2919626 6.2992945 -1.3930048
6.6199999 6.3012657 -1.3212185
5.9328613 6.2194934 -1.242563
4.9469237 6.30442 -1.1584573
4.2496095 6.3064513 -1.0993365
4.0323243 6.3070822 -1.0821723
3.6168554 6.3082886 -1.0511932
3.2236426 6.3094273 -1.0242518
3.0342772 6.3099756 -1.0121623
2.6681249 6.3110337 -0.99051327
2.490664 6.3115454 -0.98087752
1.977041 6.313025 -0.95632285
1.6475781 6.3139696 -0.94331795
1.3262109 6.3148899 -0.93280226
0.54283202 6.267694 -0.90945834
0.24145508 6.3260813 -0.91517109
-0.063867189 6.3269482 -0.91467679
-0.36958006 6.3278136 -0.91631401
-0.67709959 6.3286815 -0.92010224
-0.83199215 6.3291197 -0.92281646
-0.98791015 6.3295593 -0.92608577
-1.4636133 6.3308959 -0.93934005
-1.6255468 6.3313498 -0.94495285
-1.7895117 6.33181 -0.95118773
-2.1245215 6.3327465 -0.96561307
-2.2960742 6.3332276 -0.97385025
-2.6486132 6.3342099 -0.99250889
-3.4004004 6.3362999 -1.0395498
-3.6002049 6.3368554 -1.0535845
-3.8055859 6.3374243 -1.0686336
-4.3996973 6.2529578 -1.1052768
-5.1841407 6.3389025 -1.1837888
-5.445117 6.3396215 -1.2081056
-6.0014648 6.3411508 -1.2621443
-6.2991114 6.34197 -1.2921851
-6.6114159 6.3428259 -1.3244734
-6.9399414 6.3437281 -1.359228
-7.2863865 6.3446765 -1.3966933
-8.0410643 6.3467417 -1.48089
-8.4540625 6.3478723 -1.5283012
-8.8946486 6.3490744 -1.5797986
-9.7668552 6.6219664 -1.7058451
-10.061455 6.1350632 -1.7035762
-10.460283 5.382019 -1.7005762
-10.581338 5.1253867 -1.6996591
-10.805322 4.6045041 -1.6979514
-11.68499 4.3261671 -1.8012604
-12.048818 4.1332483 -1.8414373
-12.302734 3.2477129 -1.839433
-12.373662 2.9491155 -1.8388613
-12.544785 2.0451696 -1.8374391
-12.587891 1.7416137 -1.8370636
-12.623975 1.4372381 -1.836737
-12.653076 1.1321607 -1.8364601
-12.675117 0.82654232 -1.836233
-12.690146 0.52050781 -1.8360554
-12.699062 -0.092067868 -1.83585
-12.692939 -0.39833373 -1.8358221
-12.679805 -0.70437253 -1.8358444
-12.659609 -1.0100689 -1.8359164
-12.632402 -1.3152057 -1.8360381
-12.556973 -1.9232858 -1.8364313
-12.508799 -2.2259548 -1.8367022
-12.391553 -2.8276653 -1.837393
-12.163936 -3.7190678 -1.8387985
-12.074424 -4.0126109 -1.8393643
-11.875117 -4.5934143 -1.8406411
-11.649033 -5.1648884 -1.8421099
-11.526142 -5.4467325 -1.8429149
-11.396689 -5.7258019 -1.8437674
-11.260694 -6.0019431 -1.8446664
-10.865449 -6.1323013 -1.8036288
-9.8104 -6.5145469 -1.7024169
-9.4965725 -6.9887576 -1.7045299
-8.9846382 -7.6726952 -1.7079974
-8.616787 -8.1089144 -1.710502
-8.4251366 -8.3207502 -1.7118102
-8.228467 -8.5282412 -1.7131553
-6.5421581 -7.8441453 -1.4765887
-7.1727633 -9.4963732 -1.7204086
-6.5222754 -11.227158 -1.8770183
-6.255713 -11.392426 -1.8788681
-5.4321384 -11.850925 -1.8845956
-5.1500878 -11.990995 -1.8865609
-4.2833204 -12.371534 -1.8926126
-3.9880469 -12.484865 -1.894678
-3.6898143 -12.591267 -1.8967657
-3.3888183 -12.690697 -1.8988748
-3.0851953 -12.783059 -1.901004
-2.160166 -13.017037 -1.9075024
-1.847705 -13.080402 -1.9097012
-1.5334375 -13.136387 -1.911914
-1.2175683 -13.184862 -1.9141402
-0.90025389 -13.225849 -1.9163787
-0.5816797 -13.259249 -1.9186276
-0.26201171 -13.285053 -1.9208859
0.058613282 -13.303188 -1.923153
0.37991211 -13.313626 -1.9254266
1.0239648 -13.311281 -1.9299892
1.6686425 -13.27781 -1.9345639
2.9539745 -13.116982 -1.943706
4.2234864 -12.830911 -1.9527651
5.1577439 -12.534739 -1.9594519
5.7691503 -12.298872 -1.9638377
6.3695507 -12.032724 -1.9681525
6.6650877 -11.888423 -1.9702795
7.2460351 -11.577711 -1.9744668
7.5310254 -11.411466 -1.9765244
7.8120894 -11.238029 -1.9785556
8.3617773 -10.870004 -1.9825348
8.6299706 -10.675622 -1.9844797
8.427949 -9.4541407 -1.8309286
8.661562 -9.2567158 -1.8326292
9.7548046 -8.1828194 -1.8406227
10.530322 -7.2273827 -1.8463382
10.881963 -6.7206292 -1.8489468
11.048291 -6.4605355 -1.8501852
11.832265 -6.1733294 -1.9293084
12.648564 -5.8413696 -2.0140686
13.178828 -4.6048961 -2.0181119
13.291806 -4.2875514 -2.018986
13.66287 -2.9913831 -2.0219154
13.735039 -2.661742 -2.0225034
13.939687 -1.3273199 -2.0242627
13.991084 -0.65363705 -2.0247834
14.008242 0.021847533 -2.0250618
13.939795 1.3712115 -2.0248904
13.854384 2.0414093 -2.0244408
13.798965 2.3746068 -2.0241256
13.735117 2.7062395 -2.0237503
13.66292 3.0360844 -2.0233157
13.582393 3.3639195 -2.0228212
13.493613 3.6895299 -2.0222681
13.139843 4.2838221 -1.9979217
11.905253 4.8591928 -1.8588846
11.779365 5.1426463 -1.8580586
11.359677 5.9719114 -1.8552781
9.5939741 6.2925315 -1.6586227
9.1092281 6.2939572 -1.6006045
8.6569729 6.2952867 -1.5473776
7.8359766 6.297699 -1.4532835
7.1074901 6.2998376 -1.372987
6.7721872 6.3008189 -1.3371979
6.3664842 6.2164903 -1.2863282
5.7841697 6.2204232 -1.2279243
5.5832419 6.3025632 -1.2171943
5.3181739 6.3033371 -1.1922166
4.1339746 6.306787 -1.090124
3.9202049 6.3074069 -1.0735704
3.7127147 6.3080101 -1.0581179
3.5109961 6.3085947 -1.0437028
2.9360352 6.3102598 -1.0061264
2.7531152 6.3107886 -0.9953292
2.3982713 6.3118124 -0.97608984
1.8891406 6.3132763 -0.95263821
1.5619922 6.3142138 -0.94030499
1.4013964 6.3146739 -0.93506539
1.2424804 6.3151307 -0.9304232
1.0720215 6.2399354 -0.91526747
0.76352537 6.2327185 -0.90774381
0.61138672 6.2331519 -0.90539557
0.16078125 6.3263111 -0.91483337
0.0081542963 6.3267441 -0.9146015
-0.14453125 6.3271775 -0.91490203
-0.60431641 6.3284764 -0.91901249
-0.75879884 6.3289132 -0.92146719
-0.91420895 6.3293505 -0.92447299
-1.3878515 6.3306832 -0.9369033
-1.548916 6.3311362 -0.9422276
-2.3878906 6.3334837 -0.97848755
-3.115576 6.3355103 -1.0206221
-3.3079491 6.3360434 -1.0332646
-3.7079785 6.337153 -1.0614039
-5.3206835 6.3392782 -1.196424
-5.8657713 6.3407788 -1.2487047
-6.1569529 6.3415794 -1.2777429
-6.4621482 6.3424168 -1.3089447
-6.7828026 6.3432956 -1.3425075
-7.1205664 6.3442221 -1.3786626
-8.2559862 6.3473301 -1.5054557
-8.6831636 6.3484974 -1.5549661
-9.6943455 6.7350802 -1.7064538
-9.8465719 6.494421 -1.7051733
-9.9939547 6.251029 -1.7040814
-10.135517 6.0044236 -1.7030212
-10.401054 5.5021811 -1.7010236
-10.52497 5.2467737 -1.7000865
-10.860439 4.465343 -1.6975288
-11.312627 4.3353357 -1.7513533
-12.097968 3.9785838 -1.8410532
-12.185849 3.6842418 -1.8403625
-12.341054 3.0901642 -1.839125
-12.40831 2.7907782 -1.8385791
-12.468623 2.4900055 -1.838082
-12.522021 2.1880126 -1.8376336
-12.568418 1.8849456 -1.8372346
-12.607822 1.5809399 -1.8368847
-12.640215 1.2761804 -1.8365847
-12.695234 0.35875121 -1.8359817
-12.699502 0.052433472 -1.8358804
-12.696718 -0.2538794 -1.8358291
-12.686865 -0.56004149 -1.8358277
-12.670029 -0.86590391 -1.835876
-12.615205 -1.4761083 -1.8361228
-12.577294 -1.7801455 -1.8363204
-12.480508 -2.3853765 -1.8368655
-12.355957 -2.9856863 -1.8376085
-12.203828 -3.5799036 -1.8385482
-12.11751 -3.8743517 -1.8390912
-12.024414 -4.1668334 -1.8396827
-11.818007 -4.745286 -1.8410105
-11.584931 -5.3141117 -1.8425295
-11.458711 -5.5945115 -1.8433584
-11.325615 -5.8720498 -1.8442367
-11.148242 -6.1256638 -1.838877
-10.561357 -6.1393943 -1.7659934
-10.026962 -6.1569681 -1.700966
-9.8811522 -6.4006958 -1.7019422
-9.7296972 -6.6411686 -1.7029593
-9.4099607 -7.1116323 -1.7051148
-9.0683498 -7.5674143 -1.7074288
-8.516201 -8.2213316 -1.7111883
-8.3218651 -8.4308853 -1.7125163
-8.1225386 -8.6360703 -1.7138805
-7.9183397 -8.8366718 -1.7152804
-7.2773533 -9.4101906 -1.7196878
-7.0545797 -9.5915308 -1.7212238
-5.5639548 -11.782606 -1.883678
-5.2836032 -11.92572 -1.8856305
-4.712285 -12.192361 -1.8896154
-4.4216013 -12.315689 -1.891646
-3.5311034 -12.644686 -1.8978775
-1.9953613 -13.051435 -1.9086617
-1.6819335 -13.110885 -1.9108682
-1.366748 -13.162927 -1.9130889
-0.73208982 -13.244446 -1.9175656
-0.092724606 -13.295582 -1.9220827
0.54983395 -13.316018 -1.9266298
0.87190425 -13.314631 -1.9289114
1.5166113 -13.288513 -1.9334843
1.0952442 -7.8999615 -1.1529565
2.1608105 -13.231147 -1.9380609
3.122793 -13.086367 -1.9449089
3.7590039 -12.950695 -1.9494472
4.3893261 -12.783802 -1.9539509
4.7017775 -12.688716 -1.9561862
5.3202343 -12.475405 -1.9606167
5.6258688 -12.357256 -1.9628091
6.2289648 -12.098211 -1.9671414
6.8198729 -11.809219 -1.9713943
7.110332 -11.653617 -1.973488
7.3970799 -11.490768 -1.9755569
7.6800194 -11.320705 -1.9776007
7.9589353 -11.143535 -1.9796176
8.2336617 -10.959337 -1.9816064
8.503994 -10.768189 -1.9835658
8.3161135 -9.5452089 -1.8301152
8.5519333 -9.3506069 -1.8318307
8.7830658 -9.149991 -1.8335147
9.009326 -8.9435253 -1.8351654
9.6572657 -8.2900829 -1.8399069
9.8624802 -8.0613422 -1.8414137
10.255869 -7.5882654 -1.8443103
10.970644 -6.5837469 -1.8496066
11.133554 -6.3213763 -1.8508215
11.521513 -6.1790261 -1.8899795
12.865732 -5.3755894 -2.0157149
12.998154 -5.0662518 -2.0167251
13.34829 -4.1187043 -2.0194254
13.625917 -3.1462255 -2.0216177
13.769775 -2.486836 -2.02279
13.956592 -1.1496478 -2.0244238
13.982031 -0.81279236 -2.0246823
13.998936 -0.47535643 -2.0248804
14.007304 -0.13758239 -2.025018
14.007051 0.20031616 -2.0250947
13.998271 0.53816527 -2.025111
13.980888 0.87562013 -2.0250661
13.955009 1.2125164 -2.0249612
13.920527 1.5486237 -2.0247951
13.698027 2.8806927 -2.0235283
13.536513 3.5362523 -2.0225365
13.443418 3.8606017 -2.0219522
12.631162 4.2967701 -1.9287442
12.077471 4.4362268 -1.8600062
11.573339 5.5691857 -1.8566983
11.429775 5.8437657 -1.8557451
11.279385 6.1144371 -1.8547424
11.122041 6.3809314 -1.8536419
10.959219 6.6438937 -1.8526821
8.0205564 6.2971568 -1.4741299
7.6353416 6.2982874 -1.4308459
7.2719531 6.2993541 -1.3908247
6.2067575 6.216958 -1.2699555
5.9167576 6.2195396 -1.2409638
5.7122364 6.3021874 -1.2295979
4.9330955 6.3044605 -1.1572284
4.6929297 6.305161 -1.136243
4.4611716 6.3058362 -1.1166431
4.0202537 6.3071165 -1.0812392
3.8098631 6.3077283 -1.0652754
3.6054883 6.3083215 -1.0503789
3.406621 6.3088989 -1.0364878
3.2128417 6.3094592 -1.0235469
3.023711 6.3100071 -1.0115054
2.6580079 6.3110619 -0.98994917
2.480752 6.3115745 -0.98035598
2.3067772 6.3120751 -0.97150666
1.9676269 6.3130517 -0.95592171
1.8018945 6.3135266 -0.94913524
1.638418 6.3139963 -0.9429878
1.4769238 6.3144593 -0.93746191
1.3172363 6.3149142 -0.93254018
0.83560544 6.232512 -0.90904099
0.23285155 6.326107 -0.91512775
0.080136716 6.3265405 -0.91464359
-0.22521484 6.3274045 -0.91527528
-0.37823242 6.327837 -0.91639149
-0.53168947 6.3282723 -0.91804504
-0.9967187 6.3295846 -0.926287
-1.4727148 6.3309216 -0.93964094
-2.30583 6.3332529 -0.9743349
-2.4806054 6.3337412 -0.98333168
-2.8405859 6.3347449 -1.003613
-3.2166014 6.3357897 -1.0271863
-3.6116307 6.3368869 -1.0544063
-4.1898341 6.2523766 -1.088027
-4.4124804 6.2529917 -1.1063422
-4.9472165 6.3382506 -1.1623349
-5.4601755 6.3396616 -1.2095293
-5.7329197 6.3404126 -1.2357022
-6.0178905 6.3411961 -1.2637817
-6.3163085 6.3420167 -1.293942
-8.9204006 6.3491464 -1.5828353
-9.7754488 6.608386 -1.7057729
-9.9251556 6.3662901 -1.7045954
-10.069433 6.1211681 -1.7035164
-10.207949 5.8728881 -1.7024776
-10.467256 5.3675985 -1.7005234
-10.811298 4.5896692 -1.6979057
-11.730888 4.325038 -1.8074276
-12.05416 4.1167808 -1.8413957
-12.229521 3.5279858 -1.8400167
-12.441045 2.6320801 -1.8383104
-12.590097 1.7244818 -1.8370439
-12.625811 1.4200592 -1.8367201
-12.690801 0.50323182 -1.8360468
-12.698369 0.19696532 -1.835922
-12.698896 -0.10936157 -1.8358471
-12.692383 -0.41561645 -1.8358221
-12.678857 -0.7216388 -1.8358471
-12.658281 -1.0272796 -1.8359216
-12.596045 -1.6368542 -1.836221
-12.554453 -1.9404242 -1.8364451
-12.505859 -2.2430055 -1.8367192
-12.387832 -2.844568 -1.8374155
-12.318457 -3.1432474 -1.8378375
-12.242167 -3.440331 -1.8383089
-12.06918 -4.0290918 -1.8393975
-11.9725 -4.3205185 -1.8400149
-11.869102 -4.6097007 -1.8406802
-11.518974 -5.4625549 -1.8429621
-10.832412 -6.1330743 -1.7995248
-10.26958 -6.1461549 -1.7301574
-9.8018551 -6.5281472 -1.7024744
-9.6473923 -6.7667856 -1.7035131
-8.9745607 -7.6852093 -1.7080659
-8.6061325 -8.1209726 -1.7105746
-8.4141502 -8.3326015 -1.7118853
-8.0152826 -8.74259 -1.7146155
-7.8085351 -8.9407692 -1.7160342
-6.5298142 -7.851038 -1.4762115
-6.3113084 -7.971848 -1.4698688
-7.2818651 -10.70605 -1.8717587
-7.0281153 -10.888783 -1.8735137
-6.5073242 -11.236647 -1.8771222
-6.2405763 -11.401567 -1.8789734
-5.9697165 -11.560329 -1.8808551
-5.694922 -11.712844 -1.8827662
-5.416338 -11.858996 -1.8847057
-5.1340919 -11.998698 -1.8866726
-4.5591016 -12.258368 -1.8906854
-4.2667189 -12.378115 -1.8927287
-3.6728904 -12.597085 -1.8968844
-2.7617285 -12.872898 -1.9032747
-2.4532225 -12.950483 -1.9054419
-1.8299804 -13.083767 -1.9098257
-0.243916 -13.286273 -1.9210137
0.076718748 -13.303974 -1.9232811
0.39805663 -13.313976 -1.9255549
0.71996093 -13.316252 -1.9278347
1.0421679 -13.310762 -1.9301183
1.3645313 -13.297482 -1.932405
1.6868652 -13.276406 -1.9346932
2.0089648 -13.247507 -1.9369814
2.3306639 -13.210777 -1.9392687
2.6517382 -13.166216 -1.9415536
3.6094334 -12.985513 -1.9483795
4.2412696 -12.825976 -1.9528923
4.5546093 -12.734553 -1.9551332
4.8659668 -12.635376 -1.9573617
5.1751466 -12.528493 -1.9595767
5.7862496 -12.29178 -1.9639604
6.0877442 -12.162038 -1.9661263
6.6817284 -11.88005 -1.9703994
7.2622461 -11.568509 -1.9745839
7.5470214 -11.401843 -1.9766399
7.8278317 -11.228012 -1.9786694
8.6449413 -10.664463 -1.9845883
8.903203 -9.0416565 -1.8343909
9.1267967 -8.8321476 -1.8360233
9.7663479 -8.1699228 -1.8407075
9.9686232 -7.9384012 -1.842194
10.165185 -7.7016611 -1.8436415
10.355879 -7.4599271 -1.8450483
11.223076 -6.1844573 -1.8524508
12.800595 -5.5203137 -2.0152202
13.06497 -4.9014835 -2.0172365
13.297958 -4.2695251 -2.0190337
13.40248 -3.9491363 -2.0198486
13.587158 -3.3005939 -2.0213072
13.667168 -2.9728062 -2.0219502
13.903604 -1.6439193 -2.0239336
13.941621 -1.3083191 -2.024281
13.971084 -0.97181273 -2.0245678
13.990166 0.7164557 -2.0250947
13.795605 2.3933403 -2.024106
13.731259 2.7249365 -2.0237274
13.658613 3.0546758 -2.0232894
13.390937 4.0308924 -2.02162
13.083858 4.2852488 -1.9902917
12.174678 4.3153028 -1.867282
12.0175 4.5887766 -1.8596168
11.89835 4.8752599 -1.8588394
11.77204 5.1585727 -1.8580105
11.197275 6.255796 -1.8541937
9.0829096 6.2940345 -1.5974824
8.6323042 6.2953587 -1.5444989
7.814209 6.2977633 -1.450837
7.4408398 6.2988596 -1.4093219
-3.0833788 6.3352757 -1.1810902
-3.471416 6.33635 -1.211128
-3.6731737 6.3369064 -1.227816
-4.256289 6.2524047 -1.2679031
-5.5412889 6.3397131 -1.4114715
-6.1065135 6.3412595 -1.475738
-6.4092579 6.3420858 -1.5114775
-6.7271676 6.3429542 -1.549915
-8.2410736 6.0770741 -1.7164578
-8.3802052 5.8729978 -1.7154248
-8.5144625 5.6658554 -1.7144256
-8.6437988 5.4557614 -1.7134607
-8.8873529 5.0271945 -1.7116358
-9.0015135 4.8089523 -1.7107764
-9.1104975 4.5882249 -1.7099533
-9.2142773 4.3651366 -1.7091662
-9.7372456 4.3284836 -1.7862829
-10.214326 4.2485557 -1.854459
-10.698438 2.7253649 -1.8506761
-10.812012 2.205147 -1.8497506
-10.859707 1.9433013 -1.8493521
-10.901319 1.6804693 -1.8489963
-10.989492 0.88747311 -1.8481876
-11.022392 0.09054748 -1.8477694
-11.021064 -0.17533386 -1.8477169
-11.013584 -0.44110534 -1.8477083
-10.954247 -1.2364361 -1.847944
-10.922207 -1.5004284 -1.8481097
-10.884072 -1.7636359 -1.8483186
-10.839863 -2.0259261 -1.8485708
-10.78956 -2.2871587 -1.8488666
-10.733222 -2.5472019 -1.8492053
-10.670859 -2.8059289 -1.8495871
-10.602519 -3.0632002 -1.8500112
-10.528213 -3.3188777 -1.8504782
-10.269863 -4.0750518 -1.8521327
-9.844306 -5.0530872 -1.85492
-9.5975971 -5.5268378 -1.8565576
-9.4659863 -5.7594495 -1.8574358
-8.6238375 -6.1431971 -1.7749176
-8.2116404 -6.1534386 -1.7201358
-8.0368652 -6.3308387 -1.7150227
-7.0668554 -7.4524155 -1.7216334
-6.673193 -7.754252 -1.7149315
-6.3345118 -8.1222477 -1.7266656
-6.1414843 -8.2790499 -1.7279965
-5.9446874 -8.4313889 -1.7293555
-5.5400977 -8.7223663 -1.7321535
-4.9073439 -9.1231613 -1.7365428
-4.689961 -9.2469177 -1.7380538
-4.469492 -9.3656015 -1.739588
-4.1166697 -10.523322 -1.8942224
-2.8339942 -10.994045 -1.9031991
-2.5704784 -11.069942 -1.9050479
-2.0376368 -11.203001 -1.9087917
-1.7685742 -11.260049 -1.9106841
-0.40293944 -11.448449 -1.9203143
0.1499414 -11.477885 -1.9242238
0.70473629 -11.480696 -1.9281532
0.98245114 -11.472055 -1.9301224
1.2601659 -11.456706 -1.9320931
2.0915918 -11.370275 -1.9380029
2.9170702 -11.223242 -1.9438843
3.7320702 -11.015856 -1.9497057
4.267334 -10.844315 -1.9535372
4.892168 -9.5978212 -1.805849
5.3592672 -9.3681374 -1.8092111
5.5887594 -9.2445917 -1.8108654
5.815371 -9.1153221 -1.8125006
6.0389061 -8.9803925 -1.8141154
6.2592578 -8.8398809 -1.8157089
6.4762497 -8.6938562 -1.8172799
6.6897459 -8.5423851 -1.8188275
6.8996387 -8.3855648 -1.8203506
7.1057224 -8.2234602 -1.8218482
7.3078904 -8.0561829 -1.8233191
7.6999607 -7.7064385 -1.8261776
8.7684278 -6.5432763 -1.8340163
8.9294825 -6.3339872 -1.8352059
9.1714935 -6.1786389 -1.853771
9.6515522 -6.1689019 -1.9201541
10.167265 -6.1582499 -1.9926159
10.757402 -5.1713147 -2.0008278
11.00456 -4.6508608 -2.0026996
11.118369 -4.3859844 -2.0035672
11.325937 -3.847749 -2.0051627
11.586269 -3.0218363 -2.0071983
11.659141 -2.7422957 -2.0077796
11.72501 -2.4609253 -2.0083115
11.783789 -2.177922 -2.0087938
11.835429 -1.8934765 -2.0092254
11.917197 -1.3209631 -2.0099378
11.970049 -0.74489743 -2.0104458
11.993867 -0.16678527 -2.0107489
11.954082 0.98946714 -2.0107355
11.925947 1.2774255 -2.0106032
11.847988 1.8506957 -2.010184
11.798223 2.1356292 -2.0098975
11.443067 3.5358093 -2.0077071
11.351132 3.8096702 -2.0071194
11.252373 4.0810595 -2.0064828
10.298974 4.30796 -1.8713849
10.052031 4.4925294 -1.8456717
9.9366302 4.7317209 -1.8449099
9.8153419 4.9678502 -1.8441055
9.5553417 5.4303198 -1.8423712
9.2727633 5.8787513 -1.8404735
9.123271 6.0973582 -1.8394655
8.9684572 6.3120446 -1.8384185
7.3318458 6.2989807 -1.6203402
6.9848828 6.3000035 -1.5767928
6.6558886 6.3009729 -1.5363976
6.2573338 6.2166281 -1.4785867
5.9633789 6.2174935 -1.4441568
5.4866796 6.3026757 -1.4007748
5.2255173 6.3034396 -1.3725251
4.9745407 6.3041759 -1.3461595
4.7328711 6.304884 -1.3215421
4.4997559 6.3055649 -1.2985526
3.8449609 6.3074741 -1.2382938
2.6883299 6.3108349 -1.1498774
2.1645215 6.3123474 -1.1186267
1.995869 6.3128343 -1.1098566
1.829746 6.3133116 -1.1018579
1.6659082 6.3137827 -1.0946081
1.5041015 6.3142481 -1.0880795
1.171582 6.2395201 -1.0642154
0.25870118 6.3259034 -1.0613034
0.10597656 6.3263364 -1.0606374
-0.046640623 6.3267698 -1.0605906
