# .PCD v0.7 - Point Cloud Data file format
VERSION 0.7
FIELDS x y z
SIZE 4 4 4
TYPE F F F
COUNT 1 1 1
WIDTH 1484
HEIGHT 1
VIEWPOINT 0 0 0 1 0 0 0
POINTS 1484
DATA ascii
-18.496532 -21.699293 -0.88319427
-17.611641 -21.700661 -0.86569595
-16.760633 -21.701975 -0.84934384
-15.941816 -21.70476 -0.83417028
-14.385127 -21.707544 -0.80663818
-13.643857 -21.70887 -0.79421127
-12.927949 -21.715919 -0.78283262
-12.229707 -21.718733 -0.7720688
-3.738369 -7.9315343 -0.27160454
-9.6034565 -21.71913 -0.73558789
-8.9838181 -21.72014 -0.72806448
-7.7799706 -21.722103 -0.71470839
-7.1946483 -21.725628 -0.70889908
-6.6179881 -21.727505 -0.70354581
-6.0496387 -21.729357 -0.69867229
-5.4887791 -21.731186 -0.69426811
-4.934629 -21.732992 -0.69031674
-3.8426757 -21.732534 -0.68361562
-3.3041406 -21.732996 -0.68092072
-2.7695117 -21.733452 -0.67864478
-2.2381151 -21.733908 -0.67677414
-1.182832 -21.74081 -0.67442572
-0.13245116 -21.742317 -0.67348737
0.39225584 -21.743067 -0.67360961
3.036123 -21.749882 -0.680242
3.5732129 -21.750551 -0.6827606
4.1146193 -21.751223 -0.68570119
5.2137694 -21.755337 -0.69296104
5.7725391 -21.7565 -0.69723302
6.3386621 -21.757685 -0.70196813
7.4958105 -21.760098 -0.71290457
8.6798143 -21.731133 -0.72483665
11.203349 -21.703112 -0.75655591
12.857275 -22.208237 -0.79487473
14.286426 -8.0876207 -0.50854295
22.629883 -8.1634121 -0.74518263
26.278095 6.2344327 -0.83656585
21.629629 6.2478642 -0.69737875
18.300528 6.2574162 -0.59908676
16.737803 6.1781096 -0.5526439
15.798476 6.2685342 -0.52647823
12.231572 6.2787652 -0.42587787
10.900615 6.2777472 -0.38964233
9.2840328 6.2823796 -0.34722975
8.3857813 6.2849541 -0.32460693
7.9786034 6.2861209 -0.3146283
7.5955758 6.2872186 -0.30542022
7.2341208 6.2882538 -0.29690009
6.4783983 6.2047334 -0.27786285
5.9629297 6.2899981 -0.26846892
5.6818066 6.2908039 -0.26257294
4.9061232 6.2930217 -0.24716613
4.2129784 6.2950044 -0.23462822
3.787246 6.2962213 -0.22759025
3.5835936 6.296802 -0.22441857
3.3854296 6.2973676 -0.22146225
3.1922948 6.2979202 -0.21870834
3.0038183 6.2984586 -0.21614608
2.2890429 6.3004985 -0.20763992
2.1185546 6.3009844 -0.20591056
1.7855176 6.3019328 -0.20288634
1.284375 6.2178373 -0.1966642
0.83240235 6.3029132 -0.19692954
0.37182617 6.3042254 -0.19561286
0.219375 6.3046589 -0.19540557
0.0671582 6.3050909 -0.19531181
-0.085000001 6.3055243 -0.19533141
-0.23727539 6.3059564 -0.19546592
-0.54292965 6.3068242 -0.19607642
-0.69663084 6.3072624 -0.19655631
-0.85118163 6.3076997 -0.19715278
-1.1635938 6.3085871 -0.19870543
-1.3218163 6.3090363 -0.19966629
-1.6434277 6.3099494 -0.20197174
-1.807207 6.3104129 -0.20332351
-2.1419237 6.3113618 -0.20644675
-2.6658592 6.3128471 -0.21226257
-3.0331151 6.3138862 -0.21696991
-3.2231348 6.3144245 -0.2195974
-3.4179394 6.3149762 -0.2224205
-3.9817576 6.2327824 -0.22909507
-4.1973143 6.2333918 -0.23277503
-4.7192187 6.3267546 -0.24448578
-5.2137303 6.3281522 -0.25397423
-5.7495313 6.3296647 -0.26487321
-6.9797168 6.3331389 -0.29193252
-7.6977539 6.3351655 -0.30880454
-8.0892477 6.3362699 -0.31828362
-8.5057716 6.3374443 -0.3285588
-11.736738 6.3442278 -0.41326284
-13.233613 6.3484464 -0.45464313
-14.101445 6.3508902 -0.47905168
-16.172001 6.3639092 -0.53832257
-17.402002 6.3673749 -0.57398045
-18.807098 6.3713346 -0.61507523
-22.267265 6.3639288 -0.7173503
-24.513252 6.3702545 -0.78452706
-27.298584 6.3951154 -0.86847448
-11.328359 -7.9932718 -0.42945731
-19.779619 -21.699554 -0.90950042
-18.840742 -21.698765 -0.89013624
-17.942207 -21.700148 -0.87217277
-17.07872 -21.701485 -0.85542691
-13.921396 -21.70837 -0.79881161
-13.197206 -21.714838 -0.78710234
-11.136152 -21.723135 -0.75614935
-8.0042677 -21.721737 -0.71706498
-7.4151168 -21.724907 -0.71105343
-6.8350778 -21.726799 -0.70551443
-5.6999803 -21.730497 -0.69588101
-5.1434083 -21.732311 -0.69176543
-4.0475388 -21.732361 -0.68474281
-2.9712012 -21.73328 -0.67945647
-0.85595703 -21.74128 -0.67396468
0.71878904 -21.743534 -0.67387938
2.3017187 -21.74897 -0.67744255
4.4537888 -21.751644 -0.68774039
5.5604782 -21.75606 -0.69556594
6.6946092 -21.758427 -0.70515364
7.2741599 -21.759636 -0.71066868
8.4627247 -21.761982 -0.72326171
10.290351 -21.673689 -0.74317575
11.656201 -21.772627 -0.76498348
12.487744 -22.03104 -0.78442311
23.135965 6.242969 -1.2829317
17.921766 6.2581205 -1.0162896
16.586308 6.2447453 -0.94883126
12.777871 6.2769132 -0.76216918
11.870156 6.1909099 -0.71672428
10.739286 6.2779593 -0.66597885
10.170606 6.2795987 -0.63992554
9.1556931 6.282526 -0.59446782
8.6999311 6.2838383 -0.57455498
8.2734766 6.2850676 -0.55624825
7.8731246 6.286221 -0.5393759
6.7105956 6.203886 -0.48926952
5.8859277 6.2900457 -0.4611893
4.3752732 6.2943854 -0.41039392
4.1540818 6.2950201 -0.40378052
3.9398046 6.2956352 -0.39760512
3.3329394 6.2973747 -0.38144851
2.9537792 6.298461 -0.37243742
2.7706444 6.298985 -0.36840671
2.415498 6.3000007 -0.36122143
2.0731444 6.3009806 -0.35512275
1.0871387 6.2182732 -0.33795401
0.93342769 6.2204461 -0.3367494
0.79083008 6.3029046 -0.34008139
0.63680661 6.3033438 -0.33917657
0.48354492 6.3037786 -0.33847365
0.33080077 6.3042145 -0.33796957
-0.27826172 6.3059464 -0.33792701
-1.2059667 6.3085785 -0.34385481
-1.5249707 6.3094831 -0.34751433
-1.687207 6.3099408 -0.34967971
-1.8515819 6.3104081 -0.35208029
-2.0183399 6.3108783 -0.35472161
-2.3599608 6.3118439 -0.36076179
-2.5353808 6.3123393 -0.36418235
-2.7142479 6.3128457 -0.36788335
-2.896914 6.3133621 -0.37187904
-3.274951 6.3144279 -0.38081607
-3.471123 6.3149819 -0.38578981
-3.6725879 6.3155499 -0.39112571
-3.8332422 6.240314 -0.39207807
-4.0389452 6.2327948 -0.39761856
-4.2563572 6.2334061 -0.40409559
-5.2830763 6.3281827 -0.44133458
-5.8249412 6.3297052 -0.46052608
-6.4175391 6.3313699 -0.48263514
-6.7360544 6.3322663 -0.49495363
-7.0714746 6.3332071 -0.50821906
-8.6221285 6.3375592 -0.57288259
-8.9945307 6.2827387 -0.58738053
-9.4297266 6.2537055 -0.60577053
-11.254434 6.342608 -0.69162107
-11.921445 6.3444767 -0.72299117
-12.652256 6.3465228 -0.75780243
-14.239922 6.3024273 -0.8336916
-15.364316 6.3613005 -0.89027113
-16.486591 6.3644414 -0.94612473
-17.759922 6.3680048 -1.0100857
-24.896494 6.2976642 -1.3748662
-28.47753 6.4766116 -1.5635321
-28.60577 5.7835989 -1.5624526
-28.718575 5.0884171 -1.5614544
-28.362919 -6.7867298 -1.5613269
-27.657871 -9.5164423 -1.5659177
-20.016045 -7.9865427 -1.1537296
-11.551963 -7.849462 -0.74772108
-20.490986 -21.698381 -1.5977861
-18.596016 -21.699743 -1.5299652
-17.707148 -21.701103 -1.4994917
-16.852549 -21.702412 -1.4710445
-15.236201 -21.706966 -1.4198223
-14.468135 -21.708326 -1.396665
-13.005176 -21.715117 -1.3551103
-12.304824 -21.717943 -1.3363644
-3.7514746 -7.9052572 -0.46846303
-9.6722164 -21.719679 -1.2728893
-9.0511522 -21.720686 -1.2597803
-8.4423628 -21.721672 -1.2476546
-7.844873 -21.722643 -1.2364714
-7.2584176 -21.725988 -1.2263366
-6.6807423 -21.727865 -1.2169851
-6.1114941 -21.729719 -1.2084759
-4.9949512 -21.733351 -1.1938604
-4.4455762 -21.73237 -1.1875771
-3.3628416 -21.733294 -1.1773797
-2.8277929 -21.733751 -1.1733657
-1.7670312 -21.734661 -1.1674467
-0.71466798 -21.741297 -1.1645902
0.86004883 -21.743555 -1.1649938
1.3862109 -21.744307 -1.1664826
1.9143066 -21.748049 -1.1688221
2.9775975 -21.749367 -1.1752561
4.0551462 -21.750706 -1.1845285
4.6009669 -21.751381 -1.1902688
5.1531153 -21.755077 -1.1969266
5.7111425 -21.756245 -1.2042264
7.431572 -21.75983 -1.231012
8.0234375 -21.761364 -1.2416997
9.2206249 -21.717991 -1.2631663
13.947685 -22.939995 -1.4373246
5.736455 -8.0577765 -0.52954155
14.278105 -8.1326742 -0.87971067
22.586727 -8.2151833 -1.2867254
26.584082 6.2330084 -1.4618275
23.995243 6.2404876 -1.3273636
14.864316 6.2708917 -0.86370975
13.922753 6.2736087 -0.81755674
11.458964 6.196929 -0.69743592
10.380351 6.2789946 -0.64949143
9.3364058 6.2820048 -0.60245448
8.8686428 6.2833524 -0.58188814
8.0216408 6.2857928 -0.54559606
7.6361132 6.2869034 -0.52954125
6.9283786 6.2889395 -0.50094223
6.5123825 6.2044559 -0.48154721
5.9942284 6.2897344 -0.46515793
5.4413867 6.2913237 -0.44531977
4.9326563 6.2927847 -0.42805976
4.2368946 6.2947831 -0.4062286
3.6054981 6.2965937 -0.38845173
3.4067383 6.2971625 -0.3833023
3.0241113 6.2982597 -0.37404203
2.8394334 6.2987885 -0.3698954
2.4815917 6.2998123 -0.36249441
1.9689648 6.3012772 -0.35343444
1.8034277 6.3017511 -0.35091713
1.1456738 6.2181058 -0.33849877
0.69496089 6.3031778 -0.33949578
0.54141599 6.3036137 -0.33871612
0.38849607 6.3040509 -0.33813706
0.083789058 6.3049173 -0.33757406
-0.52615231 6.3066497 -0.33880988
-0.67978513 6.3070855 -0.3396154
-0.98970699 6.3079658 -0.34183714
-1.4641309 6.3093095 -0.34675482
-1.7891504 6.3102298 -0.35114509
-2.2944629 6.3116593 -0.35953915
-3.2020702 6.3142228 -0.37902489
-3.5957518 6.3153324 -0.3890636
-3.9585254 6.2325678 -0.39528239
-4.1733007 6.2331729 -0.40159324
-4.9347067 6.3272014 -0.42957827
-5.7188964 6.3294086 -0.45668808
-6.0033102 6.3302069 -0.46706364
-6.6137204 6.3319221 -0.49018806
-6.9425488 6.3328447 -0.50308508
-8.0450287 6.3359394 -0.54824007
-8.8999901 6.3383379 -0.58495992
-9.2446966 6.2531867 -0.59752107
-9.8765821 6.338747 -0.6282919
-10.424013 6.340281 -0.65318906
-11.017012 6.3419428 -0.68055904
-11.662216 6.3437505 -0.71075249
-13.143456 6.3478985 -0.78142983
-14.001454 6.3502994 -0.82308799
-14.758007 6.2686296 -0.8584165
-28.559189 6.0459747 -1.5628588
-28.677666 5.3515229 -1.561819
-28.10535 -7.8995938 -1.5629771
-27.927197 -8.5818195 -1.5641389
-19.885489 -21.700451 -1.5758047
-18.039072 -21.700596 -1.5107647
-17.171894 -21.701921 -1.4815948
-16.338486 -21.705021 -1.4544419
-14.755605 -21.707819 -1.405237
-14.002842 -21.70915 -1.3830361
-13.275195 -21.714027 -1.3625436
-11.878858 -21.71966 -1.3253495
-9.2845116 -21.720304 -1.2646202
-8.6711817 -21.7213 -1.2521275
-5.7613964 -21.730856 -1.2035968
-5.2040625 -21.73267 -1.1963944
-4.6529784 -21.734463 -1.1899601
-2.4967871 -21.734034 -1.1712277
-1.9668067 -21.734488 -1.1683556
-0.91333008 -21.741013 -1.1649749
-0.38824219 -21.741764 -1.1641725
0.13647461 -21.742517 -1.1640509
0.66138673 -21.743267 -1.164607
1.18708 -21.74402 -1.1658421
1.7144531 -21.747799 -1.1679248
2.7756152 -21.749119 -1.1738254
3.8500586 -21.750452 -1.1825528
4.3939452 -21.751125 -1.1880029
6.061748 -21.756975 -1.2091645
7.210371 -21.759369 -1.2272254
7.7985449 -21.761242 -1.2375846
8.396533 -21.76157 -1.2487642
10.2204 -21.673601 -1.2828784
5.5604782 -7.9634008 -0.51998216
27.3375 6.1470404 -1.500082
17.591387 6.2590752 -0.99962646
16.352089 6.2665935 -0.93752319
14.266708 6.2726154 -0.83435875
13.38622 6.2751565 -0.79149246
12.591328 6.2774515 -0.75323117
11.201308 6.2766266 -0.68741232
10.596475 6.2783709 -0.65940034
9.5220604 6.2814703 -0.61070907
9.0417185 6.2828546 -0.58945721
8.5934372 6.2841449 -0.56995326
8.1736031 6.2853546 -0.5520094
7.7791991 6.2864923 -0.53546304
7.0563083 6.2885723 -0.50602192
6.6321583 6.2041116 -0.48620138
5.2788572 6.2917914 -0.43969592
4.5475097 6.2938919 -0.41570362
4.1012497 6.2951713 -0.40223545
3.8885546 6.295783 -0.3961629
3.6820703 6.2963748 -0.39049393
3.4812791 6.2969499 -0.38520625
3.2857518 6.2975116 -0.38027871
3.0950487 6.2980571 -0.37569121
2.5481639 6.2996221 -0.36380678
2.3731444 6.3001227 -0.36042267
2.032207 6.3010979 -0.35444954
1.8657519 6.3015728 -0.35184136
1.5395898 6.3025041 -0.34733543
1.3607422 6.2174921 -0.34074217
1.204414 6.2179399 -0.33907378
1.0495019 6.2183819 -0.33761948
0.75321287 6.3030119 -0.33984175
0.5993945 6.3034501 -0.3389875
0.44626951 6.3038874 -0.33833289
-0.010830078 6.3051858 -0.33755845
-0.16301757 6.3056192 -0.33769393
-0.31542969 6.3060527 -0.33802626
-0.62160152 6.306922 -0.33928695
-0.93079102 6.3077984 -0.34135491
-1.0869726 6.3082404 -0.34269789
-1.2444726 6.3086882 -0.34425345
-1.5643164 6.3095942 -0.34802109
-1.8919824 6.3105216 -0.35270119
-2.4023926 6.3119645 -0.36157048
-2.9420311 6.3134894 -0.37289906
-3.129873 6.3140192 -0.37728348
-3.519707 6.3151188 -0.38705543
-3.7225292 6.31569 -0.39248288
-3.8840625 6.2404571 -0.39351809
-4.091279 6.2329426 -0.399156
-4.31042 6.2335601 -0.40574509
-4.8423047 6.3269424 -0.42654395
-5.08957 6.3276386 -0.43474567
-5.894248 6.3299017 -0.46305275
-6.8161716 6.3324909 -0.49809524
-7.5149217 6.3344522 -0.52618617
-7.895195 6.3355193 -0.54194731
-9.064599 6.2526813 -0.58954793
-9.5552931 6.2563872 -0.61146402
-11.411601 6.3430486 -0.69897711
-12.093281 6.3449578 -0.73113996
-14.405039 6.274466 -0.84118009
-16.781845 6.3652678 -0.96090317
-18.096786 6.368947 -1.0270969
-19.485722 6.3336749 -1.0969292
-21.304501 6.3607707 -1.1903274
-23.366503 6.3665385 -1.2965739
-28.743828 4.9187384 -1.5612278
-28.469765 -6.2652955 -1.5606561
-28.326611 -6.9543834 -1.5615569
-27.809179 -9.0043888 -1.5649154
-20.251719 -21.6992 -1.5890542
-19.292959 -21.698677 -1.554461
-18.376064 -21.700077 -1.5223457
-17.49585 -21.701426 -1.4923791
-15.834473 -21.70591 -1.4384161
-15.04667 -21.707304 -1.4140295
-14.284697 -21.708652 -1.391256
-10.150781 -21.718903 -1.2834888
-9.5196772 -21.719927 -1.2696038
-8.2957516 -21.721909 -1.2448453
-7.1168261 -21.726448 -1.2239804
-5.9739552 -21.730165 -1.2065296
-5.4139743 -21.731987 -1.1990254
-4.3126073 -21.732485 -1.1861777
-2.6979198 -21.733862 -1.1724956
-1.638418 -21.73477 -1.1669133
-1.1121386 -21.740726 -1.165455
1.5146484 -21.744492 -1.166954
2.04333 -21.748207 -1.1694598
2.5741405 -21.748869 -1.1724949
3.1080174 -21.749531 -1.1762315
4.7353806 -21.754208 -1.191926
7.5748825 -21.760132 -1.2335469
9.3699903 -21.713827 -1.2661073
9.9840822 -21.683197 -1.2780007
22.583065 -8.0637569 -1.2837914
25.9058 6.2349677 -1.4265213
19.617207 6.2532258 -1.1023083
18.10873 6.2575822 -1.0257362
16.586142 6.1833181 -0.94766676
15.650458 6.268621 -0.90258765
14.625136 6.2715812 -0.85194021
13.70833 6.2742276 -0.80711997
12.882714 6.2766104 -0.76720351
11.964111 6.1906376 -0.72118604
11.344492 6.2215252 -0.69268614
9.7129097 6.2809186 -0.61924756
7.5455661 6.2871647 -0.52581668
5.9242187 6.2899346 -0.46258762
5.1203318 6.2922463 -0.43430778
4.8733201 6.2929559 -0.42611384
4.6353126 6.2936392 -0.41846403
4.4055567 6.2942986 -0.41131777
3.5565526 6.2967339 -0.38716274
2.7950487 6.2989154 -0.36893088
2.6152246 6.2994304 -0.3651585
2.2658887 6.3004289 -0.35845476
2.0958104 6.3009162 -0.35549989
1.2633398 6.2177715 -0.33968011
1.1079102 6.2182136 -0.33814475
0.8115918 6.302846 -0.34021848
0.50410157 6.30372 -0.3385565
0.35130858 6.3041558 -0.33802605
0.046699218 6.3050237 -0.33755881
-0.25777343 6.3058867 -0.33787757
-0.56353515 6.306756 -0.33898613
-0.87203121 6.307631 -0.34090033
-1.184746 6.3085184 -0.34364027
-1.3432031 6.3089676 -0.34533057
-1.5033008 6.3094206 -0.34724051
-1.8293651 6.3103447 -0.35174438
-1.9957812 6.3108134 -0.35435233
-2.1647754 6.3112931 -0.3572081
-2.3366113 6.3117776 -0.36032218
-2.6899805 6.3127775 -0.36736891
-3.0583398 6.3138165 -0.37558779
-3.6451659 6.3154731 -0.39038643
-4.0102344 6.2327127 -0.39678115
-4.2266994 6.2333231 -0.4031966
-4.5161719 6.3260245 -0.41612175
-4.7512012 6.3266864 -0.42358601
-5.7870312 6.3295989 -0.45914882
-6.3759079 6.331254 -0.48104766
-6.6922851 6.3321428 -0.49324411
-7.0253415 6.3330779 -0.50637567
-8.1434374 6.336215 -0.55239755
-8.5635643 6.3373933 -0.57035404
-8.9944239 6.3261628 -0.58871382
-10.006104 6.3391094 -0.6341486
-10.564111 6.3406744 -0.65962178
-11.169141 6.3423686 -0.68764198
-12.54998 6.3462358 -0.75290471
-13.344511 6.3484612 -0.7911486
-14.224599 6.3509259 -0.83399761
-16.327627 6.363997 -0.93818104
-17.578779 6.3674994 -1.000949
-19.010244 6.3715034 -1.0733906
-20.610186 6.3588285 -1.1547271
-22.54496 6.3642402 -1.2541544
-24.731192 6.3412957 -1.3668635
-28.460117 6.5697956 -1.5637394
-28.589424 5.8768802 -1.5625954
-29.088358 -6.123692 -1.5914401
-28.382528 -6.6941204 -1.5612031
-28.230215 -7.3815513 -1.5621721
-18.71829 -21.699554 -1.534229
-17.824598 -21.700922 -1.5034666
-16.965586 -21.702238 -1.4747641
-16.139608 -21.70537 -1.4480822
-14.569961 -21.708147 -1.3996871
-13.82291 -21.709469 -1.3778509
-13.10084 -21.714731 -1.3577293
-12.397861 -21.717567 -1.3388088
-11.713759 -21.720327 -1.3211627
-3.777539 -7.8939548 -0.46852657
-9.7567282 -21.71954 -1.2747302
-8.5235252 -21.72154 -1.2492301
-7.9245896 -21.722511 -1.2379299
-7.3367286 -21.725735 -1.2276609
-6.7578907 -21.727617 -1.2181963
-6.1875782 -21.729473 -1.209574
-5.6249704 -21.731298 -1.2017683
-5.06917 -21.73311 -1.1947541
-4.5195704 -21.734898 -1.1885052
-3.9746971 -21.732773 -1.1828052
-3.435039 -21.733232 -1.1779758
-2.8995116 -21.733688 -1.1738632
-1.8379883 -21.7346 -1.1677541
-1.3111132 -21.740442 -1.166031
2.9057226 -21.749279 -1.1747335
4.5272655 -21.751291 -1.1894536
5.0786033 -21.754925 -1.196008
6.1999216 -21.757263 -1.2111859
6.7719822 -21.758453 -1.219996
7.9433298 -21.76132 -1.2402245
9.7505074 -21.694849 -1.2733881
10.376845 -21.674107 -1.286498
11.755986 -21.78871 -1.3254751
12.60917 -22.078077 -1.3611789
13.750439 -22.781775 -1.4246086
26.972538 6.2318854 -1.4820678
20.248173 6.2514029 -1.1345122
17.042372 6.1768718 -0.97047412
16.070761 6.2674065 -0.92349023
14.043457 6.2732611 -0.82344681
9.9091797 6.2803531 -0.62808174
9.4018459 6.2818155 -0.6053592
8.929678 6.2831769 -0.5845511
8.4886131 6.2844477 -0.56544304
8.075263 6.2856388 -0.54785389
6.9735446 6.2888117 -0.50273043
6.5547166 6.2043338 -0.4831889
6.033164 6.2896218 -0.46659476
5.749033 6.2904401 -0.45622939
5.4770899 6.2912211 -0.44656727
5.2162595 6.2919707 -0.43755594
4.7243066 6.2933841 -0.4212966
4.2665625 6.2946963 -0.40711352
4.0488086 6.2953229 -0.40071806
3.8376853 6.2959294 -0.39474472
3.6326072 6.2965164 -0.38917041
3.4331541 6.2970877 -0.383973
2.8640234 6.2987175 -0.37043476
2.6827929 6.2992377 -0.36655143
2.5052147 6.2997456 -0.36295679
2.3309667 6.3002419 -0.35963842
2.1598046 6.300734 -0.3565872
1.991416 6.3012137 -0.35379151
1.6619335 6.3021564 -0.34892958
1.0122266 6.2202225 -0.33738983
0.85962892 6.2267876 -0.3365235
0.71565425 6.3031192 -0.3396157
-0.04790039 6.3052912 -0.33757278
-1.1252246 6.3083501 -0.34305784
-2.1005468 6.3111115 -0.35609847
-2.6220996 6.3125849 -0.36594993
-2.9874218 6.3136172 -0.37393829
-3.3699315 6.3146954 -0.38319615
-3.5686133 6.3152556 -0.38834333
-3.7493455 6.2765031 -0.39140677
-4.6613379 6.3264337 -0.42070287
-5.151289 6.3278117 -0.43683082
-5.6816015 6.3293033 -0.45534712
-6.260283 6.3309293 -0.47666332
-6.8973241 6.3327179 -0.50129408
-8.8389549 6.3381672 -0.58229685
-9.8061323 6.3385491 -0.62511331
-13.034736 6.3475933 -0.77618557
-14.625088 6.2682571 -0.85186249
-15.894316 6.3627849 -0.9165836
-17.086435 6.3661199 -0.97618419
-28.409775 6.8318706 -1.5643328
-28.662636 5.4450164 -1.5619522
-28.768232 4.7489762 -1.5610074
-28.43623 -6.4334545 -1.5608656
-28.128124 -7.8076615 -1.5628297
-27.761309 -9.1695833 -1.5652319
-16.448866 -21.704826 -1.4579979
-14.102627 -21.708971 -1.3859236
-11.297265 -21.722006 -1.3108052
-8.1498041 -21.722149 -1.2420934
-6.4023533 -21.728771 -1.212737
-5.278584 -21.73243 -1.1973146
-4.1799607 -21.732597 -1.1848212
-2.5682909 -21.733973 -1.1716681
-2.0379882 -21.734428 -1.1687008
-1.5099316 -21.73488 -1.1664222
-0.9840039 -21.74091 -1.1651309
-0.45879883 -21.741665 -1.1642393
0.065908201 -21.742414 -1.1640282
0.5907129 -21.743166 -1.16449
1.1162597 -21.743921 -1.1656342
2.7039354 -21.749027 -1.1733412
3.2386522 -21.749691 -1.1772509
4.3204784 -21.751034 -1.1872257
5.4242868 -21.755644 -1.2003853
5.985703 -21.756817 -1.2080723
6.5546775 -21.758003 -1.216567
7.1320605 -21.759207 -1.2259095
9.5185938 -21.706415 -1.2689167
10.780186 -21.675409 -1.2960292
11.47794 -21.746025 -1.3164332
12.275 -21.955933 -1.3466854
13.256933 -22.42424 -1.3946288
28.128574 6.2291021 -1.542402
22.898563 6.2436552 -1.2706727
20.9175 6.2494693 -1.1687701
19.229198 6.2543464 -1.0825535
17.772314 6.258554 -1.0087465
15.389541 6.2693753 -0.88965255
14.392539 6.2722526 -0.84052259
13.499404 6.2748294 -0.79697353
12.693643 6.2771573 -0.75813186
10.674922 6.2781448 -0.66301239
9.1044044 6.2826738 -0.59220982
8.2285156 6.2851968 -0.5543375
7.8308592 6.2863421 -0.53761297
7.4562693 6.2874212 -0.5221616
5.5785642 6.2909293 -0.45014304
5.3136621 6.2916913 -0.44089174
4.8145409 6.2931242 -0.42420292
4.5786133 6.2938027 -0.41667834
4.1303515 6.2950883 -0.40308481
3.7094922 6.2962956 -0.39123333
3.5079687 6.2968731 -0.38589689
3.1204102 6.2979836 -0.3762888
2.933584 6.2985187 -0.37198251
2.7508788 6.2990408 -0.36798453
2.5719628 6.2995539 -0.36428228
2.3964942 6.3000555 -0.36086127
2.2242088 6.3005471 -0.35771114
1.7235448 6.3019781 -0.3497763
0.77395505 6.3029532 -0.33997262
0.46682617 6.3038287 -0.33840987
0.16180664 6.3046951 -0.33764288
-0.29492188 6.305994 -0.33796996
-0.44766602 6.3064275 -0.33847389
-0.60093749 6.3068633 -0.33917686
-0.90985352 6.3077383 -0.34118995
-1.0658789 6.3081803 -0.34250519
-1.3820605 6.3090777 -0.3457756
-1.5425879 6.3095331 -0.34773955
-2.0366895 6.3109307 -0.35502455
-2.2063575 6.3114104 -0.35794252
-2.7340038 6.312901 -0.36830479
-2.9170995 6.3134184 -0.37233391
-3.1043456 6.3139458 -0.37667519
-3.4928417 6.315042 -0.3863534
-3.6949413 6.3156118 -0.39173207
-3.8559864 6.2403779 -0.39272085
-4.2805371 6.2334747 -0.40483031
-4.8097458 6.3268509 -0.42548302
-5.0557518 6.3275433 -0.43360949
-5.311533 6.3282633 -0.44231537
-5.5779099 6.3290105 -0.45164669
-5.8559179 6.329793 -0.46165293
-6.146709 6.3306108 -0.47239408
-6.7718163 6.332366 -0.4963536
-7.4655075 6.3343134 -0.52416062
-8.6700974 6.3376932 -0.57495934
-9.4876366 6.256197 -0.60842729
-10.138115 6.3394804 -0.64014095
-10.706972 6.3410735 -0.66620123
-12.736357 6.3467593 -0.76183605
-13.550468 6.3490372 -0.80113345
-16.617823 6.3648076 -0.95268947
-17.909531 6.3684235 -1.0176343
-25.135323 6.2876959 -1.387118
-28.618828 5.7077432 -1.5623381
-28.730078 5.012392 -1.5613515
-29.141689 4.3625102 -1.5775411
-28.346777 -6.8618279 -1.5614289
-28.190887 -7.5487213 -1.5624245
-19.986933 -8.03613 -1.1532909
-11.516026 -7.8695202 -0.74673581
-17.61212 -21.701246 -1.49629
-16.761093 -21.702551 -1.4680701
-15.942519 -21.705719 -1.4418234
-15.151084 -21.707119 -1.4172168
-14.385752 -21.708473 -1.3942322
-12.927647 -21.715429 -1.3529975
-12.229433 -21.718246 -1.3343948
-3.7388084 -7.9324756 -0.46948764
-9.6037302 -21.71979 -1.27141
-8.3765039 -21.721779 -1.2463877
-7.7801952 -21.722746 -1.2353047
-7.1948533 -21.726196 -1.2252727
-6.618154 -21.728071 -1.2160162
-6.0497947 -21.729919 -1.2075973
-5.4889255 -21.731743 -1.1999882
-4.9347558 -21.733547 -1.1931629
-4.3858886 -21.732422 -1.1869431
-3.8427539 -21.732885 -1.1815605
-3.3041894 -21.733345 -1.1769044
-2.7695508 -21.733801 -1.1729724
-1.1828125 -21.740625 -1.1656462
1.44375 -21.744389 -1.1666864
1.9720995 -21.748119 -1.169103
2.5026269 -21.748779 -1.1720461
3.5731444 -21.750107 -1.180042
5.7725 -21.756372 -1.205068
8.0886908 -21.7614 -1.2429159
8.6798239 -21.731157 -1.2527909
9.2875681 -21.71636 -1.2644908
10.534267 -21.674614 -1.2901851
11.203759 -21.703936 -1.3076392
14.192588 -23.204794 -1.456098
5.5554686 -8.1696558 -0.52892423
14.283496 -8.0859585 -0.87875056
22.585087 -8.147253 -1.2854033
26.275839 6.2338982 -1.4457743
21.628077 6.2474174 -1.2052377
18.299404 6.2570305 -1.0353825
16.736826 6.1777544 -0.95511711
14.756259 6.271203 -0.85838634
12.231035 6.2784905 -0.73604429
10.900186 6.2774954 -0.67341781
9.7820702 6.2807193 -0.6223554
9.2837009 6.2821574 -0.60012019
8.8194723 6.283494 -0.57974476
8.385478 6.2847443 -0.56102359
6.4782128 6.204555 -0.48023239
6.1756539 6.2073197 -0.46877584
5.4125195 6.2914066 -0.44431362
4.2128711 6.2948518 -0.40551391
2.8194921 6.2988458 -0.36946079
2.6391797 6.2993622 -0.36564788
2.4624414 6.2998676 -0.36212215
2.1185155 6.3008499 -0.35588256
1.9507617 6.3013296 -0.3531481
1.2843456 6.2177114 -0.33990142
0.37182617 6.3040986 -0.3380864
-0.084990233 6.3053961 -0.33759955
-0.23726562 6.3058295 -0.33783081
-0.54291016 6.3066974 -0.33888733
-0.69661129 6.3071342 -0.33971533
-1.1635547 6.3084588 -0.34343025
-1.4816797 6.3093586 -0.34697035
-1.6433984 6.3098187 -0.34907585
-1.8071679 6.3102798 -0.35141236
-2.3133299 6.3117132 -0.3598884
-2.4878612 6.3122063 -0.36323428
-2.8474121 6.3132219 -0.37077472
-3.0330369 6.3137455 -0.37499544
-3.4178612 6.3148322 -0.38441697
-4.1972165 6.2332401 -0.40230882
-4.7191014 6.3265948 -0.42255196
-5.2135935 6.3279862 -0.43895167
-5.4758396 6.3287249 -0.44803968
-6.3345509 6.3311381 -0.47947454
-6.648818 6.3320208 -0.4915494
-8.0889845 6.3360624 -0.55009454
-8.9500389 6.3384781 -0.58714861
-9.297617 6.2533355 -0.59987187
-11.73624 6.3439569 -0.71423995
-12.448945 6.3459525 -0.74807394
-14.100742 6.3505778 -0.82793778
-14.86751 6.2689362 -0.86382276
-20.373135 6.3581643 -1.1425985
-24.511299 6.3697391 -1.3558453
-28.442509 6.6630669 -1.5639483
-28.572889 5.9702396 -1.5627397
-28.689745 5.2754998 -1.5617119
-28.791727 4.5790386 -1.5607938
-28.401903 -6.6014743 -1.5610811
-28.251591 -7.28929 -1.5620352
-27.906864 -8.6562014 -1.5642723
-27.712578 -9.3346577 -1.5655546
-11.311484 -7.9813671 -0.74115562
-19.780762 -21.700809 -1.5720155
-18.841278 -21.699368 -1.5385284
-17.942686 -21.700741 -1.5074811
-16.24917 -21.705177 -1.4515778
-15.447109 -21.706596 -1.4263223
-13.922002 -21.709293 -1.3807003
-12.49126 -21.71719 -1.3412744
-8.6049213 -21.721409 -1.2508205
-8.0044918 -21.722382 -1.2393872
-6.8352637 -21.727364 -1.2194173
-6.2637401 -21.729221 -1.2106838
-5.7001462 -21.731054 -1.202769
-5.1435351 -21.732866 -1.1956517
-4.5931444 -21.734657 -1.1893055
-4.0476074 -21.73271 -1.1835095
-2.9712498 -21.733627 -1.1743743
-1.9090332 -21.734535 -1.1680779
-0.33092773 -21.741848 -1.1641284
0.19375975 -21.742598 -1.164078
2.3016698 -21.748529 -1.1708508
3.3695312 -21.749855 -1.1783098
4.4536915 -21.751198 -1.1886504
5.0042286 -21.75477 -1.1951017
5.5604491 -21.75593 -1.2021881
6.6945801 -21.758295 -1.2187638
7.8633299 -21.761278 -1.2387578
9.0564642 -21.721987 -1.2599564
10.29041 -21.673828 -1.2844908
10.939921 -21.675922 -1.2998871
11.65664 -21.773458 -1.3222362
13.569277 -22.647289 -1.4134402
5.6115623 -7.9916039 -0.52278882
18.161102 -19.554775 -2.0323253
19.665976 -18.318686 -2.0466907
20.148573 -17.879902 -2.0514073
21.08287 -16.963636 -2.0607121
21.533838 -16.486601 -2.0652936
21.973427 -15.997198 -2.0698225
23.611132 -13.921982 -2.0873487
23.988504 -13.375171 -2.0915649
24.352392 -12.817807 -2.0957086
24.702461 -12.250232 -2.0997765
25.359688 -11.085751 -2.1076698
25.666182 -10.489599 -2.1114883
23.90876 -9.1045055 -1.9482672
22.536552 -7.9648356 -1.8202554
24.571571 -7.3714199 -1.953584
24.761854 -6.7817502 -1.9551318
25.040527 -6.2126403 -1.9647244
27.252451 -6.0673404 -2.1261644
27.407675 -5.4113255 -2.1274679
27.85284 -2.7497909 -2.1313872
27.919609 -2.0775778 -2.1320386
27.999268 -0.72853208 -2.1329434
28.011963 -0.052734986 -2.1331944
27.983223 1.2987787 -2.1332963
27.941786 1.9734588 -2.133146
25.449394 4.2909122 -1.965398
25.155117 5.5010757 -1.9609059
25.00242 6.1033573 -1.9599142
23.134199 6.2424917 -1.8247485
19.400215 6.2534418 -1.5522403
16.58333 6.2436285 -1.3494095
15.504726 6.2687054 -1.2735827
12.777295 6.2766275 -1.0840896
11.869638 6.19064 -1.01946
11.342442 6.2683477 -0.98688388
9.6441011 6.2808867 -0.87644726
9.1553612 6.2823014 -0.84556293
8.6996384 6.2836237 -0.81724137
8.2732029 6.2848587 -0.7912007
7.8728709 6.2860198 -0.76720273
7.1398926 6.2881403 -0.72452694
6.7104001 6.2037015 -0.69593173
4.8406935 6.2928901 -0.60459989
4.6038475 6.2935734 -0.59381664
3.939707 6.295485 -0.56555527
3.3328612 6.2972331 -0.54257256
2.9537303 6.2983208 -0.5297572
2.7705858 6.2988467 -0.52402532
2.5912597 6.2993622 -0.51871347
2.4154394 6.2998662 -0.51380444
2.2428124 6.3003607 -0.50928164
2.0730956 6.3008466 -0.50512838
1.9060448 6.3013248 -0.50133306
1.7413671 6.3017974 -0.49788257
1.3990527 6.2172565 -0.48529851
0.9334082 6.2203193 -0.47899589
0.63680661 6.303216 -0.48244756
0.48352537 6.3036542 -0.48144898
0.17842773 6.3045206 -0.48029685
0.026249999 6.3049555 -0.48014113
-0.4309375 6.306253 -0.48135614
-0.73806638 6.3071246 -0.48358005
-0.89287108 6.3075628 -0.48512477
-1.0487695 6.3080034 -0.4869644
-1.2059375 6.3084488 -0.48910278
-1.3645898 6.308897 -0.49154815
-1.5249316 6.309351 -0.49430686
-1.6871679 6.3098087 -0.49738848
-2.5353124 6.3122025 -0.51801461
-2.7141893 6.3127069 -0.52327961
-2.8968456 6.3132219 -0.52896315
-3.0836229 6.3137469 -0.5350877
-3.2748828 6.3142838 -0.54167455
-3.4710448 6.3148355 -0.54874992
-3.833164 6.2401652 -0.55769795
-4.2562499 6.2332549 -0.57478583
-4.5471678 6.3259549 -0.5932793
-4.7833204 6.3266177 -0.60399246
-5.0283103 6.3273029 -0.61546493
-5.2829394 6.3280158 -0.62775499
-5.5480957 6.3287592 -0.64092588
-6.4173532 6.3311882 -0.68650031
-6.7358689 6.332078 -0.70401961
-7.8001952 6.3350506 -0.76523286
-8.1981153 6.3361602 -0.78903961
-8.9963675 6.2840204 -0.83568454
-10.078232 6.3390727 -0.90668035
-10.642138 6.3406439 -0.94336963
-11.920927 6.3442035 -1.0283664
-12.651679 6.3462358 -1.077877
-13.456875 6.3484759 -1.1330954
-15.363496 6.3609648 -1.2662892
-16.485683 6.3640838 -1.3457286
-17.758858 6.3676224 -1.4366915
-20.391016 6.2188139 -1.6234481
-20.640772 5.2211356 -1.6213646
-20.748983 4.7189178 -1.6204455
-21.485918 4.3440909 -1.6693262
-22.731054 4.0275359 -1.7579962
-22.812099 3.4764616 -1.7572671
-22.937744 2.3702714 -1.7560781
-22.982225 1.8156439 -1.7556193
-23.014502 1.2603326 -1.7552508
-23.042393 0.14850402 -1.7547853
-23.038027 -0.40747985 -1.7546884
-23.021406 -0.96324521 -1.7546821
-22.992529 -1.5185205 -1.7547671
-22.951523 -2.0730524 -1.7549418
-22.89831 -2.6266532 -1.7552075
-22.832861 -3.1790195 -1.755564
-22.755312 -3.7299821 -1.7560107
-22.665634 -4.2792544 -1.7565475
-22.563847 -4.8266339 -1.7571746
-22.324043 -5.9146824 -1.7586989
-21.078613 -6.1326799 -1.6717587
-20.143164 -6.9308085 -1.6222248
-19.983271 -7.4196997 -1.6232961
-19.812481 -7.9053326 -1.6244493
-19.235361 -9.3402815 -1.6283932
-20.656551 -10.653795 -1.7699566
-20.412949 -11.159746 -1.7716448
-20.157862 -11.66071 -1.773419
-19.891464 -12.156425 -1.7752784
-11.533837 -7.8371496 -1.0619175
-18.059843 -15.007565 -1.7881922
-16.998583 -16.343256 -1.7957482
-16.239286 -17.196152 -1.8011782
-15.844522 -17.610632 -1.8040081
-15.025283 -18.414396 -1.809894
-14.601211 -18.803226 -1.8129469
-14.167646 -19.183098 -1.8160725
-13.272773 -19.914848 -1.8225356
-12.690907 -20.075085 -1.8086424
-11.381445 -20.088238 -1.7582499
-10.752842 -20.094275 -1.7355546
-3.7514746 -7.9052606 -0.66634309
-9.0868845 -20.405399 -1.7010465
-8.6094818 -20.660925 -1.7045258
-8.125205 -20.905874 -1.7080587
-7.6344237 -21.140104 -1.7116423
-4.9950976 -21.733906 -1.6982483
-4.4456348 -21.732723 -1.689281
-3.9019432 -21.733185 -1.6815065
-3.36291 -21.733644 -1.6747749
-2.2960937 -21.734552 -1.6643612
-0.71466798 -21.74111 -1.6565433
0.33490235 -21.742615 -1.6559618
0.86004883 -21.743366 -1.6571159
2.4444432 -21.748266 -1.6666229
2.9775391 -21.748928 -1.6716933
3.5141602 -21.749592 -1.6777747
4.6008787 -21.750935 -1.6930453
5.7111034 -21.756113 -1.7129219
6.2763376 -21.75729 -1.7244421
7.4315133 -21.759695 -1.7510387
8.6141205 -21.732784 -1.7802817
9.2206345 -21.718018 -1.7967752
9.8333101 -21.690643 -1.8136194
10.463642 -21.674526 -1.8328542
11.088213 -21.619776 -1.850318
11.632285 -21.393093 -1.8544039
12.187636 -21.180136 -1.8609041
13.238115 -20.634346 -1.8669485
5.5376463 -8.1898127 -0.75286901
15.893818 -21.222284 -2.0191278
16.374659 -20.798819 -2.0158508
17.443262 -20.081606 -2.0256357
17.965664 -19.702009 -2.030494
18.984921 -18.901562 -2.0401285
19.480869 -18.481152 -2.0448968
20.443623 -17.600534 -2.0543201
21.808563 -16.183691 -2.0681162
22.240927 -15.686813 -2.0726111
22.661396 -15.178067 -2.0770485
23.069492 -14.657643 -2.0814242
23.464912 -14.125903 -2.0857353
24.216415 -13.029792 -2.0941505
24.571728 -12.466013 -2.0982475
25.239862 -11.308844 -2.1062026
25.55205 -10.716105 -2.1100547
22.542061 -8.1989317 -1.8266665
24.284004 -8.1746273 -1.9512656
24.691719 -7.0053864 -1.9545599
24.872362 -6.4124126 -1.9560369
27.351074 -5.6599236 -2.1269903
27.495449 -5.0012207 -2.1282141
27.731483 -3.6724551 -2.1302731
27.952108 -1.6586465 -2.1323771
28.010761 0.36763793 -2.1332836
27.95956 1.7184515 -2.1332183
27.906904 2.3923285 -2.1329849
26.765938 4.2620869 -2.0639801
24.899618 6.4756341 -1.9592535
21.824238 6.2418084 -1.7286155
18.455614 6.256187 -1.4840034
16.871651 6.1770024 -1.3682241
15.918222 6.2675042 -1.302796
13.92208 6.2733026 -1.1628693
12.309804 6.2779851 -1.0522995
10.966191 6.27705 -0.96223724
10.379961 6.2787528 -0.92382503
8.4312401 6.2844009 -0.80079746
8.0213766 6.2855887 -0.77605277
7.635869 6.286706 -0.75321686
7.2721972 6.2877579 -0.73209965
6.928164 6.288753 -0.712538
6.2080369 6.2070489 -0.66852266
5.9940524 6.2895598 -0.66164017
5.4412599 6.2911563 -0.63342309
4.932539 6.292625 -0.60887319
4.2367868 6.294632 -0.57782078
4.0199609 6.2952542 -0.56880486
3.6054003 6.2964482 -0.55253488
3.4066601 6.2970195 -0.54521161
2.839375 6.2986493 -0.52614123
2.307744 6.3001752 -0.51094782
1.9689159 6.3011456 -0.50272846
1.6400781 6.3020868 -0.49590498
1.45875 6.2170844 -0.48630488
0.84927732 6.3026114 -0.48429713
0.6949414 6.303051 -0.48290125
0.54140621 6.3034883 -0.4817929
-0.22061522 6.305656 -0.48048499
-0.52613282 6.3065228 -0.4819248
-0.67977536 6.3069596 -0.48307237
-1.6255859 6.3096356 -0.49618414
-1.9549316 6.3105669 -0.5030961
-2.294414 6.3115253 -0.51141155
-2.6461229 6.3125153 -0.52124071
-3.2020116 6.3140802 -0.53912771
-3.3962598 6.3146257 -0.54601485
-3.595664 6.3151875 -0.553406
-3.9584179 6.2324185 -0.56225187
-4.173203 6.2330217 -0.57122809
-4.9345798 6.3270392 -0.61103415
-5.1854587 6.3277435 -0.62300736
-5.4465232 6.3284745 -0.63583589
-6.3009567 6.3308635 -0.68020117
-6.6135349 6.3317375 -0.69724196
-8.4583693 6.3368878 -0.80484527
-8.8996878 6.3381171 -0.83203888
-9.2443752 6.2529607 -0.84991223
-9.8762207 6.3385086 -0.89367193
-11.016562 6.3416862 -0.96801484
-13.142851 6.3476028 -1.111483
-14.000772 6.3499908 -1.170735
-16.045116 6.3628592 -1.3144509
-17.257656 6.3662295 -1.400789
-20.596952 5.4104962 -1.6217335
-20.810635 4.4056048 -1.6199156
-22.697187 4.2355061 -1.7582955
-22.917744 2.5797539 -1.7562753
-22.966875 2.0254729 -1.7557818
-23.028389 0.91471738 -1.7550673
-23.040907 0.35876709 -1.7548453
-23.029131 -0.75310606 -1.7546737
-23.004911 -1.3086261 -1.754724
-22.919863 -2.4174247 -1.7550964
-22.859034 -2.9703183 -1.7554187
-22.700966 -4.0717511 -1.7563338
-22.603739 -4.6198559 -1.7569271
-22.494432 -5.1659565 -1.7576101
-20.345606 -6.2520576 -1.620882
-20.200771 -6.7451158 -1.621841
-19.878309 -7.7221098 -1.6240039
-19.700809 -8.2055588 -1.6252071
-19.313477 -9.1613245 -1.6278559
-20.506405 -10.969004 -1.7709963
-20.255663 -11.471845 -1.772738
-19.720156 -12.461958 -1.7764772
-19.435566 -12.948681 -1.7784736
-18.833027 -13.904315 -1.7827176
-17.497831 -15.737788 -1.7921884
-17.137558 -16.178539 -1.7947564
-16.766827 -16.611816 -1.7974038
-16.385967 -17.037329 -1.800128
-15.994961 -17.454859 -1.8029292
-15.593994 -17.864157 -1.8058063
-15.183154 -18.265043 -1.8087584
-14.332725 -19.040503 -1.8148818
-12.947061 -20.072424 -1.8189691
-11.623466 -20.085863 -1.7672534
-3.8396482 -7.9040504 -0.6691792
-8.7907906 -20.565504 -1.703204
-7.3259668 -21.280249 -1.7138962
-6.8249121 -21.496662 -1.7175601
-6.3178611 -21.70188 -1.721271
-5.2041893 -21.733227 -1.7018368
-4.6530957 -21.735016 -1.6926869
-3.5662401 -21.733471 -1.6772012
-2.4968262 -21.734383 -1.6660233
-1.9668359 -21.734833 -1.6619378
-0.91331053 -21.740828 -1.6570859
0.13644531 -21.742331 -1.6557745
0.66138673 -21.743084 -1.6565655
1.1870605 -21.743835 -1.6583197
2.2436719 -21.748016 -1.6649661
2.7755566 -21.748676 -1.6696578
3.3107715 -21.749338 -1.675357
4.3938475 -21.750679 -1.6898386
4.943789 -21.754513 -1.6989077
6.0617185 -21.756844 -1.7199523
7.2103415 -21.759235 -1.7456417
7.7984176 -21.760868 -1.7603539
8.3963861 -21.76119 -1.7762588
8.9899511 -21.723635 -1.7903805
10.868291 -21.675835 -1.8465512
11.42706 -21.480482 -1.8528622
11.968281 -21.245003 -1.8569289
12.517529 -21.017387 -1.8628976
16.710146 -20.581829 -2.0189016
17.243584 -20.22154 -2.023792
18.79497 -19.057076 -2.0383165
20.73455 -17.316162 -2.057215
21.193808 -16.84857 -2.0618331
21.642021 -16.368435 -2.0664022
22.503778 -15.371806 -2.0753772
22.91662 -14.855798 -2.0797768
24.078426 -13.240314 -2.0925815
24.439013 -12.680413 -2.0967073
24.785654 -12.1104 -2.1007559
23.720438 -9.5319796 -1.9467716
24.200087 -8.3930206 -1.9505924
24.417343 -7.8136072 -1.9523377
24.805887 -6.6372647 -1.9554918
27.291904 -5.9078903 -2.1264942
27.576416 -4.5896001 -2.1289098
27.692314 -3.9247022 -2.1299241
27.790428 -3.256741 -2.1308064
27.870741 -2.5861795 -2.1315582
28.004004 -0.56389278 -2.1330166
28.012383 0.11202332 -2.1332359
28.002586 0.78790283 -2.1333208
27.974833 1.4632903 -2.1332724
27.783291 3.4813225 -2.1323221
27.683651 4.1495366 -2.1317391
25.434599 4.4424152 -1.9662422
25.26 5.0428276 -1.9615768
25.119335 5.6482196 -1.960675
24.962715 6.2494559 -1.9596539
22.310429 6.1611896 -1.7626052
20.673447 6.2497406 -1.6447095
15.24793 6.2694511 -1.2554958
14.266006 6.272305 -1.1867654
12.590761 6.2771697 -1.0713775
11.702246 6.1911273 -1.0081942
11.20085 6.2763691 -0.97776091
8.1733398 6.2851481 -0.7851727
7.778945 6.2862906 -0.76164061
7.4073043 6.2873664 -0.73989475
6.1010838 6.2859879 -0.66709334
5.8169432 6.2900715 -0.65243775
5.5421481 6.2908659 -0.63845783
5.2787204 6.291625 -0.62542409
4.7821875 6.2930593 -0.60190368
4.5473924 6.293736 -0.59129894
4.3206053 6.2943888 -0.58139431
3.4811914 6.2968049 -0.54791993
3.2856739 6.2973685 -0.54091072
3.0949903 6.2979169 -0.53438604
2.3730958 6.2999868 -0.51266766
2.2012012 6.3004804 -0.50823593
2.0321581 6.3009634 -0.50417197
1.0494823 6.2182536 -0.48023185
0.89605469 6.2204251 -0.47858948
0.75320309 6.3028851 -0.4833948
0.59938473 6.3033218 -0.48217928
0.29363281 6.3041935 -0.48060057
0.14131835 6.3046269 -0.48023364
-0.010830078 6.305059 -0.4801459
-0.16301757 6.305491 -0.48033866
-0.31542969 6.3059244 -0.48081142
-0.62159181 6.3067937 -0.48260486
-0.93077147 6.3076701 -0.48554587
-1.403496 6.3090081 -0.49219066
-1.5642871 6.3094635 -0.49502781
-1.8919531 6.3103886 -0.50168449
-2.0593164 6.3108611 -0.50552636
-2.2293553 6.3113422 -0.509727
-2.4023438 6.3118277 -0.51429939
-2.578584 6.3123245 -0.51925957
-2.7583399 6.3128314 -0.52462626
-2.9419725 6.3133478 -0.5304144
-3.1298046 6.3138762 -0.53664881
-3.519619 6.3149724 -0.5505504
-3.7224414 6.3155427 -0.55826992
-3.8839746 6.2403083 -0.55974209
-4.0911818 6.2327909 -0.56775981
-4.8421774 6.3267813 -0.60671568
-5.0894337 6.3274751 -0.61838245
-5.3465428 6.3281937 -0.63087976
-5.8940916 6.3297257 -0.6586464
-6.1866894 6.3305449 -0.67407185
-6.4935055 6.3314033 -0.69065136
-6.8159766 6.3323026 -0.70848876
-7.5146971 6.3342533 -0.74844307
-7.8949413 6.3353152 -0.77086073
-9.0642767 6.25246 -0.83856153
-9.5549412 6.2561555 -0.86973119
-10.211572 6.3394451 -0.91530675
-11.411122 6.3427849 -0.99420941
-14.405136 6.2745099 -1.1965443
-16.780909 6.3649039 -1.3667489
-20.285576 6.5936356 -1.6243635
-20.423838 6.0978031 -1.6231768
-20.668182 5.098947 -1.621133
-22.751894 3.8933794 -1.7578104
-22.83 3.3419421 -1.7571031
-23.020536 1.1249341 -1.7551746
-23.04244 0.013012695 -1.7547534
-23.035107 -0.54294246 -1.7546782
-22.883476 -2.7614026 -1.7552859
-22.73457 -3.8639998 -1.7561332
-22.641933 -4.4128175 -1.7566922
-22.420401 -5.504375 -1.7580802
-22.291542 -6.0465717 -1.7589092
-20.256836 -6.559 -1.6214688
-20.105185 -7.0502362 -1.6224785
-19.942665 -7.5383511 -1.6235696
-19.769209 -8.0231686 -1.6247425
-19.584961 -8.5043707 -1.6259964
-19.38998 -8.9818134 -1.6273305
-19.184277 -9.4552898 -1.6287451
-20.598242 -10.777542 -1.7703601
-20.093975 -11.782023 -1.7738644
-19.544453 -12.765278 -1.777709
-11.454023 -7.8817563 -1.0588157
-18.312382 -14.660778 -1.786401
-16.908203 -16.448881 -1.7963938
-16.5312 -16.877344 -1.7990886
-16.143984 -17.297905 -1.8018609
-15.746787 -17.710348 -1.8047094
-14.060566 -19.274284 -1.8168451
-13.615468 -19.642614 -1.8200586
-13.16126 -20.001413 -1.8233421
-11.867978 -20.083439 -1.7764915
-11.226719 -20.089739 -1.752573
-10.602012 -20.095695 -1.7302672
-9.9925585 -20.101322 -1.7094848
-8.0062008 -20.963972 -1.7089273
-7.5138278 -21.195486 -1.7125235
-6.5103221 -21.625614 -1.719862
-3.7701855 -21.733295 -1.6797732
-3.2321191 -21.733755 -1.6732897
-2.1669531 -21.734665 -1.6633636
-1.6384375 -21.735115 -1.6598879
-0.061904296 -21.742048 -1.6557263
0.46283203 -21.742798 -1.6561517
1.5146191 -21.744305 -1.6599066
2.5740819 -21.748426 -1.6677661
3.107959 -21.749088 -1.6730813
3.6455956 -21.749752 -1.6794143
4.7353415 -21.754076 -1.6954322
5.8481836 -21.756399 -1.7156271
6.4152246 -21.75758 -1.7274258
7.5748339 -21.759996 -1.7546287
8.7609081 -21.729212 -1.7841778
9.3699512 -21.713757 -1.8009558
11.22122 -21.565868 -1.8513165
11.764189 -21.335649 -1.855395
12.317245 -21.117111 -1.8616958
12.844462 -20.848286 -1.8647832
15.500986 -21.504789 -2.0187507
16.011122 -21.118877 -2.0182147
16.506454 -20.714386 -2.0170472
17.042744 -20.359417 -2.0219448
17.571337 -19.9904 -2.0268219
18.091747 -19.607382 -2.0316744
19.600342 -18.376616 -2.0460536
20.084276 -17.939674 -2.0507758
20.558125 -17.489676 -2.0554564
22.762032 -15.052264 -2.0781209
14.331113 -8.051589 -1.2518064
24.304306 -12.893345 -2.0951562
24.65625 -12.327127 -2.0992343
25.317295 -11.165178 -2.1071494
25.625868 -10.570278 -2.1109803
22.538506 -8.047842 -1.8225101
24.337002 -8.0334225 -1.951691
24.544813 -7.4502769 -1.9533672
27.230263 -6.1551824 -2.1259797
27.38784 -5.4997911 -2.1273003
27.527967 -4.8400278 -2.1284926
27.650576 -4.1765113 -2.1295557
27.755468 -3.50968 -2.1304886
27.842529 -2.8399746 -2.13129
27.911709 -2.1680431 -2.1319592
27.996122 -0.8193652 -2.1328988
27.987362 1.2079773 -2.1333055
27.948359 1.8828497 -2.1331737
27.891348 2.5563273 -2.1329076
27.816307 3.2279363 -2.1325078
27.723398 3.8972392 -2.1319749
23.432968 6.2416239 -1.846707
19.615917 6.2528143 -1.5678685
18.107616 6.2572002 -1.4589558
15.649629 6.2682853 -1.2838082
12.882129 6.2763238 -1.0912486
11.963584 6.1903677 -1.0258075
11.342324 6.2203312 -0.98511624
10.818896 6.2774787 -0.95253295
10.244053 6.2791462 -0.9150002
9.7125483 6.2806888 -0.88081038
9.2190619 6.2821183 -0.84955984
8.7591305 6.2834516 -0.82091182
8.3289251 6.2846975 -0.79457945
7.1866016 6.2880044 -0.72719544
6.8470702 6.2889886 -0.70798993
6.4362206 6.204495 -0.68079406
5.6446676 6.2905693 -0.64362997
5.3770704 6.2913423 -0.63024753
5.1201954 6.2920828 -0.61776161
4.8731933 6.2927957 -0.6061058
3.9681249 6.2954044 -0.56670094
3.5564647 6.2965884 -0.5507018
3.1665528 6.2977104 -0.53679752
2.7949803 6.2987771 -0.52477056
1.7633789 6.3017325 -0.49832663
1.1079004 6.2180877 -0.48097941
0.81156248 6.3027177 -0.4839302
0.65746093 6.3031573 -0.48260525
0.5040918 6.3035955 -0.48156664
0.35130858 6.3040299 -0.48081172
0.19888671 6.3044634 -0.48033923
0.046699218 6.3048954 -0.4801462
-0.25777343 6.3057623 -0.48059928
-0.41039062 6.3061943 -0.48124743
-0.5635156 6.3066301 -0.48217806
-0.87202144 6.3075051 -0.48490047
-1.3431835 6.3088369 -0.49120173
-1.5032715 6.3092914 -0.49391711
-2.1647167 6.3111577 -0.5080958
-2.3365624 6.3116422 -0.51252508
-2.8720508 6.3131509 -0.52817374
-3.0582714 6.3136749 -0.53423828
-3.2489061 6.3142118 -0.54076177
-3.4443653 6.3147612 -0.54776746
-3.6450877 6.3153253 -0.55528718
-3.8052928 6.240087 -0.5565865
-4.5160642 6.3258672 -0.59189415
-5.2481251 6.3279181 -0.62605286
-5.5118065 6.3286567 -0.63910085
-5.7868848 6.3294268 -0.65309387
-6.69208 6.3319573 -0.70158809
-7.3766208 6.3338675 -0.74041408
-7.7485156 6.3349066 -0.76217496
-8.1431637 6.3360076 -0.78572524
-8.5632715 6.3371782 -0.81126601
-8.9962597 6.3274627 -0.83757442
-9.3630171 6.2532926 -0.85741496
-10.005722 6.33887 -0.90200269
-10.563701 6.3404255 -0.93823415
-12.549414 6.3459516 -1.0709136
-14.223896 6.3506098 -1.1862494
-20.231533 6.7807999 -1.6249216
-20.50456 5.788228 -1.6225063
-20.62537 5.2885075 -1.6214944
-20.735088 4.7865324 -1.6205642
-22.719208 4.1015105 -1.7581011
-22.872431 2.9982855 -1.7567085
-22.976973 1.8902698 -1.7556757
-23.010908 1.3349921 -1.7552948
-23.024345 -0.88856441 -1.7546777
-22.766455 -3.6559944 -1.7559454
-22.67837 -4.2055469 -1.7564703
-22.465996 -5.2986789 -1.7577902
-22.341728 -5.8418307 -1.7585849
-19.464979 -8.801775 -1.6268164
-20.688446 -10.585427 -1.7697362
-20.446346 -11.091999 -1.771413
-20.192831 -11.593667 -1.7731755
-19.651806 -12.581072 -1.7769561
-11.578066 -7.8124337 -1.0636513
-19.066074 -13.545839 -1.7810736
-18.436327 -14.485997 -1.7855229
-18.105165 -14.946218 -1.7878706
-17.763369 -15.399604 -1.7902987
-17.048155 -16.284864 -1.7953944
-15.494765 -17.962698 -1.8065188
-14.658789 -18.751467 -1.8125322
-12.115097 -20.080959 -1.7859794
-11.467207 -20.087399 -1.761423
-3.777539 -7.8939567 -0.66642827
-9.1505661 -20.37027 -1.7005825
-8.1907129 -20.873579 -1.7075808
-7.204443 -21.334005 -1.7147845
-6.7018847 -21.54771 -1.7184602
-6.1877537 -21.730032 -1.7205914
-5.6250978 -21.731859 -1.7094854
-5.0692968 -21.733664 -1.6995006
-4.5196972 -21.735451 -1.6906259
-3.9747558 -21.733122 -1.682492
-3.4351072 -21.733582 -1.6756219
-1.8380078 -21.734945 -1.6610866
-1.3111132 -21.740255 -1.6585919
1.3153613 -21.74402 -1.6588955
1.8432226 -21.747519 -1.6620752
2.3730175 -21.748178 -1.6660169
2.905664 -21.748837 -1.670954
3.4418261 -21.749502 -1.6768981
4.5271678 -21.750841 -1.6918801
5.0785642 -21.754791 -1.7012347
5.6357031 -21.755955 -1.711465
6.199873 -21.757132 -1.7228266
6.7719431 -21.758322 -1.7353561
9.1384277 -21.720018 -1.7944796
9.7504883 -21.694775 -1.8113128
10.376933 -21.674248 -1.8299752
11.559433 -21.424391 -1.8538564
12.099423 -21.185511 -1.857915
13.7325 -20.452065 -1.876004
16.840858 -20.495344 -2.0200951
17.372343 -20.131573 -2.0249801
17.895956 -19.753838 -2.0298429
18.917519 -18.95714 -2.0394847
19.414795 -18.538445 -2.0442581
20.847469 -17.203356 -2.0583448
21.30409 -16.732653 -2.0629516
22.183506 -15.754304 -2.07201
22.605576 -15.247111 -2.0764556
23.01535 -14.728254 -2.0808394
24.167656 -13.104829 -2.0935946
25.196777 -11.387776 -2.1056783
23.782021 -9.3946905 -1.9472603
24.254433 -8.2523594 -1.9510281
24.467987 -7.6714926 -1.9527463
24.848955 -6.4923997 -1.9558446
26.312178 -6.2005615 -2.058634
27.477041 -5.0899816 -2.128057
27.606289 -4.4278345 -2.1291692
27.811699 -3.0935588 -2.1310022
27.887655 -2.4223816 -2.1317215
27.945663 -1.7492807 -2.1323082
28.007713 -0.39917052 -2.1330826
28.011562 0.27674133 -2.1332684
27.99748 0.95255005 -2.1333213
27.965311 1.6277972 -2.13324
27.760654 3.644412 -2.1321924
27.289276 4.254705 -2.103267
25.355585 4.5824223 -1.962178
25.082685 5.7951932 -1.9604373
24.921806 6.395175 -1.9593582
21.824032 6.1652155 -1.7270091
20.246817 6.2509809 -1.6136676
17.041376 6.1765103 -1.380361
16.069872 6.2670622 -1.3135376
14.998252 6.2701764 -1.2379529
14.042783 6.2729535 -1.1712425
11.538437 6.1916022 -0.99719661
11.048789 6.2768106 -0.96769059
9.9088087 6.2801175 -0.89337379
9.401494 6.28159 -0.86105466
8.9293652 6.282958 -0.83145797
8.4883204 6.2842364 -0.80428046
8.0749998 6.2854328 -0.77926332
7.3198829 6.2876201 -0.73484355
6.5545216 6.2041535 -0.68728757
6.0330076 6.2894473 -0.66368401
4.4913964 6.2938972 -0.58882147
4.2664552 6.2945466 -0.57907957
4.0487208 6.2951713 -0.56998289
3.8375976 6.2957807 -0.56148708
3.6325293 6.29637 -0.55355847
3.2387793 6.297503 -0.53927773
2.6827343 6.2990985 -0.52138406
2.3309276 6.300108 -0.51155263
1.8254882 6.3015556 -0.49960887
1.012207 6.2200947 -0.4799054
0.56201172 6.3034282 -0.48192576
0.40902343 6.3038654 -0.48106363
-0.04790039 6.3051653 -0.48016652
-0.35262695 6.3060308 -0.48096964
-0.50554687 6.3064642 -0.48179299
-0.6590625 6.3069 -0.48290023
-0.81339842 6.3073368 -0.48429683
-0.9687109 6.3077774 -0.48598474
-1.1251953 6.3082194 -0.48796812
-1.2830762 6.3086677 -0.49025589
-1.4425195 6.3091192 -0.49285224
-1.60375 6.3095746 -0.49576822
-1.7670116 6.3100357 -0.49901026
-1.9325098 6.3105021 -0.50258905
-2.2712207 6.3114591 -0.5108065
-2.6220508 6.312448 -0.52052951
-3.3698633 6.3145523 -0.54505974
-3.7505662 6.2785525 -0.5569393
-4.1439357 6.2329397 -0.56998777
-4.661211 6.3262734 -0.59840959
