# .PCD v0.7 - Point Cloud Data file format
VERSION 0.7
FIELDS x y z
SIZE 4 4 4
TYPE F F F
COUNT 1 1 1
WIDTH 1533
HEIGHT 1
VIEWPOINT 0 0 0 1 0 0 0
POINTS 1533
DATA ascii
12.124028 16.604107 3.0903723
10.948134 16.62162 2.9917467
9.8425531 16.638086 2.9057806
9.3126068 16.645979 2.86708
8.7962885 16.653673 2.8310223
8.2925043 16.661177 2.7974658
7.8002586 16.668512 2.7662871
6.8466744 16.682722 2.7106225
5.928535 16.696405 2.663228
4.7203269 17.134848 2.6715593
4.8018699 19.23127 2.9794879
4.7879443 21.354834 3.2896326
4.8351073 24.296318 3.7237022
2.238369 29.469965 4.4425197
-8.2794771 28.147827 4.4102631
-11.608472 21.088436 3.6184258
-12.313325 21.144848 3.6780181
-12.847295 20.886284 3.685894
-20.151699 -6.4009447 3.1782324
-20.147753 -8.0458059 3.2610552
-19.224535 -8.7746792 3.1765056
-18.263441 -8.8743687 3.0521917
-19.583387 -21.77417 4.4019923
-17.805893 -21.82976 4.2344675
-16.947182 -21.831806 4.1543317
-15.320918 -21.834703 4.0094438
-14.548515 -21.835951 3.944057
-13.074868 -21.838329 3.8259857
-3.4786863 -7.3325772 1.2199391
-2.9485838 -7.5887823 1.2237834
-2.4487059 -7.3316727 1.161899
-2.3852293 -7.7598209 1.2202736
-2.1562352 -7.6689243 1.1974485
-1.9426074 -7.6089172 1.1804177
-1.7069433 -8.3470821 1.2806541
-1.5097607 -8.4118824 1.2846309
-1.3112842 -8.4774599 1.2894392
-2.8406494 -21.84057 3.3106067
-1.2445849 -21.825972 3.2860918
3.0868993 -22.550484 3.4212761
13.444472 -9.0088549 2.4326463
17.108412 15.513341 3.4714537
16.269087 15.483614 3.3759716
15.790058 16.550875 3.4384136
15.053467 16.560934 3.3640568
14.348018 16.570992 3.2948139
12.39183 16.600119 3.1137993
10.630556 16.62635 2.9663544
10.078897 16.634565 2.9235797
9.0205612 16.65033 2.8464794
8.511426 16.657919 2.8118463
7.5280514 16.672569 2.7497504
7.0519333 16.679665 2.7220666
6.5850391 16.686619 2.6964831
6.1265626 16.693453 2.6729212
5.675786 16.700172 2.6512921
5.2320557 16.706785 2.6315351
4.7945604 16.713306 2.6135802
4.7877293 18.348457 2.8503826
4.7706056 20.27276 3.1305242
-9.4260788 28.088861 4.4535618
-12.606718 20.988379 3.6802239
-13.245088 20.892241 3.7183256
-19.567324 -6.509058 3.0997162
-19.731092 -7.0965271 3.1518681
-19.31563 -8.0191193 3.1436925
-19.98167 -21.751011 4.4396853
-18.192177 -21.828838 4.2712994
-15.667358 -21.834856 4.0396194
-14.883168 -21.835409 3.9720988
-14.124741 -21.836636 3.909179
-3.5343504 -7.2513547 1.2125623
-2.2578516 -7.7168102 1.2085795
-2.0373778 -7.642786 1.1889397
-1.7910352 -7.4349198 1.1495451
-1.5961621 -8.3834419 1.2827895
-1.398291 -8.4486685 1.2872325
-1.4760302 -21.830038 3.288861
-0.94747555 -21.824728 3.2836614
-0.42057127 -21.829163 3.2818456
0.63522947 -21.907202 3.294353
1.1675292 -21.960772 3.3056829
1.7046875 -22.026018 3.3207281
2.8201952 -22.354858 3.3868926
6.0984373 16.693731 2.2635233
4.7676172 16.713568 2.2135363
4.7862058 18.455391 2.4282176
4.7691355 20.40304 2.6685522
4.863574 23.333155 3.0355573
3.7684765 28.141211 3.6160338
2.4198973 28.444424 3.6357422
1.7156347 28.208715 3.5992761
-8.080122 28.418846 3.7628558
-11.476201 25.57703 3.5703442
-11.100459 23.222866 3.2781634
-10.785283 21.231455 3.0329058
-11.518701 21.381611 3.0931597
-14.015615 20.903568 3.2052941
-19.525356 -7.0555062 2.6441064
-18.475952 -8.7716579 2.6048059
-12.306996 -7.7825718 1.8545134
-19.025604 -21.805952 3.6856627
-16.427406 -21.833445 3.4798656
-14.835561 -21.835505 3.3621008
-14.078652 -21.836725 3.3090143
-13.344858 -21.83791 3.2594512
-12.632314 -21.839058 3.213186
-11.933027 -21.828678 3.1683733
-11.257631 -21.828426 3.127995
-3.346411 -7.3372288 1.0270654
-2.9769921 -7.4609513 1.0230696
-2.8903906 -7.7844033 1.0575497
-1.7625732 -8.2381496 1.0729493
-1.5677686 -8.3017807 1.075996
-1.3717822 -8.3660879 1.0797255
-3.0421972 -21.840874 2.8084917
-2.5066698 -21.84042 2.7998357
-1.4432909 -21.829519 2.7862597
-0.38794434 -21.829586 2.7806342
0.13896972 -21.865248 2.7847936
0.66808105 -21.911001 2.7918608
1.7381201 -22.030684 2.8145227
14.724316 -8.0998192 2.140286
14.725703 -7.6437783 2.1130579
15.860624 -7.2844162 2.2228506
15.325449 16.556261 2.8732915
12.624829 16.596483 2.6557622
12.010634 16.605633 2.6100891
8.7010546 16.65494 2.3931816
8.1995258 16.662413 2.3651378
6.7592969 16.683878 2.2926047
6.2977633 16.690758 2.2720025
4.9580908 16.710732 2.2199628
4.7222948 17.449074 2.3022444
4.791821 21.832993 2.8468127
4.7191892 27.859516 3.5987048
2.0219433 28.31123 3.614876
-11.256411 24.202261 3.3994544
-10.916631 22.063555 3.1351366
-10.954106 20.857763 3.0004883
-11.899092 21.387304 3.1170611
-12.590199 21.39764 3.1619275
-20.117676 -6.4902458 2.6922064
-19.994701 -6.9874573 2.6975281
-19.611607 -7.3891015 2.6691234
-18.451874 -7.9885044 2.5607996
-18.027182 -8.8603859 2.5582566
-20.328661 -21.730171 3.7897754
-19.414486 -21.783335 3.7162609
-18.529501 -21.828451 3.646621
-17.643105 -21.830557 3.5748131
-15.968779 -21.83453 3.4451752
-15.174443 -21.834957 3.3864868
-14.406773 -21.836195 3.3317883
-13.66312 -21.837397 3.280714
-12.233998 -21.828789 3.18695
-11.550927 -21.828537 3.1453021
-3.2732861 -7.4428391 1.0355331
-3.0514793 -7.4191899 1.0217019
-2.9695506 -7.7461224 1.0565485
-2.6101904 -7.3332763 0.99135834
-2.5482373 -7.7458429 1.0385165
-2.4275877 -8.0263777 1.067964
-1.8513818 -7.390645 0.97034973
-1.8474902 -8.2105761 1.071838
-1.6531005 -8.2738705 1.0745791
-1.4576708 -8.3378696 1.078009
-1.2609032 -8.4025993 1.0821292
-2.2066357 -21.838966 2.7955534
-1.6751416 -21.833593 2.7888787
-0.09169922 -21.847237 2.7824688
0.43627441 -21.888472 2.7882543
1.5024023 -22.001884 2.8086627
2.044292 -22.084209 2.8246477
2.6015086 -22.242781 2.8521283
3.2031298 -22.638712 2.9119611
14.152368 -7.9808812 2.0692756
14.130136 -7.5249667 2.0388803
16.014639 -7.0935569 2.2307365
15.648549 16.551451 2.9009569
14.219218 16.572737 2.7810998
13.547163 16.582745 2.7271271
11.674184 16.610643 2.585731
10.52605 16.627747 2.5063531
9.4438477 16.643871 2.4372022
8.4174366 16.659168 2.3771529
7.9224219 16.666542 2.3502443
6.0416651 16.694576 2.2611558
5.5922608 16.701275 2.2431314
5.1496825 16.707874 2.2266779
4.7133203 16.71438 2.2117462
4.7901316 18.702818 2.4588566
4.8697314 23.721167 3.0841069
4.2506981 27.34243 3.5241375
2.3309424 28.414648 3.6310198
-9.5939894 28.16725 3.7897387
-11.602846 21.38287 3.0983984
-12.285488 21.393085 3.1419182
-12.987944 21.403593 3.1885614
-19.533686 -6.5958838 2.6257951
-19.54439 -7.12919 2.6495879
-19.74041 -7.7452121 2.7007129
-19.621529 -8.2501421 2.7108948
-19.017969 -8.5419273 2.65521
-18.374594 -8.7916346 2.5942512
-19.809971 -21.760336 3.7477946
-18.026459 -21.829647 3.6056061
-16.324554 -21.833689 3.4720299
-14.739497 -21.835659 3.355252
-13.985571 -21.836874 3.3026202
-13.25454 -21.838057 3.2534783
-11.847509 -21.828648 3.1631591
-3.4578905 -7.1765299 1.014562
-3.3302295 -7.3605752 1.0289201
-2.8677051 -7.7953806 1.0578601
-2.5268407 -8.0471163 1.0742128
-2.1708496 -7.54564 0.9999873
-1.9692968 -7.523622 0.99048167
-1.7066162 -7.2275105 0.94580257
-1.7382421 -8.2460794 1.073292
-1.5433056 -8.3097916 1.0764248
-1.3471582 -8.3741903 1.0802413
-2.4398193 -21.840097 2.7988372
0.20505859 -21.870413 2.785517
1.2676464 -21.973202 2.803139
2.3564453 -22.173042 2.8398387
3.6187108 -23.292231 3.0020642
13.557256 -8.7333612 2.0538826
14.535933 -7.939105 2.109406
22.709438 -7.8044505 3.0582843
15.234111 16.557621 2.865531
12.546742 16.597647 2.6498723
10.215415 16.632376 2.4859171
9.6754589 16.640421 2.4515123
8.137578 16.663336 2.3617699
7.6487207 16.670622 2.3359618
7.170166 16.677755 2.3120453
5.3424606 16.705 2.2336867
4.7972898 22.177641 2.8898504
4.6132469 27.742601 3.5817888
-9.2617769 28.162279 3.7757111
-11.60874 26.403252 3.6733677
-11.210517 23.914433 3.3637669
-10.878061 21.81954 3.1051202
-11.278125 21.318119 3.0715942
-11.984536 21.388584 3.1225078
-20.111938 -6.5555258 2.694077
-19.631054 -7.4642324 2.6748242
-19.180834 -7.8276758 2.6384501
-18.732422 -8.7211256 2.6316302
-17.929716 -8.8797846 2.5482187
-12.38666 -7.7029295 1.8577198
-19.302528 -21.789848 3.7074089
-18.416542 -21.82872 3.6373553
-17.534605 -21.830814 3.5661664
-16.685982 -21.832832 3.499702
-15.867949 -21.83477 3.4376361
-15.076914 -21.835117 3.3794279
-14.312431 -21.836348 3.3252039
-11.46666 -21.828505 3.1402948
-3.3864989 -7.2794127 1.022514
-2.9469042 -7.7570677 1.0568228
-2.4027879 -8.0318699 1.0677247
-2.0496044 -7.5062008 0.9909814
-1.8185302 -7.3536158 0.96476239
-1.628706 -8.2818451 1.074971
-1.0795898 -21.823769 2.7828534
-0.025698241 -21.85239 2.7831018
2.1134374 -22.103886 2.8279705
2.6720166 -22.262846 2.8557239
3.2811766 -22.695961 2.9205866
13.765791 -8.6055803 2.0675862
13.319116 -7.8860278 1.9713451
14.580322 -8.1642714 2.1282349
14.744409 -7.3455205 2.097964
16.313906 16.541542 2.9589152
14.133628 16.574013 2.7741399
13.464863 16.583971 2.7206304
12.200147 16.602808 2.6240184
11.019472 16.620394 2.5397365
10.456518 16.62878 2.5017378
8.8601122 16.652569 2.4023638
8.3548679 16.660101 2.3736758
6.9051266 16.681702 2.2993872
6.4409909 16.688623 2.2782543
4.7941551 18.956524 2.4902961
4.778872 21.016724 2.7449951
4.8760839 24.121561 3.1342371
4.9878659 28.155972 3.641753
4.308115 28.274233 3.6425407
-8.9320164 28.157349 3.7621984
-11.01645 22.693769 3.2128093
-11.687256 21.384136 3.1036804
-13.077416 21.404932 3.1946313
-19.622084 -6.6918201 2.6403832
-19.563505 -7.203156 2.6551154
-19.680048 -7.7901678 2.6956573
-18.947845 -8.5793066 2.6490276
-18.274092 -8.8114452 2.5838029
-18.805811 -21.818735 3.6685534
-17.916128 -21.829906 3.5967028
-17.05327 -21.831957 3.5282147
-16.222168 -21.833931 3.4642656
-15.419394 -21.834562 3.40434
-11.762275 -21.828615 3.1579926
-11.091196 -21.828363 3.1183293
-2.8450146 -7.8063593 1.0581802
-2.5681982 -7.6128292 1.0232478
-2.1436815 -7.536788 0.99795133
-1.7138915 -8.2540226 1.0736473
-2.9078319 -21.840927 2.8061883
-1.3107861 -21.827187 2.7848961
-0.25614259 -21.834389 2.7809966
0.27116698 -21.875576 2.7862675
1.8734667 -22.047218 2.8180323
2.4263573 -22.192936 2.8433123
3.0104687 -22.497372 2.8907807
3.7281103 -23.527918 3.0338788
13.603417 -8.7050562 2.0568819
13.84581 -7.9460545 2.0331476
14.335205 -7.7733378 2.0768595
14.732505 -7.5346727 2.107465
15.929023 -7.199645 2.2263017
16.656723 16.536438 2.9892778
15.143306 16.558975 2.8578374
14.43457 16.569527 2.7987299
13.754169 16.579662 2.7435772
13.099771 16.589411 2.6921074
11.860131 16.607874 2.5991344
11.271196 16.61665 2.5571964
10.700679 16.625145 2.5180402
9.608882 16.641409 2.4473732
9.0850391 16.649218 2.4155769
7.1109762 16.678638 2.3091779
6.183486 16.692459 2.267112
5.7317872 16.699196 2.2485869
5.2871923 16.705824 2.2316532
4.8489451 16.712355 2.216249
4.7805223 18.097054 2.3838825
4.7622118 19.96636 2.6142254
4.8547363 22.775688 2.9658551
3.9024119 28.174223 3.622498
1.8463329 28.252455 3.6058855
-8.6045752 28.152451 3.7492023
-11.165645 23.63269 3.3288665
-10.840298 21.580379 3.0757294
-12.070302 21.389868 3.1280053
-12.766347 21.400278 3.1736486
-19.86434 -8.1767006 2.7358513
-18.08642 -7.9603696 2.5167081
-18.628998 -8.7414999 2.6207972
-12.306655 -7.7048349 1.8492026
-19.191156 -21.796326 3.6986389
-18.304253 -21.828987 3.628175
-16.581938 -21.833078 3.4916985
-15.767622 -21.835009 3.4301934
-14.979887 -21.83527 3.3724382
-14.218428 -21.836498 3.3186693
-12.061294 -21.828726 3.1762462
-11.382636 -21.828474 3.1353283
-3.4970605 -7.1201553 1.0102878
-3.3704736 -7.3025198 1.0243258
-2.3786767 -8.0395803 1.06779
-1.7988915 -8.2263288 1.0724548
-1.6043066 -8.2898216 1.0753726
-3.1427538 -21.840834 2.8102789
-2.6066406 -21.840902 2.8013775
-2.0734034 -21.838326 2.793819
-1.5423925 -21.831259 2.7873399
-1.0135351 -21.824326 2.7825208
0.56881833 -21.901014 2.7902343
1.1006933 -21.95454 2.7996221
13.812612 -8.5769176 2.0707164
13.433486 -7.899055 1.9847325
14.588237 -8.1109505 2.1258051
14.73166 -7.7314763 2.1189003
14.396724 -7.1181364 2.0454292
15.809672 -7.3475809 2.2203321
15.462812 16.554216 2.8850141
14.740986 16.564966 2.824085
12.742133 16.594734 2.6646569
11.526435 16.612843 2.5751903
10.387236 16.629816 2.4971626
9.8424702 16.637934 2.4619989
9.3125238 16.645828 2.429209
8.796216 16.653524 2.3986588
6.846611 16.682577 2.296649
6.3834958 16.689482 2.2757316
5.4808397 16.702936 2.2388673
4.7839551 21.337011 2.7849286
4.8305421 24.273384 3.1520488
4.2174802 28.251888 3.638006
-9.026123 28.158754 3.7660108
-10.975786 22.437212 3.1811669
-11.771938 21.385401 3.1090093
-12.459399 21.395683 3.1532969
-13.782915 21.241449 3.2248986
-20.126221 -6.3928576 2.6894603
-16.947495 -21.832209 3.5199628
-15.320932 -21.834721 3.3971417
-13.800508 -21.837175 3.2899976
-13.074883 -21.838345 3.2417016
-3.4262695 -7.2220898 1.0180606
-3.2977343 -7.4075055 1.0326791
-3.0033691 -7.7297826 1.0561572
-2.822295 -7.8173532 1.0585088
-2.469873 -8.035202 1.0706097
-2.1166065 -7.527977 0.99593198
-1.8837646 -8.1988277 1.0714023
-1.689541 -8.2619715 1.0740126
-1.4943163 -8.3258467 1.0773151
-2.3062451 -21.839447 2.7969196
-1.2445898 -21.826025 2.784256
-0.71695799 -21.82682 2.781342
0.86767089 -21.931091 2.7953093
1.9412549 -22.0555 2.8198259
2.4964256 -22.212875 2.8468206
5.7985349 -7.744658 1.232181
13.649687 -8.6766987 2.0599079
14.024765 -8.4471207 2.0851424
13.967465 -7.9598703 2.0474687
14.735903 -7.4804215 2.1047151
15.963296 -7.1571712 2.2280605
15.788613 16.549366 2.913048
14.347866 16.570818 2.7916138
13.670849 16.580904 2.7369378
13.019589 16.590605 2.6859088
11.785376 16.608988 2.5937293
11.198823 16.617725 2.5521476
10.630454 16.626192 2.5133235
10.078794 16.634411 2.4770792
9.5425243 16.642401 2.4432662
7.527998 16.672422 2.3297994
7.0518651 16.679518 2.3063426
6.5849853 16.686478 2.2846684
6.1265135 16.693312 2.2647028
5.2320065 16.706646 2.2296433
4.7945261 16.713167 2.2144268
4.7843018 18.33534 2.4133582
3.812783 28.152128 3.6181602
2.4639502 28.459164 3.6380937
1.7588037 28.223158 3.6014495
-9.4516792 28.165117 3.7836761
-11.121778 23.357002 3.2947485
-10.803281 21.345697 3.0469165
-11.47727 21.380991 3.0905907
-12.156367 21.391151 3.1335497
-12.854931 21.401602 3.1795866
-13.546626 21.36788 3.2222064
-13.969951 20.902885 3.2019885
-19.403765 -6.4546499 2.604389
-19.515972 -7.0191574 2.6414104
-18.526358 -8.7617254 2.6100671
-12.291762 -7.7472563 1.850471
-19.981098 -21.750385 3.7615674
-14.883188 -21.835426 3.3655009
-14.124745 -21.836651 3.3121917
-13.389702 -21.837837 3.2624249
-3.4813914 -7.1427002 1.0119911
-3.3543701 -7.3257384 1.0261569
-3.1575146 -7.3598537 1.0199655
-2.9016063 -7.778975 1.0574011
-2.3545508 -8.0472994 1.0678661
-2.0212696 -7.5823507 0.99940503
-1.7539062 -7.2807922 0.95380032
-3.0754442 -21.840862 2.8090754
-2.539712 -21.84058 2.8003411
-2.0068212 -21.837999 2.7929876
-0.94748533 -21.824881 2.7822161
0.10629883 -21.8627 2.784445
2.3688817 6.4845738 0.72167832
2.1931493 6.4847946 0.71560454
2.0202539 6.4850121 0.71004242
1.5159863 6.4856505 0.69625121
1.0284228 6.4862719 0.68651074
0.86861324 6.4864745 0.68411481
0.7098242 6.4866781 0.68213147
0.0810498 6.4874854 0.67822051
-0.075478517 6.4876881 0.6782344
-0.54636717 6.4882956 0.68065321
-0.70437986 6.4885006 0.68225831
-1.0231298 6.4889159 0.68669784
-1.184248 6.4891257 0.68954331
-1.3468115 6.4893384 0.69281828
-1.4915038 6.4057322 0.68753356
-1.821416 6.4061642 0.69620848
-9.4985933 28.165581 3.1072149
-10.767915 27.47538 3.0848413
-10.427622 24.82686 2.8149016
-9.9627533 20.842749 2.4149082
-10.856445 21.371513 2.5057988
-11.518599 21.381416 2.5388114
-12.898745 21.402056 2.6121764
-14.324003 21.363491 2.6887407
-19.944637 -6.6676097 2.1983364
-19.88522 -7.1855454 2.2102561
-18.385952 -8.7289286 2.1275849
-12.308926 -7.7837915 1.5224046
-19.025059 -21.805342 3.0250652
-17.266493 -21.831856 2.9096892
-16.427704 -21.833839 2.8562915
-14.835567 -21.835522 2.7595775
-14.078657 -21.836742 2.7160089
-12.632319 -21.839075 2.6373522
-11.933481 -21.829538 2.6006694
-10.599301 -21.829018 2.5366752
-3.2965381 -7.2278843 0.83044189
-3.1482177 -7.3684902 0.83762467
-3.0156834 -7.5579143 0.8506372
-1.9617089 -7.4032707 0.80060959
-1.9369237 -8.0934992 0.86994612
-1.7448974 -8.15555 0.87183517
-1.552002 -8.2183075 0.87428558
-3.0422606 -21.841259 2.3052204
-1.4433056 -21.829575 2.2869377
-0.38795897 -21.829739 2.2823322
0.13896485 -21.865658 2.2857769
1.738169 -22.031263 2.3101969
2.2868261 -22.154419 2.3282161
2.8583739 -22.388716 2.359401
14.091352 -8.2005148 1.704318
14.367983 -7.9038 1.7142116
15.53787 -7.5952888 1.8079213
16.073208 16.544943 2.4113026
13.921865 16.57699 2.2629204
12.010703 16.605726 2.1423469
10.84228 16.623692 2.0747004
3.7374902 6.3835702 0.77326673
3.5336668 6.3838243 0.76274657
7.7100534 16.67128 1.920077
7.2300973 16.67816 1.9002223
1.9241259 6.4851341 0.70713103
1.5883203 6.485559 0.69800061
1.2603222 6.4859753 0.69069135
0.93837887 6.4863853 0.6851117
0.77916503 6.4865894 0.68294829
0.62085938 6.4867916 0.68119353
0.46328124 6.4869933 0.67984372
-0.16356444 6.4878001 0.67841595
-0.32032225 6.4880028 0.679048
-0.79363769 6.4886169 0.68334061
-0.95305175 6.4888253 0.68558532
-1.1136132 6.4890342 0.68824643
-1.2755225 6.4892454 0.69133073
-1.4389746 6.489459 0.69485211
-1.5834814 6.4058518 0.68978924
-1.7485449 6.4060678 0.69415432
-1.9158056 6.4062877 0.69898254
-9.167119 28.160624 3.0958214
-10.568388 25.924892 2.9265916
-10.006323 21.514462 2.480366
-11.226826 21.37705 2.5240822
-11.898979 21.38711 2.5584285
-13.301802 21.408085 2.6347101
-19.678511 -6.8769584 2.179091
-19.150459 -7.7479186 2.1595325
-18.233852 -7.8941116 2.0770426
-18.727421 -8.6500568 2.1564164
-17.643452 -21.830963 2.9342248
-16.790806 -21.832981 2.8792021
-15.174453 -21.834974 2.7795916
-14.406782 -21.83621 2.7347009
-13.663139 -21.837412 2.6927772
-12.234492 -21.829653 2.615916
-10.885483 -21.82913 2.5498967
-3.3520653 -7.1488523 0.82538098
-3.2241259 -7.3310771 0.83719313
-3.0741405 -7.4742918 0.84483027
-2.9393311 -7.667304 0.85837978
-2.7661572 -7.7714858 0.86232066
-2.4027002 -7.9440832 0.86758637
-2.0826268 -7.5374408 0.81744993
-2.0206933 -8.0665236 0.86928982
-1.8289844 -8.1283216 0.87094009
-3.277534 -21.841164 2.3087337
-2.7406151 -21.841377 2.3010933
-1.6751513 -21.833649 2.2890897
0.4362793 -21.888882 2.28861
1.5024365 -22.002466 2.3053832
2.6016455 -22.244019 2.3411291
3.2036083 -22.642015 2.3904669
13.926289 -8.3024025 1.6948572
13.931752 -7.8564696 1.6719639
14.498169 -7.7209635 1.7170793
14.527202 -7.2921786 1.6991844
15.689219 -7.4071555 1.8136653
16.411118 16.539907 2.4356704
12.900244 16.592213 2.1970177
12.276635 16.601631 2.1584134
11.091509 16.619862 2.0887125
10.526547 16.62854 2.0572853
3.8377392 6.3989401 0.77999496
3.4213915 6.3839645 0.75714493
7.9232078 16.668224 1.9292485
6.9643455 16.681967 1.8897139
2.1713622 6.4848228 0.71488112
1.998794 6.4850402 0.70938218
1.8287743 6.4852548 0.7043727
1.4953467 6.4856763 0.69576627
1.3314794 6.4858847 0.69213879
1.1692237 6.4860911 0.68895048
0.84868652 6.4865003 0.6838432
0.69000489 6.4867039 0.68191224
0.53213376 6.4869056 0.68038464
0.37486815 6.4871068 0.67925996
0.2180371 6.4873095 0.67853194
0.061450195 6.4875107 0.67819989
-0.56610841 6.4883213 0.68083233
-0.72422361 6.4885263 0.68248898
-1.2045263 6.4891539 0.68993008
-1.3672754 6.4893651 0.69325757
-1.8423584 6.4061913 0.69681334
-8.8380423 28.155708 3.0848565
-10.389409 24.52808 2.7845745
-10.113061 22.357958 2.5651641
-10.040767 20.843916 2.4185495
-10.938398 21.372738 2.5098069
-12.285366 21.392879 2.5788317
-12.987837 21.403389 2.6171167
-14.418667 21.364906 2.6943963
-19.323124 -8.6789789 2.2143381
-18.285444 -8.7489805 2.1190026
-18.026806 -21.830059 2.9595025
-17.159775 -21.832109 2.9028039
-15.518281 -21.834419 2.8002129
-14.739521 -21.835676 2.753963
-13.254545 -21.83807 2.6704242
-11.847974 -21.829506 2.5963891
-11.174717 -21.829243 2.56354
-3.2805176 -7.2506995 0.83192015
-3.1318407 -7.3918676 0.839203
-2.9988134 -7.5820713 0.85233366
-2.2088475 -7.6776981 0.83514237
-1.9280175 -7.3659225 0.79593658
-1.9129199 -8.1012363 0.87015104
-1.7208105 -8.1633739 0.87211132
-3.5135984 -21.841072 2.312516
-2.4398339 -21.8402 2.2972679
-1.9074512 -21.837622 2.2914896
-1.3770214 -21.828407 2.2863688
-0.32200682 -21.830292 2.2822773
0.73456544 -21.918188 2.2925034
2.3565722 -22.174267 2.331043
3.6207519 -23.305317 2.4654481
5.7766504 -7.8133545 1.0157576
13.763105 -8.4032288 1.685698
14.13894 -8.1711597 1.7070844
14.514497 -7.4785857 1.7068348
15.233959 16.557446 2.3519707
14.521499 16.568058 2.3030307
11.935337 16.606886 2.1378386
10.215981 16.633307 2.040529
3.7116699 6.3836021 0.77190918
3.3162889 6.3948483 0.7530275
8.1384468 16.665121 1.9387226
7.6494284 16.672148 1.9175096
7.1707129 16.67901 1.8978441
2.2477002 6.484725 0.71744597
2.0739453 6.4849448 0.71172589
1.7341455 6.4853745 0.70176494
1.5675781 6.4855847 0.69749129
1.4029443 6.4857931 0.69367152
0.60110348 6.4868174 0.6810028
0.12993164 6.4874215 0.6782971
-0.026596678 6.4876242 0.67818737
-0.18317871 6.4878259 0.67847317
-0.49716309 6.4882321 0.68023419
-0.65496093 6.4884362 0.681714
-1.1337988 6.4890614 0.68860841
-1.4574951 6.480278 0.69433928
-1.6040331 6.4058785 0.69031113
-8.5112352 28.15082 3.0743077
-9.2617035 28.162041 3.0990393
-10.52689 25.601591 2.8936718
-9.9771633 21.283417 2.45719
-10.623105 21.30813 2.4889216
-13.392436 21.409443 2.6398406
-14.129453 21.420467 2.6824529
-19.847763 -7.0034461 2.2001653
-18.922197 -8.2600689 2.1582847
-18.635668 -8.6760798 2.1488585
-18.416899 -21.829136 2.9855609
-17.534937 -21.831221 2.9271295
-15.868232 -21.835161 2.821629
-15.076933 -21.835131 2.7738006
-13.571621 -21.837559 2.6877289
-12.852607 -21.83872 2.6489313
-12.148012 -21.82962 2.6115074
-10.803276 -21.829098 2.546067
-3.0574901 -7.4981027 0.84647441
-2.922163 -7.6919336 0.86014557
-2.3788135 -7.9517112 0.86763042
-2.0474756 -7.4983859 0.81254166
-1.6123388 -8.1986532 0.8734622
-1.4186718 -8.2618256 0.87629104
-2.6736522 -21.8414 2.3002374
2.1135595 -22.105106 2.3212976
2.672168 -22.264086 2.3440812
3.2816648 -22.699282 2.3975422
13.973315 -8.2733631 1.6975316
14.530937 -7.239171 1.6970543
15.723012 -7.36515 1.8149949
15.555254 16.552656 2.3744729
14.133486 16.573839 2.2769597
13.464731 16.583801 2.2330413
12.820912 16.593391 2.1920359
12.200147 16.602808 2.1537657
11.019849 16.62096 2.0846632
3.8115332 6.3989735 0.77859497
3.3966162 6.3839951 0.75592846
3.3167236 6.6137924 0.77343684
6.9055762 16.682808 1.887437
2.5026464 6.4844055 0.72657883
2.1496046 6.4848499 0.71416551
1.9773877 6.4850659 0.70872891
1.8076513 6.4852805 0.70377988
1.6401855 6.4854941 0.69930464
1.4747314 6.4857016 0.69528729
1.1490136 6.4861169 0.68858105
0.98830074 6.4863229 0.6858719
0.82877439 6.4865246 0.68357986
0.67020506 6.4867282 0.68169796
0.041860349 6.4875364 0.67818725
-0.11467285 6.4877377 0.67830014
-0.58585936 6.488348 0.6810168
-0.74407226 6.4885521 0.6827246
-1.3877538 6.4893932 0.69370544
-1.5323584 6.4057846 0.68851942
-1.8633398 6.4062195 0.69742596
-8.9319477 28.157108 3.0879517
-9.6894283 28.168436 3.1139245
-12.372182 21.394178 2.5834796
-13.077294 21.404732 2.6220977
-19.870296 -7.3161044 2.2134643
-19.780415 -7.8299003 2.2238533
-18.496016 -7.8427191 2.100117
-18.185791 -8.7688656 2.1105111
-18.805273 -21.818125 3.011029
-16.222456 -21.834326 2.8434825
-15.419399 -21.834579 2.7942541
-14.643827 -21.835829 2.7483892
-13.892861 -21.83704 2.7055571
-12.451572 -21.829737 2.6270959
-11.091631 -21.82921 2.5595946
-3.3913085 -7.0930567 0.82186383
-3.1154003 -7.4153361 0.84079528
-2.9818749 -7.6063352 0.85404462
-2.8223975 -7.7443032 0.86163831
-2.5372167 -7.5210013 0.82973999
-2.4622557 -7.925077 0.86751175
-1.888916 -8.1089783 0.87036741
-1.6966991 -8.1712103 0.87239838
-1.5035449 -8.2341108 0.87498504
-3.4459667 -21.841099 2.311404
-2.907876 -21.841311 2.3033316
-2.3730223 -21.839878 2.2964711
-1.8409375 -21.836565 2.2907817
-1.3107861 -21.827246 2.2858222
-0.25614744 -21.834797 2.2826574
3.7302196 -23.54126 2.4915836
13.809605 -8.3744879 1.6882854
14.62267 -7.9292145 1.7388511
14.518125 -7.4250345 1.704615
14.214179 -6.8421855 1.6490632
15.875669 -7.1755285 1.8212031
22.727983 -7.734138 2.5096619
16.656528 16.536253 2.4535418
15.882802 16.547777 2.397687
13.099644 16.589239 2.2096305
10.701133 16.625858 2.0668669
3.6859276 6.383635 0.77056408
3.4834912 6.3838868 0.76022518
8.0766306 16.666023 1.9359828
7.5889306 16.673016 1.9149635
6.6433444 16.686571 1.8774875
2.4020898 6.4845324 0.72287303
1.5468799 6.4856114 0.69698912
1.3824658 6.4858212 0.69322419
0.73945796 6.4866405 0.68247116
0.58134764 6.4868431 0.68081743
0.42392576 6.4870443 0.67956787
0.11033203 6.4874463 0.678262
-0.51688474 6.4882593 0.68039674
-0.83345211 6.4886694 0.68386459
-1.1540185 6.4890866 0.68897951
-1.4610498 6.4056921 0.68681413
-1.6246191 6.4059057 0.69084001
-1.7901952 6.4061217 0.69531906
-9.3565474 28.163462 3.1022906
-10.194214 22.997143 2.6296153
-9.9485836 21.056738 2.4344776
-10.734453 21.369686 2.4998789
-12.070186 21.389668 2.5674095
-12.76624 21.400078 2.6048737
-13.483403 21.410805 2.6450145
-19.955717 -6.5713611 2.1962667
-18.839502 -7.2284393 2.1093822
-18.852909 -8.2977171 2.1532309
-20.095825 -21.743052 3.0950181
-19.190605 -21.79571 3.0357189
-17.426914 -21.831476 2.9200921
-15.767895 -21.8354 2.8154833
-14.979907 -21.835287 2.7680652
-14.218437 -21.836515 2.7239318
-13.480439 -21.837704 2.6827197
-12.061763 -21.82959 2.6071336
-10.721342 -21.829067 2.5422788
-3.3203661 -7.1939597 0.82825786
-3.0407665 -7.522017 0.84813398
-2.9010546 -7.7063155 0.86077088
-2.7210302 -7.7933159 0.86290282
-2.5471435 -7.9029431 0.86798489
-2.3023682 -7.7816653 0.84831434
-1.9727588 -8.081954 0.86965209
-1.5881884 -8.2065182 0.87378675
-1.3943603 -8.2697706 0.87668288
-2.6066649 -21.841007 2.299351
-2.0734034 -21.838425 2.2931473
-1.01354 -21.824476 2.2838798
0.040234376 -21.857946 2.2849259
1.6372362 -22.018934 2.3081048
2.1829102 -22.124846 2.3240502
2.7455809 -22.305956 2.3493474
3.3601024 -22.756832 2.4046805
15.756894 -7.3230505 1.8163414
16.216856 16.542803 2.4216273
14.048359 16.575106 2.2712955
13.382836 16.585022 2.2277544
12.742011 16.594568 2.1871011
12.123925 16.603983 2.1491585
11.526655 16.613173 2.1137292
10.387774 16.630672 2.0497522
3.7762549 6.383523 0.77531856
3.5713768 6.3837767 0.7646594
7.8009372 16.669973 1.9239613
7.3190918 16.676884 1.9038222
2.1279051 6.4848766 0.71345699
1.9560009 6.4850941 0.70808256
1.6193603 6.4855199 0.69877595
1.4541454 6.4857287 0.69481593
1.2907226 6.4859362 0.69130123
0.96827632 6.4863477 0.68556184
0.65040529 6.4867539 0.68149137
0.49270508 6.4869556 0.68006456
0.33556151 6.4871578 0.67904079
0.022270508 6.4875622 0.67817974
-0.60562497 6.4883738 0.68120897
-0.92313963 6.4887853 0.68513322
-1.0834717 6.4889951 0.68771589
-1.2451221 6.4892054 0.69072235
-1.5528369 6.4058104 0.68902451
-1.7175146 6.4060278 0.69330257
-9.0260401 28.158516 3.0910802
-10.632276 26.422089 2.9772704
-10.315561 23.949921 2.7259576
-10.421997 21.305122 2.4793243
-11.771831 21.385204 2.5518215
-12.459291 21.395483 2.5881689
-13.896801 21.416986 2.6688361
-19.096455 -8.1654596 2.1710851
-18.086939 -8.7885933 2.1021116
-19.582275 -21.772924 3.0611565
-16.120487 -21.834564 2.8371594
-15.320942 -21.834736 2.788341
-14.54854 -21.835983 2.7428703
-13.800517 -21.837189 2.7004015
-12.364292 -21.829704 2.6225817
-11.677769 -21.829437 2.5879443
-11.008764 -21.82918 2.5556748
-3.3756299 -7.1153436 0.82326233
-3.2483349 -7.296555 0.83491653
-3.098911 -7.4388952 0.84240139
-2.7998536 -7.755197 0.86190534
-2.5291991 -7.5726848 0.83459592
-2.4383643 -7.9326978 0.86753523
-2.1359131 -7.5966501 0.82490844
-1.8649071 -8.116725 0.87058914
-1.6725781 -8.1790514 0.87269193
-3.3783789 -21.841125 2.3103156
-2.8407567 -21.841337 2.3024168
-2.3062451 -21.83955 2.2956924
-1.7744677 -21.835396 2.290087
-0.71696287 -21.826973 2.2829132
-0.19021484 -21.839947 2.2831268
0.33735839 -21.881155 2.2876194
0.86769038 -21.931587 2.2944114
5.7978077 -7.7436843 1.0112332
13.856284 -8.3456421 1.6909034
14.492734 -7.8021984 1.7205861
14.521752 -7.3717127 1.7024232
15.638764 -7.4698625 1.8117133
15.909785 -7.1331797 1.8226402
15.788442 16.549185 2.3909738
15.052744 16.560144 2.3393977
14.347729 16.570646 2.2913008
11.785512 16.60919 2.1289299
11.199145 16.618208 2.0948403
10.630918 16.626936 2.0629997
10.079399 16.635405 2.0332799
3.6602783 6.383667 0.76922894
3.3164794 6.490809 0.76195616
6.5853467 16.687403 1.8753361
2.3798387 6.4845605 0.72207135
2.0308838 6.4849987 0.71037245
1.8604003 6.4852147 0.70527327
1.038335 6.4862585 0.68667191
0.87848145 6.4864621 0.68425155
0.7196191 6.4866648 0.6822418
0.56161129 6.4868674 0.68063951
0.24734862 6.4872704 0.67863846
0.090722658 6.4874716 0.67823243
-0.37926757 6.488081 0.67938763
-0.53660643 6.4882836 0.68056637
-0.69458497 6.4884887 0.68214887
-1.0132129 6.4889035 0.68653488
-1.1742578 6.4891138 0.68935436
-1.3366944 6.4893246 0.69260252
-1.4814111 6.4057178 0.68729353
-9.4515867 28.164883 3.1055768
-10.791279 27.656595 3.1033673
-9.9243116 20.842173 2.4131296
-11.477153 21.380795 2.5367026
-13.574721 21.412172 2.6502361
-18.971367 -7.8761935 2.1472945
-18.192865 -21.829662 2.9705522
-17.319462 -21.83173 2.9131157
-16.47872 -21.833721 2.8594878
-14.883188 -21.835443 2.7623706
-12.675849 -21.839003 2.6396129
-3.3044286 -7.2166495 0.82971615
-3.1562793 -7.3569822 0.8368504
-2.6984229 -7.8042521 0.86320859
-2.5218213 -7.9060907 0.86748838
-1.7567822 -8.1516905 0.871701
-1.5639795 -8.2144051 0.8741194
-3.6148045 -21.84103 2.3142145
-0.9474951 -21.825031 2.2836277
0.10629395 -21.863106 2.2854862
1.7047704 -22.027182 2.3094983
2.2524364 -22.144634 2.326833
2.8210008 -22.361296 2.3560658
1.5159521 6.4855161 0.54493546
1.3518701 6.4857264 0.54205382
1.0284033 6.4861388 0.53731185
0.86859864 6.4863424 0.53543687
0.55185056 6.4867492 0.53264922
0.39452636 6.4869504 0.53173006
0.23765136 6.4871531 0.53112257
0.08104492 6.4873548 0.53082335
-0.075473629 6.487556 0.53083605
-0.54635251 6.4881649 0.53272718
-0.70436519 6.4883704 0.53398454
-0.86322266 6.4885755 0.53555936
-1.0231055 6.4887838 0.53745848
-1.1842285 6.4889941 0.53968579
-1.3467871 6.4892054 0.54224807
-1.4914649 6.4055967 0.53811216
-1.8213818 6.4060302 0.54490232
-9.7075977 26.644632 2.3201969
-9.4665375 24.154799 2.1226573
-9.347744 20.833368 1.8682698
-10.877373 21.41272 1.9650383
-13.619902 21.412645 2.0763209
-14.364408 21.423779 2.1103959
-15.091484 21.374765 2.1408069
-20.931328 -6.9974689 1.8057286
-18.140572 -8.6124296 1.6430067
-12.310849 -7.7850046 1.1917512
-17.266811 -21.832256 2.2774141
-16.427992 -21.834232 2.2356234
-14.835571 -21.835537 2.159888
-13.344858 -21.837938 2.0939424
-12.632334 -21.839092 2.0642257
-11.933955 -21.830395 2.0355937
-11.258515 -21.830122 2.0096483
-9.956172 -21.82959 1.963057
-3.1200535 -7.3025861 0.64973342
-2.6860352 -7.806138 0.67543685
-2.6157861 -8.243165 0.70758313
-2.1974852 -7.55231 0.64354217
-2.1073389 -7.952858 0.67314452
-3.5813475 -21.841425 1.8108919
-3.0423193 -21.841639 1.8042989
-1.4433056 -21.829628 1.7899598
-0.91491699 -21.825453 1.7872874
-0.3879492 -21.829887 1.7863646
0.13897461 -21.866064 1.7890782
0.66811031 -21.911989 1.7936332
1.2006885 -21.966167 1.799914
2.8587842 -22.391924 1.8469359
3.5154443 -23.086939 1.9107014
14.142632 -7.7798343 1.3206465
15.75518 -7.2359843 1.4185115
16.074989 16.54677 1.8874998
15.327294 16.558252 1.8460853
14.611284 16.569242 1.8074775
5.4295554 6.465106 0.69075882
5.1690674 6.4654293 0.67727017
4.6767673 6.4660449 0.65291595
4.4433932 6.4663353 0.64193237
4.217617 6.4666171 0.63167268
3.9988134 6.4668908 0.62209272
3.7374022 6.3834229 0.60521209
3.3351316 6.3839269 0.58930296
2.9985058 6.4836388 0.58446014
2.810786 6.4838767 0.57819992
2.6269481 6.4841089 0.57240158
2.2695997 6.4845591 0.56211209
2.0955029 6.4847813 0.55758542
1.7550976 6.4852123 0.54969448
1.5882909 6.4854259 0.54630554
1.0986767 6.4860482 0.53823578
0.93836421 6.4862547 0.53621763
0.77915525 6.4864573 0.5345245
0.30622557 6.4870653 0.53135037
-0.79362303 6.4884863 0.5348314
-1.1135937 6.4889026 0.53867018
-1.5834472 6.4057188 0.53987867
-1.7485058 6.4059348 0.54329449
-9.1670408 28.160391 2.4230375
-9.1685543 21.025244 1.876696
-9.9829493 21.464224 1.9368147
-10.624839 21.473818 1.9602455
-11.195034 21.316494 1.969972
-13.264106 21.347437 2.0563104
-14.794243 21.430204 2.1306138
-19.11726 -7.7344828 1.6873082
-19.188524 -8.3074255 1.7107911
-19.413393 -21.782104 2.3872709
-17.643749 -21.831367 2.296617
-14.406796 -21.836229 2.1404183
-13.663139 -21.837427 2.1076033
-12.234961 -21.830515 2.0475285
-11.551831 -21.830242 2.0207686
-10.885903 -21.829969 1.9958464
-10.235859 -21.829706 1.9726667
-3.1766064 -7.223021 0.64560258
-3.0462646 -7.4065194 0.65524232
-2.9119775 -7.5959477 0.66559082
-2.7475731 -7.7192516 0.67039049
-2.0389159 -7.3792419 0.62637889
-1.1456982 -21.824398 1.7880931
-0.091694333 -21.848049 1.7875841
1.5024755 -22.003042 1.8044423
2.6017969 -22.245251 1.8324705
5.8517432 -7.7426214 0.79406327
14.165195 -8.4448309 1.349297
13.707382 -7.7299414 1.2875477
14.670381 -7.8126731 1.3598973
16.412773 16.54158 1.9065617
15.650297 16.553297 1.8638417
5.5468259 6.4649606 0.69695771
5.2817478 6.4652905 0.68305528
5.0268946 6.4656076 0.67007828
4.5445065 6.4662085 0.64664501
4.3154736 6.4664941 0.63607407
3.8376465 6.3987904 0.61047649
3.6220508 6.3835669 0.60050887
3.2758152 6.4832907 0.59431714
3.081919 6.4835348 0.58735168
2.3466699 6.4844627 0.56421769
2.1713135 6.4846849 0.55951595
1.8287402 6.4851193 0.55129224
1.6609961 6.485332 0.54774398
1.3314502 6.4857516 0.5417183
1.1691992 6.4859595 0.53922135
1.0083398 6.4861655 0.53705978
0.84866697 6.4863682 0.53522396
0.53212398 6.4867735 0.53251797
0.2180371 6.4871788 0.53106779
-0.095068358 6.4875817 0.53085828
-0.40865722 6.487987 0.5318861
-0.56609863 6.4881921 0.53286803
-0.72419918 6.4883957 0.53416395
-1.043208 6.488811 0.53771877
-1.5118798 6.4056234 0.53849548
-1.6760546 6.4058399 0.5417558
-1.8423193 6.4060569 0.54537535
-8.8379536 28.155468 2.4144602
-9.5938234 28.166767 2.4345679
-9.4393892 23.873051 2.1003957
-10.342158 21.469595 1.9497911
-11.569848 21.3221 1.9848192
-14.459351 21.425196 2.1148272
-20.897783 -7.0564971 1.8046663
-18.936548 -7.4298053 1.6643525
-19.68042 -8.2748957 1.7467635
-18.767792 -8.4295492 1.6833256
-18.914394 -21.811138 2.3620994
-17.160088 -21.832506 2.2720265
-16.325136 -21.834475 2.2305903
-15.518291 -21.834436 2.1916935
-13.985596 -21.836906 2.1216795
-11.848428 -21.830359 2.0322385
-2.9712255 -7.5123253 0.66097397
-2.822583 -7.6727352 0.66890103
-2.0836377 -7.9604549 0.67325133
-1.7038037 -8.0826883 0.67584395
-3.5136523 -21.841455 1.8100065
-2.4398487 -21.840302 1.7980522
-1.9074609 -21.837725 1.7935274
-1.3770263 -21.828465 1.7895143
-0.84892577 -21.82601 1.7871126
-0.32200193 -21.830444 1.7863225
0.73458493 -21.918678 1.7943531
1.805874 -22.040112 1.8093235
2.3567188 -22.175497 1.8245763
2.9348485 -22.447739 1.8522624
3.6227734 -23.31835 1.930753
13.885551 -8.4779873 1.3311098
13.970259 -8.0736713 1.3201698
15.485209 -7.5116782 1.4081678
15.789013 -7.1938791 1.4195976
22.696167 -7.7998857 1.9635569
15.235981 16.559656 1.8411045
5.3963866 6.4651475 0.68901867
5.1371679 6.4654698 0.6756447
4.8876805 6.4657812 0.66315871
4.6471286 6.4660816 0.65150011
4.1898584 6.4666514 0.63043672
3.9299657 6.398674 0.61438829
3.7115867 6.3834543 0.60414886
3.3150682 6.3925009 0.58916748
3.1661816 6.4834299 0.59033614
2.9747803 6.4836707 0.5836522
2.2476561 6.4845872 0.56152356
2.0739014 6.484808 0.55704695
1.7341015 6.485239 0.5492506
1.402915 6.4856601 0.54291624
1.2399902 6.4858689 0.54027176
1.07854 6.486074 0.53796464
0.91836911 6.486279 0.53598756
0.75928223 6.4864831 0.53433514
0.44358885 6.486887 0.53198349
-0.026601562 6.4874935 0.53079832
-0.33996582 6.4878979 0.53155577
-0.49715331 6.4881015 0.53239942
-0.81352538 6.4885106 0.53503311
-1.1337744 6.4889278 0.53895414
-1.2958642 6.4891391 0.54141188
-1.4585986 6.485189 0.54385906
-1.6039941 6.4057455 0.54028642
-9.2616158 28.1618 2.4255528
-9.7929249 27.521675 2.3900783
-9.5370111 24.88475 2.1804295
-9.3244925 22.677359 2.0061464
-12.642099 21.338135 2.0292559
-13.354502 21.348789 2.0603142
-14.891006 21.431654 2.1352165
-19.668798 -7.4785924 1.7216716
-18.92201 -7.7220459 1.6721224
-19.093666 -8.3349142 1.7045695
-18.41725 -21.829546 2.3368032
-17.535263 -21.831625 2.291065
-16.686586 -21.833622 2.2483637
-15.868515 -21.835552 2.2085135
-12.148491 -21.830479 2.0440767
-11.467539 -21.830208 2.0175498
-3.1604979 -7.2456751 0.64677018
-3.0296826 -7.4298973 0.65649807
-2.8948779 -7.6201 0.66693693
-2.7300439 -7.743988 0.67181915
-1.9770606 -7.9946537 0.67381287
-1.7871094 -8.0557442 0.67513043
-2.6736963 -21.841782 1.800396
-2.1399853 -21.83885 1.7953745
0.50254393 -21.895325 1.7919062
1.0339794 -21.948812 1.7978038
1.5698534 -22.011274 1.8054997
2.6723192 -22.265324 1.8347813
3.282124 -22.702576 1.8767827
14.24664 -8.4351969 1.3546263
14.493925 -8.1158943 1.3591212
21.367134 16.161739 2.1919866
16.31542 16.543074 1.9010438
15.557197 16.554722 1.8587034
14.83165 16.565863 1.8192436
5.2493014 6.4653306 0.68138093
4.9956589 6.4656458 0.66851455
4.51542 6.4662437 0.64528167
4.287334 6.4665294 0.63480073
3.596621 6.3835974 0.59948713
3.396538 6.3838501 0.59164137
2.3245556 6.4844909 0.56360763
1.8076172 6.4851465 0.55082792
1.1489892 6.4859848 0.53893143
0.98828614 6.4861898 0.5368126
0.82875973 6.4863939 0.53501785
0.35520995 6.4870019 0.53154832
0.041860349 6.4874048 0.53079754
-0.2713379 6.4878101 0.53128374
-0.58584958 6.4882164 0.53301239
-0.90314454 6.4886279 0.53600401
-1.5323242 6.4056506 0.53888488
-1.696748 6.4058666 0.5421896
-9.6428757 25.978027 2.267179
-9.709487 21.294281 1.9148273
-10.422769 21.470795 1.9527485
-11.654028 21.323355 1.9882053
-12.337129 21.333574 2.0163276
-14.554683 21.42662 2.1192946
-19.92939 -6.7966161 1.7228044
-19.695078 -7.2515998 1.7171739
-19.634901 -7.7722945 1.7277769
-18.676088 -8.4562674 1.6773851
-18.804735 -21.817518 2.3566303
-17.916796 -21.830723 2.3106825
-15.419409 -21.834597 2.1870258
-13.892866 -21.837055 2.1176088
-3.2165527 -7.1668515 0.64272839
-2.8002391 -7.6835074 0.66909909
-2.4230127 -7.7987742 0.66816908
-2.1258202 -7.4740124 0.63576519
-2.0599365 -7.9680538 0.67336547
-1.4886377 -8.1524611 0.67804807
-3.4460254 -21.841478 1.809141
-2.9079247 -21.841688 1.8028163
-1.3107861 -21.827299 1.78909
0.27117676 -21.87639 1.7900249
0.80109859 -21.925375 1.7950932
1.8735741 -22.048384 1.8104594
2.4266307 -22.195395 1.8268062
3.011333 -22.503864 1.8576393
5.7764988 -7.7639618 0.79173553
13.964766 -8.468585 1.3362473
15.822925 -7.1516867 1.4206969
22.723774 -7.7327061 1.9639152
5.6318307 6.4648547 0.70150173
4.3861814 6.4664059 0.63929689
4.1622119 6.4666858 0.62921309
3.6858447 6.3834863 0.60309631
3.315161 6.440177 0.59263718
2.7644188 6.4839354 0.57670623
2.0523486 6.4848351 0.55651516
1.8815625 6.4850512 0.5524748
1.7131348 6.4852657 0.54881239
1.2196972 6.4858947 0.53996384
1.0584179 6.4860997 0.5376991
0.89840817 6.4863048 0.53576291
0.73944336 6.4865088 0.53415054
0.58133298 6.4867115 0.53285718
0.4239209 6.4869127 0.53187883
0.26696777 6.4871154 0.53121227
0.11032715 6.4873166 0.53085572
-0.20277831 6.487721 0.53107238
-0.35960937 6.4879236 0.53164381
-0.51687986 6.4881272 0.53252745
-0.8334375 6.4885373 0.53524095
-0.99311036 6.4887447 0.53707826
-1.1539941 6.488955 0.53924328
-1.7901562 6.4059896 0.54420549
-8.6044283 28.151978 2.4085312
-9.300415 22.42605 1.9863895
-9.2342968 20.831669 1.864362
-10.142236 21.4666 1.9425234
-10.776474 21.453339 1.964283
-12.730083 21.339447 2.0330255
-14.22331 21.421665 2.1038415
-14.952886 21.382582 2.1348217
-19.540077 -6.9612827 1.6971623
-19.661268 -7.5437446 1.7229975
-19.016787 -7.8278227 1.6825792
-18.999462 -8.3622217 1.6984076
-18.272133 -8.5740442 1.6514037
-20.09524 -21.742432 2.4223652
-16.582554 -21.83387 2.2432246
-15.768164 -21.835789 2.2036998
-14.979912 -21.835304 2.1665306
-14.218442 -21.836533 2.1319859
-12.764087 -21.838877 2.0696321
-11.383525 -21.830173 2.0143571
-10.721753 -21.829905 1.9898847
-3.1443262 -7.268434 0.64795178
-2.8777196 -7.6443262 0.66829544
-2.5064209 -7.7765965 0.66849852
-2.2521923 -7.612083 0.64949596
-1.9710693 -7.3052773 0.61907864
-1.9533105 -8.0022821 0.6739549
-1.7632715 -8.0634432 0.67532527
-2.0734131 -21.838526 1.7948234
-1.5423974 -21.831371 1.7906535
-1.0135449 -21.824627 1.7875761
-0.48655272 -21.829058 1.7864577
0.040239256 -21.858355 1.7884157
0.56884766 -21.901997 1.792587
1.100747 -21.955532 1.798617
2.7459717 -22.309137 1.8390647
14.656782 -7.6921778 1.3543059
15.3887 -7.6085992 1.4045625
16.218578 16.544567 1.8955768
15.464614 16.556147 1.8536079
14.742992 16.567223 1.8144978
5.4794626 6.465045 0.69338822
5.2170215 6.4653711 0.67972302
4.9645896 6.4656849 0.66696745
4.721323 6.4659872 0.65505493
4.4864402 6.4662814 0.6439299
4.0392528 6.4668407 0.62383634
3.7761669 6.3833737 0.60681701
3.5712988 6.3836312 0.59847474
3.226836 6.4833531 0.5925256
3.0340722 6.4835949 0.58568555
2.8455858 6.4838314 0.57933593
2.6610694 6.484066 0.57345241
2.4801319 6.4842944 0.56801498
2.3024902 6.4845176 0.56300414
1.9559569 6.4849572 0.55419493
1.619331 6.4853854 0.5469116
1.2907031 6.4858041 0.54106045
1.1288086 6.4860096 0.53864944
0.80885738 6.4864197 0.53481597
0.65039551 6.4866233 0.53338426
0.49269041 6.486825 0.53226745
0.17882812 6.4872289 0.53097367
-0.1342627 6.4876328 0.53091872
-0.92312008 6.4886532 0.53623396
-1.4082421 6.4892859 0.54329896
-9.0259666 28.158281 2.4193244
-9.7850437 28.169628 2.439878
-9.6116943 25.656363 2.2416306
-9.3868647 23.327168 2.0573163
-9.7878561 21.295458 1.9175829
-11.738457 21.324619 1.9916151
-13.129711 21.345425 2.0503893
-15.353926 21.333509 2.1505294
-19.298187 -6.6464596 1.6699672
-19.687563 -7.3164425 1.7184377
-19.417133 -7.7540393 1.71067
-19.625 -8.3914719 1.746313
-19.581699 -21.772308 2.3958614
-15.320947 -21.834755 2.1823986
-14.54855 -21.836 2.1468086
-13.800517 -21.837206 2.1135709
-12.36477 -21.830566 2.0527434
-11.678223 -21.830292 2.0256286
-2.937412 -7.560039 0.66359848
-2.7736132 -7.6825094 0.66828018
-2.5837646 -7.7360582 0.66732007
-2.0362401 -7.975657 0.67348588
-2.3062646 -21.839655 1.796818
-1.2446045 -21.826136 1.7886775
-0.19020995 -21.840357 1.7870072
1.4020214 -21.990767 1.8028969
14.064281 -8.0150461 1.3244538
14.445995 -7.7770333 1.3423365
15.562949 -7.4336491 1.4111305
15.790322 16.551142 1.8716044
5.330503 6.4652305 0.68558317
5.0738573 6.465549 0.6724391
4.8266697 6.4658566 0.66016644
4.5882077 6.4661546 0.64870328
4.3577585 6.4664416 0.63799667
3.4584765 6.3837719 0.59403336
3.3126171 6.4832444 0.59567732
2.9275391 6.4837303 0.58205396
2.7413085 6.4839649 0.5759697
2.5588379 6.4841928 0.57033962
2.3797901 6.4844198 0.56514329
1.8603613 6.4850793 0.55199736
1.6922168 6.4852929 0.54838026
1.5261571 6.4855042 0.54512405
0.8784619 6.4863305 0.53554398
0.71961427 6.4865332 0.53397244
0.56160158 6.4867368 0.53271788
0.24734375 6.4871411 0.53115022
0.090722658 6.4873409 0.5308336
-0.22238769 6.4877462 0.53112549
-0.69456542 6.488358 0.53389722
-0.85336912 6.4885631 0.5354538
-1.336665 6.4891915 0.54208004
-1.4813818 6.4055843 0.53792405
-1.8110449 6.4060154 0.54466993
-9.7240667 26.814047 2.3336844
-9.4802151 24.296518 2.1338661
-10.844023 21.426205 1.9647887
-11.444654 21.320225 1.979821
-12.818378 21.340771 2.036828
-14.317602 21.423077 2.1082153
-20.947901 -6.9683032 1.8062611
-19.610765 -7.0532537 1.7051424
-18.906 -8.3893213 1.69231
-19.079218 -21.801548 2.3703661
-18.193197 -21.830072 2.325058
-17.31979 -21.832134 2.2801001
-15.668193 -21.836023 2.1989415
-14.883198 -21.835459 2.1620712
-11.976342 -21.83041 2.0372593
-11.299824 -21.830139 2.0111992
-10.63999 -21.829872 1.986941
-2.8559766 -7.6566381 0.66861385
-2.6947949 -7.793757 0.67471254
-2.6139598 -8.194952 0.70377868
-2.1190429 -7.9491076 0.67309403
-1.9295508 -8.0099173 0.67410368
-1.5484911 -8.133029 0.6773842
-3.6148534 -21.841413 1.8113393
-3.0755565 -21.841625 1.8046761
-2.539741 -21.840786 1.7990135
-2.0068407 -21.838205 1.7942878
-1.4760351 -21.830204 1.7901829
-0.42057616 -21.829615 1.7863933
0.10630371 -21.863516 1.7888521
0.6352734 -21.908684 1.7932817
1.7048095 -22.027763 1.8076625
2.8214061 -22.364492 1.8443263
3.4631591 -22.974203 1.9009446
2.3687744 6.4842968 0.40857711
2.0201709 6.4847398 0.4019908
1.8498486 6.4849572 0.39912122
1.0283788 6.4860067 0.38866773
0.86857909 6.4862118 0.38731155
0.70979005 6.4864159 0.3861894
0.55183595 6.4866185 0.38529646
0.3945117 6.4868212 0.38462982
-0.075473629 6.4874268 0.38398284
-0.70435059 6.4882398 0.38626188
-0.86320311 6.4884448 0.3874011
-1.184209 6.488862 0.39038527
-1.3467578 6.4890733 0.39223847
-1.4914404 6.4054661 0.38924789
-1.6553515 6.4056797 0.39157408
-8.7895412 26.063046 1.6278977
-8.8838625 22.668032 1.4409623
-8.9769526 21.372982 1.3719807
-10.910474 21.4779 1.4257804
-11.575942 21.487846 1.4445653
-12.962963 21.508583 1.4863063
-14.436035 21.530605 1.5342134
-20.51119 21.601137 1.7629967
-20.322065 -7.3433909 1.2788807
-18.581797 -8.2786818 1.2039741
-12.312763 -7.7862148 0.86221403
-19.92268 -21.751822 1.7457619
-18.138437 -21.83061 1.6798338
-16.428301 -21.834623 1.6172123
-14.078676 -21.836773 1.5377324
-9.3318605 -21.841496 1.4057319
-2.9438574 -7.3779106 0.47013944
-2.809082 -7.5654321 0.47762892
-2.4468944 -7.7109299 0.47879714
-2.0868652 -7.875598 0.48220322
-3.0423584 -21.842016 1.3052006
-2.5067089 -21.840727 1.3011299
-0.91492671 -21.825605 1.2928826
-0.3879492 -21.830038 1.2922161
1.2007226 -21.96674 1.3020414
1.7382568 -22.032421 1.3080375
2.2870703 -22.156857 1.3183177
2.8591797 -22.395107 1.3362086
3.5173779 -23.099665 1.38291
14.691137 -8.0815678 0.99236876
15.29019 -7.4742198 1.0072801
9.1846285 6.3764486 0.66175747
8.7282124 6.3770175 0.63976926
8.4097853 6.4612083 0.62767166
7.6200681 6.4621935 0.59133226
5.9836473 6.464242 0.52133131
4.9182858 6.4655809 0.48079574
4.6766553 6.4658837 0.47229004
4.4432859 6.4661779 0.4643437
4.2175193 6.4664621 0.45692259
3.9987206 6.4667392 0.44999313
3.7373145 6.3832726 0.43778303
3.3350537 6.3837829 0.42627761
2.6268897 6.4839683 0.41404998
2.4466014 6.4841967 0.4101747
2.2695556 6.4844213 0.40660736
1.5882519 6.4852915 0.39517319
1.4233984 6.4855018 0.39297834
1.2602686 6.4857101 0.39103547
1.0986524 6.485918 0.38933623
0.77914059 6.4863267 0.38665161
0.62083983 6.4865294 0.38565856
0.30621582 6.4869347 0.3843556
0.1495166 6.4871359 0.38404205
-0.0070117186 6.4873376 0.38395262
-0.32030761 6.4877429 0.3844429
-0.47744629 6.4879456 0.38502562
-1.438916 6.489193 0.39339018
-1.583413 6.4055858 0.39052397
-1.7484765 6.4058008 0.3929956
-8.8468161 27.176704 1.6915284
-8.8968115 21.824409 1.3948817
-9.9828758 21.464033 1.4010246
-11.958218 21.493559 1.4557258
-13.368008 21.514633 1.4991273
-14.105766 21.525663 1.5231688
-14.868008 21.53706 1.5489073
-15.535107 21.381186 1.5642042
-20.569008 21.081402 1.7432078
-20.592764 -7.196456 1.2910649
-20.326899 -21.728296 1.7609892
-16.79141 -21.833775 1.6301854
-15.174482 -21.835007 1.5737339
-14.406816 -21.836245 1.5483165
-12.941508 -21.838608 1.5024174
-12.235449 -21.831371 1.48118
-11.55228 -21.831085 1.461822
-10.23625 -21.830532 1.4270219
-2.8685498 -7.4826584 0.47428802
-2.7313526 -7.6736951 0.48207992
-2.550122 -7.7515512 0.48296446
-2.2769482 -7.5283279 0.46549681
-6.0353026 -21.842878 1.3412107
-1.6044922 -8.0305614 0.48468062
-3.8184276 -21.841293 1.3122789
-2.7407129 -21.842133 1.3028657
-1.6751611 -21.833759 1.2960283
-0.0917041 -21.848452 1.2931123
0.4363037 -21.889696 1.2957942
0.96728516 -21.942587 1.2999306
1.5025195 -22.003618 1.3053144
2.0446336 -22.087851 1.312856
3.204536 -22.648571 1.3538014
5.8517332 -7.7426176 0.57440108
14.429927 -8.1373987 0.98046827
15.462539 -7.300139 1.0120143
8.5591745 6.4334922 0.63371688
7.7849021 6.461987 0.59879911
7.4139891 6.462451 0.58209306
7.0630221 6.4628906 0.56661576
6.7300339 6.4633069 0.55225462
5.2816062 6.4651217 0.49408934
4.5443897 6.4660511 0.46775207
4.0936036 6.4666185 0.45296615
3.8375585 6.3986411 0.44159162
3.6219726 6.383419 0.43438095
3.2757421 6.4831457 0.42990112
2.7068505 6.4838672 0.41584426
1.9987109 6.4847665 0.40161651
1.8287011 6.4849839 0.39878082
1.6609619 6.4851966 0.39621413
1.495288 6.4854102 0.39390793
