# .PCD v0.7 - Point Cloud Data file format
VERSION 0.7
FIELDS x y z
SIZE 4 4 4
TYPE F F F
COUNT 1 1 1
WIDTH 1503
HEIGHT 1
VIEWPOINT 0 0 0 1 0 0 0
POINTS 1503
DATA ascii
-8.0367966 -3.3473983 -1.8659023
-7.8706832 -3.7335546 -1.8670307
-7.5878415 -4.2976146 -1.8689739
-7.1498828 -5.0171628 -1.8720183
-6.777617 -5.5289569 -1.8746295
-6.509531 -5.8554473 -1.8765196
-6.369668 -6.0139956 -1.8775085
-5.1708884 -6.221561 -1.733848
-4.7161231 -6.5916724 -1.7370971
-4.5586133 -6.7079153 -1.7382251
-4.3983302 -6.8204765 -1.7393744
-4.2353125 -6.9292932 -1.7405447
-3.5575976 -7.3257456 -1.7454226
-3.3822167 -7.4148421 -1.7466882
-3.2046483 -7.4998069 -1.7479708
-3.0249608 -7.5805931 -1.7492697
-2.6596875 -7.7293835 -1.751914
-2.2871485 -7.8608189 -1.7546158
-1.9082031 -7.9745207 -1.7573684
-1.716543 -8.0246067 -1.7587624
-1.1342773 -8.1473675 -1.7630041
-0.74103516 -8.2059412 -1.7658746
-0.54323238 -8.2281647 -1.76732
-0.14581054 -8.258357 -1.7702278
0.053564452 -8.266283 -1.7716882
0.65303707 -8.2612066 -1.7760857
0.85292965 -8.249855 -1.7775546
1.0526465 -8.2336712 -1.7790229
1.2520605 -8.212635 -1.7804904
1.8474511 -8.1205044 -1.7848785
2.0445409 -8.0801363 -1.7863333
3.0144434 -7.8064885 -1.7935101
3.204453 -7.7375517 -1.7949197
3.3929002 -7.6639352 -1.7963189
3.5796289 -7.5856833 -1.7977067
3.9474902 -7.4153924 -1.8004442
4.3070798 -7.2270317 -1.8031253
4.6575489 -7.0209699 -1.8057437
4.8290524 -6.9114389 -1.807027
4.9979391 -6.7976432 -1.808292
5.327373 -6.5575242 -1.8107641
5.4877439 -6.4313178 -1.8119695
5.6450391 -6.3011298 -1.8131534
6.4191308 -6.1978326 -1.9123793
6.9306054 -6.0735669 -1.9750388
7.0791893 -5.9079185 -1.9761671
7.2238083 -5.738555 -1.9772671
7.3640623 -5.5655646 -1.9783361
7.6319432 -5.2091351 -1.9803835
8.3262501 -4.064261 -1.9857421
8.4251661 -3.8636444 -1.9865144
8.6079979 -3.4551101 -1.9879502
8.6917677 -3.2474551 -1.9886131
8.8437109 -2.8260152 -1.9898254
8.911787 -2.6125011 -1.9903744
8.9745607 -2.3972669 -1.990885
9.0319233 -2.1805086 -1.991356
9.1714354 -1.5223168 -1.9925325
9.2069235 -1.300733 -1.9928442
9.2369041 -1.0783173 -1.9931158
9.2613182 -0.85519469 -1.9933468
9.2933588 -0.40740538 -1.9936862
9.3009768 -0.18300414 -1.9937942
9.2994232 0.26599914 -1.9938873
9.2754297 0.71436459 -1.9938158
9.1604681 1.6045916 -1.9931799
9.0698147 2.0441442 -1.9926172
8.8234272 2.906522 -1.991011
8.7485151 3.1178179 -1.9905108
8.6683493 3.3271477 -1.9899715
8.3971682 3.9418426 -1.9881257
7.2254882 4.5256438 -1.8272643
7.1110544 4.6966352 -1.8264651
6.9924412 4.8646731 -1.8256344
6.3399606 5.6567717 -1.8210332
6.0528512 5.9494267 -1.8189958
5.9040818 6.0902143 -1.8179374
5.5964355 6.3601651 -1.8156991
5.4381247 6.4895587 -1.8146338
4.5053515 6.2436919 -1.6501617
4.0085936 6.1613908 -1.5753921
2.8807616 6.2485905 -1.4746732
2.7001073 6.2491217 -1.4589906
2.3495703 6.2501507 -1.4310631
2.1790917 6.2506485 -1.4187187
1.8463476 6.2516217 -1.3970664
1.5228418 6.2525625 -1.3792285
1.3639941 6.2530241 -1.3716683
1.0510058 6.2539325 -1.3591436
0.74298829 6.2548223 -1.3499633
0.59033203 6.2552619 -1.3465898
0.28689453 6.2561359 -1.3422279
-0.16634765 6.257432 -1.341572
-0.62154293 6.2587309 -1.3479742
-0.77453125 6.2591643 -1.3517009
-0.91662109 6.1797318 -1.3389355
-1.2233105 6.176662 -1.3494998
-1.5366015 6.1775446 -1.3643188
-1.8840039 6.2662373 -1.4023739
-2.2192676 6.2671757 -1.4249145
-3.910742 6.2718778 -1.5840994
-4.1246095 6.2724676 -1.6089263
-4.3454099 6.2730765 -1.635512
-4.9354296 6.4374762 -1.7385211
-5.0860353 6.3123722 -1.7373877
-5.9220896 5.4923077 -1.731065
-6.2935934 5.0412359 -1.7282355
-6.4101171 4.8853726 -1.7273446
-7.632617 4.2335062 -1.8706311
-7.9097557 3.6659992 -1.8684666
-8.0718746 3.2778368 -1.8671871
-8.1460543 3.0811169 -1.8665974
-8.2155857 2.8827765 -1.8660412
-8.2804489 2.6829102 -1.865519
-8.5336428 1.6647009 -1.8634253
-8.5698633 1.4580346 -1.8631114
-8.6012697 1.2506121 -1.8628329
-8.6278124 1.0425396 -1.8625897
-8.6495018 0.8339349 -1.8623821
-8.6663275 0.62488341 -1.86221
-8.6846485 -0.21332519 -1.8618804
-8.677002 -0.42286375 -1.8618879
-8.6247854 -1.0495929 -1.8621249
-8.5976362 -1.2575232 -1.8622756
-8.5656443 -1.4648064 -1.8624619
-8.5288086 -1.6712881 -1.862684
-8.4407415 -2.0814712 -1.8632345
-8.3895311 -2.2849658 -1.8635629
-8.1374512 -3.085748 -1.8652252
-8.0627928 -3.2821069 -1.8657268
-7.9835253 -3.4767392 -1.8662629
-7.7185836 -4.049089 -1.8680727
-7.6213379 -4.2356958 -1.8687426
-7.5197263 -4.4200644 -1.8694448
-7.3035445 -4.7815843 -1.8709463
-6.9477243 -5.304451 -1.8734341
-6.8209372 -5.4731798 -1.8743246
-5.072402 -6.3063669 -1.7345505
-4.9217672 -6.4309349 -1.7356262
-4.6116309 -6.6694379 -1.7378453
-4.4522462 -6.7832394 -1.7389877
-3.7880468 -7.2005243 -1.7437617
-3.4411426 -7.3854957 -1.746263
-2.7213085 -7.7056913 -1.7514676
-2.5365136 -7.7750602 -1.7528068
-1.9719824 -7.9567575 -1.7569048
-0.60948241 -8.2212601 -1.7668359
-0.4112207 -8.2403231 -1.7682855
0.18643554 -8.2688971 -1.772662
0.38624999 -8.2688227 -1.7741275
0.58616209 -8.2639284 -1.7755947
0.78606445 -8.2541962 -1.7770631
0.98586911 -8.239624 -1.7785318
1.3845508 -8.1959543 -1.781466
1.5832715 -8.1668549 -1.7829303
1.7813574 -8.1329308 -1.7843908
1.9787109 -8.0941782 -1.7858472
2.3708105 -8.0022383 -1.7887442
2.5652831 -7.9490805 -1.7901829
2.7585645 -7.8911595 -1.7916139
2.9505467 -7.8285074 -1.7930365
3.1410742 -7.7611337 -1.7944494
3.5173924 -7.6123638 -1.7972441
3.7028906 -7.5310416 -1.7986236
3.8865232 -7.445137 -1.7999902
4.0681248 -7.3547049 -1.8013431
4.2475486 -7.2597795 -1.8026811
4.4247751 -7.1604142 -1.8040041
4.9417286 -6.836184 -1.8078707
5.2730665 -6.5988441 -1.8103561
5.434453 -6.4739771 -1.8115689
6.3185544 -6.2000666 -1.8972659
6.8799801 -6.1281433 -1.9746548
7.3175974 -5.6238422 -1.9779818
7.4551463 -5.448473 -1.9790313
7.5883789 -5.269691 -1.98005
7.7171679 -5.0875659 -1.9810369
7.8414745 -4.9022107 -1.9819919
7.9612012 -4.7137403 -1.9829137
8.0762596 -4.5222712 -1.9838022
8.2920313 -4.1308026 -1.9854758
8.5788279 -3.5240724 -1.9877203
8.744648 -3.1080911 -1.9890331
8.8896189 -2.6841075 -1.9901953
8.9541597 -2.4694474 -1.9907184
9.0671186 -2.0354803 -1.991648
9.1154394 -1.8164465 -1.9920534
9.1956835 -1.3749433 -1.9927444
9.2275 -1.1527935 -1.9930297
9.2895603 -0.48239928 -1.9936409
9.2990627 -0.25809631 -1.9937627
9.3012495 0.19090027 -1.9938834
9.2939358 0.41530517 -1.9938818
9.2624702 0.8632434 -1.9937553
9.2383595 1.0864489 -1.9936305
9.1734667 1.530653 -1.993258
9.1327248 1.7513671 -1.9930105
9.0347748 2.1893072 -1.9923941
8.9776659 2.4062543 -1.9920257
8.9151659 2.6216669 -1.9916176
8.8472948 2.8354065 -1.9911696
8.7741308 3.0473394 -1.9906824
8.523447 3.6709905 -1.9889889
8.4296579 3.8743658 -1.9883484
7.2628317 4.4677863 -1.827525
7.1497946 4.6397505 -1.8267359
6.9112692 4.9747977 -1.8250647
6.6566305 5.2972651 -1.8232721
6.5234962 5.4535542 -1.8223321
6.2460055 5.7557464 -1.8203672
5.9542379 6.0435333 -1.8182943
5.8032322 6.1817975 -1.817219
5.3310742 6.5734477 -1.813911
4.8178124 6.242763 -1.6900631
4.2966404 6.1606255 -1.6097587
4.0796189 6.1611795 -1.5837078
3.869453 6.1618032 -1.5594041
3.5143945 6.2467227 -1.5361391
3.1281641 6.2478619 -1.4975095
2.581953 6.2494683 -1.4492012
2.4072754 6.2499824 -1.435427
2.0672264 6.250977 -1.4110752
1.9013183 6.2514606 -1.4004165
1.7377832 6.2519379 -1.3907205
1.2591991 6.2533293 -1.367121
0.94803709 6.2542315 -1.355724
0.64130861 6.255115 -1.3476287
0.48915038 6.2555532 -1.3447874
0.33751953 6.2559891 -1.3427385
0.18628906 6.256424 -1.341476
-0.41851562 6.2581534 -1.3442477
-0.57054687 6.2585845 -1.3469067
-0.72326171 6.2590203 -1.3503641
-1.0183495 6.1800213 -1.3423686
-1.3267871 6.1769538 -1.3540437
-1.8289355 6.2660818 -1.3989893
-1.9943945 6.2665458 -1.4094305
-2.3333204 6.2674956 -1.4333242
-2.6847851 6.2684784 -1.4615036
-3.0512011 6.2694974 -1.4943641
-3.2408886 6.2700248 -1.5126971
-3.8406639 6.2716837 -1.5761678
-4.0523338 6.2722688 -1.6004333
-4.2707419 6.2728715 -1.6264172
-4.8844042 6.4785724 -1.738912
-5.3299317 6.0964375 -1.7355485
-5.472158 5.9623246 -1.7344742
-5.8786621 5.5409894 -1.7313949
-6.0072656 5.3944621 -1.7304175
-6.1323438 5.2450323 -1.7294656
-6.2537694 5.0927863 -1.7285396
-6.3715329 4.9378157 -1.7276397
-6.8306832 4.3087468 -1.7308913
-7.697578 4.1092596 -1.8701257
8.2720509 -1.0999402 -1.9860346
8.2971487 -0.90009034 -1.9862652
8.3424902 -0.29757628 -1.9867381
8.3476858 0.10531189 -1.9868699
8.3178902 0.70889831 -1.9867918
8.2979393 0.9093805 -1.9866922
8.2082615 1.5068915 -1.9861736
8.1685057 1.7043316 -1.9859279
8.1238375 1.9006909 -1.985646
8.0743065 2.0958519 -1.9853283
7.8968945 2.6728978 -1.9841614
7.8282909 2.8620274 -1.9837023
7.7549901 3.0493486 -1.9832084
7.6771092 3.2347467 -1.9826803
7.5946579 3.4181035 -1.9821181
7.4162989 3.7782402 -1.9808941
7.0436621 4.2565875 -1.9586831
6.6944919 4.269455 -1.8896945
6.3769822 4.2869158 -1.8287536
6.1306834 4.5657525 -1.8192445
6.0160546 4.7102799 -1.8184375
5.8979101 4.8518682 -1.8176041
5.6515036 5.1258807 -1.8158605
5.5233984 5.2581391 -1.8149518
5.3921189 5.3871341 -1.8140191
5.1204295 5.6350126 -1.8120843
4.9802146 5.7537675 -1.8110834
4.8371778 5.8689642 -1.8100613
4.6914062 5.9805398 -1.8090183
4.543076 6.0884318 -1.8079553
4.3921876 6.1925836 -1.8068731
3.765537 6.5708966 -1.8024261
3.3822558 6.2469621 -1.6906668
3.0024998 6.2480865 -1.6497922
2.8192186 6.2486272 -1.6314895
2.6398633 6.2491555 -1.6145194
2.2915916 6.2501798 -1.5843347
1.9553417 6.2511649 -1.5588238
1.7910644 6.251646 -1.5477102
1.6290039 6.2521186 -1.5376437
1.468955 6.2525849 -1.5285918
1.3106934 6.2530451 -1.520528
1.1539745 6.2535005 -1.5134223
0.84448242 6.2543964 -1.5020144
0.69129884 6.254838 -1.4976768
0.23579101 6.2561493 -1.4899824
-0.21743163 6.2574482 -1.4901314
-0.36881834 6.2578788 -1.4919211
-0.67312497 6.2587457 -1.4981313
-0.82641602 6.2591801 -1.5025736
-1.43208 6.1771159 -1.5091069
-1.9398632 6.2662554 -1.5611581
-2.276953 6.2671976 -1.5869451
-2.4499121 6.2676797 -1.601575
-2.6261914 6.2681694 -1.61743
-3.7837012 6.2898245 -1.7469337
-3.9318945 6.1927433 -1.7458242
-4.0776463 6.0922418 -1.744732
-4.2208786 5.9883695 -1.7436572
-4.3615232 5.8812027 -1.7426008
-4.4994922 5.7707963 -1.7415632
-4.6347361 5.6572146 -1.740545
-4.7671876 5.5405378 -1.7395464
-4.8967381 5.4208307 -1.7385684
-5.2675486 5.0442228 -1.7357614
-5.7179198 4.5040827 -1.7323325
-6.0309472 4.2958527 -1.7622418
-6.6402149 4.2623978 -1.8779162
-6.9230857 3.7664592 -1.8757262
-7.3141599 2.900893 -1.8726565
-7.3799605 2.7227678 -1.8721325
-7.4989452 2.3623047 -1.8711761
-7.5519919 2.1801453 -1.8707446
-7.6853905 1.6271411 -1.8696374
-7.7525387 1.2540271 -1.8690581
-7.8021288 0.87827998 -1.8686068
-7.820322 0.68966734 -1.8684297
-7.8340816 0.50070614 -1.8682848
-7.8447852 -0.2567285 -1.8680301
-7.8062887 -0.82363033 -1.8681802
-7.7585449 -1.1995068 -1.8684429
-7.728086 -1.3865234 -1.8686229
-7.6932516 -1.5727948 -1.868835
-7.6540623 -1.7582308 -1.8690792
-7.5626659 -2.1261683 -1.869664
-7.5105176 -2.3084753 -1.8700039
-7.454082 -2.4895377 -1.8703756
-7.3285837 -2.8475859 -1.8712127
-7.1863379 -3.1995294 -1.872174
-6.9422264 -3.71433 -1.8738445
-6.8528223 -3.8820674 -1.8744613
-6.3475389 -4.6875796 -1.8779794
-6.2351952 -4.8414273 -1.8787675
-6.1191993 -4.9926505 -1.8795831
-5.7499313 -5.4297681 -1.8821894
-5.3501172 -5.8402953 -1.8850262
-5.0674901 -6.0981545 -1.8870389
-4.8825388 -6.1727495 -1.8731064
-4.6494336 -6.1788507 -1.8403622
-4.2058787 -6.1899571 -1.7810788
-3.9942577 -6.1950092 -1.7542776
-3.8204784 -6.251832 -1.7437447
-3.5187793 -6.4368968 -1.7459142
-3.3645506 -6.5240917 -1.7470251
-3.2081933 -6.6076488 -1.7481524
-2.8894238 -6.7636433 -1.7504539
-2.2300975 -7.0297871 -1.7552276
-2.0612402 -7.0864959 -1.7564526
-1.8909472 -7.1391997 -1.7576894
-1.7193359 -7.1878495 -1.7589368
-1.5464648 -7.23242 -1.7601941
-1.0214355 -7.3412652 -1.7640195
-0.84458983 -7.3691616 -1.7653098
-0.66699219 -7.3928232 -1.7666068
0.048847657 -7.4447069 -1.7718447
0.40861326 -7.4447403 -1.7744833
0.58859372 -7.4382524 -1.7758049
0.76850587 -7.4274087 -1.7771268
0.94823241 -7.4122019 -1.7784485
1.3067285 -7.3687353 -1.7810878
1.6632031 -7.3078766 -1.7837162
1.8404199 -7.2709365 -1.7850245
2.3667383 -7.1342673 -1.7889165
2.7120898 -7.0217967 -1.7914755
2.8827929 -6.9592137 -1.792742
3.219707 -6.8215208 -1.7952447
3.3857129 -6.7464709 -1.7964797
3.8727343 -6.4969625 -1.8001099
4.7949119 -6.2010789 -1.8655649
5.0345507 -6.1960111 -1.9000479
6.0891209 -5.6007237 -1.9689773
6.225781 -5.4550161 -1.9700135
6.3588867 -5.3058996 -1.9710244
6.4883103 -5.1534672 -1.9720092
6.6140037 -4.997818 -1.9729671
6.7358594 -4.839036 -1.9738979
7.0776563 -4.3448286 -1.9765197
7.2849607 -4.0015006 -1.97812
7.3822069 -3.8259923 -1.9788742
7.4751368 -3.6480505 -1.979597
7.647656 -3.2853546 -1.9809467
7.7271676 -3.100826 -1.9815726
7.8020701 -2.9143231 -1.9821655
7.872334 -2.7259538 -1.9827247
7.9379296 -2.5358548 -1.98325
8.0548925 -2.1509087 -1.9841974
8.1061916 -1.9563155 -1.9846188
8.19417 -1.5634815 -1.9853555
8.336709 0.44069335 -1.9868677
8.3234472 0.64174134 -1.986817
8.3051662 0.8423816 -1.9867297
8.2536716 1.2419512 -1.986445
8.2204781 1.4406347 -1.9862478
8.182353 1.63841 -1.9860142
8.1393261 1.8351427 -1.9857445
8.0914354 2.0307164 -1.9854387
8.038662 2.2250037 -1.9850971
7.8517675 2.7989659 -1.9838598
7.5372849 3.5389531 -1.9817256
7.3530369 3.8960149 -1.9804574
7.1514454 4.2432795 -1.9790597
6.8085251 4.265274 -1.9121046
6.4752245 4.2774296 -1.8469454
5.8173828 4.944428 -1.8170348
5.6936426 5.0809269 -1.8161594
5.5666013 5.2142572 -1.8152584
5.1667089 5.5945158 -1.8124142
4.8853321 5.8308306 -1.8104055
4.7404685 5.9436274 -1.8093694
4.4429102 6.1581717 -1.8072369
4.2904005 6.2597966 -1.8061422
4.1355467 6.3575921 -1.8050293
3.8192382 6.541636 -1.8027983
3.4476366 6.2467694 -1.6980908
3.0647461 6.2479033 -1.6562225
2.8800585 6.2484479 -1.6374596
2.6994336 6.24898 -1.6200504
2.5224903 6.2495027 -1.6039325
2.3489356 6.2500114 -1.5890472
2.0108397 6.2510028 -1.5627798
1.8457519 6.2514863 -1.5513092
1.6829785 6.2519608 -1.5408959
1.5222753 6.2524295 -1.5315094
1.3634374 6.2528925 -1.5231165
1.2062402 6.2533479 -1.5156931
1.0504687 6.2537994 -1.509216
0.58981442 6.2551312 -1.4952861
0.28637695 6.2560053 -1.4904493
-0.62205076 6.2585993 -1.4968463
-1.3795996 6.1769695 -1.5062985
-1.5371094 6.1774125 -1.5150136
-1.8845215 6.2661004 -1.5572774
-2.0508204 6.2665653 -1.5692395
-2.2198045 6.2670379 -1.5823157
-2.3917089 6.2675161 -1.5965484
-2.5668359 6.2680044 -1.6119878
-3.2730761 6.588233 -1.7508116
-3.5822852 6.4139309 -1.7484399
-3.7336035 6.3215189 -1.7473083
-3.8826072 6.2255988 -1.7461935
-4.3147755 5.9174089 -1.7429521
-4.4536328 5.8080802 -1.7419082
-4.5898142 5.6955509 -1.7408834
-4.7232127 5.5799065 -1.7398781
-4.8537302 5.4611993 -1.738893
-4.9813375 5.3395171 -1.737929
-5.1059666 5.2149177 -1.7369859
-5.7877636 4.4103031 -1.7317984
-6.7060156 4.1540704 -1.8774084
-6.8016305 3.989455 -1.8766687
-7.0646973 3.4831462 -1.8746215
-7.2198339 3.1361754 -1.873403
-7.3584375 2.7825134 -1.8723043
-7.4214354 2.6034222 -1.8718005
-7.4802341 2.4229608 -1.8713273
-7.5347362 2.2412102 -1.8708853
-7.5849609 2.058255 -1.8704745
-7.6308885 1.8742328 -1.8700947
-7.7096677 1.5033227 -1.8694307
-7.7425389 1.3166291 -1.8691461
-7.7709961 1.1292492 -1.8688937
-7.8147168 0.75279969 -1.8684856
-7.8299704 0.56394589 -1.8683298
-7.8491015 -0.003977661 -1.8680573
-7.8466015 -0.19339234 -1.8680313
-7.8125682 -0.76056516 -1.8681489
-7.7923532 -0.94894832 -1.8682535
-7.7677732 -1.1368029 -1.8683898
-7.7387595 -1.324046 -1.8685592
-7.7053809 -1.5105804 -1.8687605
-7.6676464 -1.6962997 -1.8689941
-7.5791502 -2.06493 -1.8695571
-7.5284472 -2.2476256 -1.8698864
-7.2830758 -2.9654198 -1.8715191
-7.2112889 -3.1411266 -1.8720046
-7.1353321 -3.3151507 -1.8725213
-6.8831735 -3.8261926 -1.8742517
-6.6951656 -4.1567388 -1.8755535
-6.5953512 -4.3186984 -1.8762478
-6.4917088 -4.4783421 -1.8769708
-6.3843164 -4.63555 -1.8777218
-6.2731738 -4.7902527 -1.8785009
-6.1583982 -4.942368 -1.8793072
-5.9180665 -5.2384892 -1.8810009
-5.792666 -5.3823133 -1.8818872
-5.6638184 -5.5232115 -1.8827994
-4.4986424 -6.1827021 -1.8197525
-4.2780957 -6.1881957 -1.7904491
-4.0643554 -6.1933541 -1.7630427
-3.4163671 -6.4953341 -1.7466519
-3.2607129 -6.5801077 -1.7477736
-2.9432812 -6.7385983 -1.7500648
-2.6182323 -6.8819962 -1.7524154
-2.4530663 -6.9479194 -1.7536114
-2.2862206 -7.0099268 -1.7548205
-1.9480566 -7.1220207 -1.7572746
-1.4308008 -7.2597919 -1.761036
-1.2560742 -7.2974796 -1.7623087
-1.0804003 -7.3309898 -1.7635894
-0.72645503 -7.3853869 -1.7661724
-0.5484277 -7.4062204 -1.7674735
-0.36980468 -7.4227796 -1.7687795
-0.011240234 -7.443007 -1.7714044
0.34841797 -7.4459434 -1.7740415
0.70834959 -7.43152 -1.7766845
0.88813472 -7.4177737 -1.7780064
1.067705 -7.3996749 -1.7793275
1.9579394 -7.243958 -1.7858926
2.1337402 -7.1998358 -1.7871923
2.3085253 -7.1514206 -1.7884854
2.4821973 -7.0987225 -1.7897714
2.9956055 -6.9152393 -1.7935796
3.4952343 -6.6942577 -1.7972952
3.6582518 -6.6124191 -1.79851
3.8193262 -6.5265646 -1.7997111
3.9783103 -6.4367371 -1.8008981
4.1351953 -6.3429871 -1.8020706
4.4879489 -6.207305 -1.8229918
4.9534178 -6.1977463 -1.8882564
5.4540625 -6.1867285 -1.9628819
5.6088281 -6.0609031 -1.9653479
6.0426269 -5.648684 -1.9686252
6.3147755 -5.3561401 -1.9706893
6.4454489 -5.204814 -1.971683
6.6955371 -4.8924851 -1.9735898
7.0413866 -4.4012017 -1.9762405
7.2514648 -4.0596485 -1.9778607
7.444541 -3.707839 -1.9793588
7.7010641 -3.1627712 -1.9813669
7.8493552 -2.7891619 -1.9825414
8.1376266 -1.8261081 -1.9848797
8.2191114 -1.4318146 -1.9855691
8.2524805 -1.2332312 -1.9858601
8.3043652 -0.83380795 -1.9863336
8.3228121 -0.63320309 -1.9865158
8.3481932 -0.029473266 -1.9868423
8.3466311 0.17200194 -1.9868777
8.3118258 0.77532345 -1.9867628
8.2902441 0.97562742 -1.9866513
8.2636518 1.1753186 -1.9865026
8.1956539 1.5723711 -1.9860963
8.1542482 1.769461 -1.9858385
8.0008984 2.3535521 -1.9848498
7.940166 2.5454314 -1.9844491
7.7297263 3.1109405 -1.9830374
7.650322 3.2956884 -1.9824979
7.385078 3.8369598 -1.9806787
7.2878418 4.0126996 -1.9800063
7.1863475 4.1859283 -1.9793025
6.925293 4.2609735 -1.9351753
6.314043 4.3182244 -1.8205316
6.2053905 4.4674687 -1.8197695
5.977324 4.7574873 -1.8181646
5.7354002 5.0356183 -1.8164548
5.4802833 5.3012018 -1.8146456
5.3479786 5.4291096 -1.8137051
5.0743361 5.6747184 -1.8117553
4.7892184 5.9063005 -1.8097183
4.6425877 6.0166678 -1.8086685
4.4933786 6.1233292 -1.8075992
3.1274707 6.2477164 -1.6628109
2.759414 6.2488031 -1.6257266
2.5812695 6.2493291 -1.609183
2.4066308 6.2498417 -1.5938917
2.0666113 6.2508392 -1.5668594
1.5758106 6.2522736 -1.534537
1.1024121 6.2536492 -1.5112784
0.94749999 6.2540984 -1.5054212
0.79367185 6.2545428 -1.5004793
0.64078122 6.2549844 -1.4964375
0.33699217 6.2558584 -1.4910134
0.034707032 6.2567267 -1.4890842
-0.26749998 6.2575898 -1.4906265
-0.57106441 6.2584553 -1.4956605
-1.0188574 6.1798906 -1.4906307
-1.1720605 6.1763835 -1.4961718
-1.8294531 6.2659454 -1.5535175
-1.9949316 6.2664104 -1.5651175
-2.3338573 6.2673564 -1.5916568
-2.6853418 6.2683353 -1.6229568
-2.8665135 6.268837 -1.6405234
-3.2205272 6.6159759 -1.7512174
-3.5311425 6.4440117 -1.7488126
-3.6832616 6.3528228 -1.747685
-4.1253514 6.0582194 -1.744374
-4.2677341 5.9532547 -1.7433054
-4.678906 5.6189237 -1.7402121
-4.9390039 5.3805437 -1.7382491
-5.0646191 5.2569156 -1.737299
-5.306777 5.0011163 -1.7354635
-5.4231544 4.869113 -1.7345793
-5.5363278 4.7344694 -1.7337179
-5.6462402 4.5972624 -1.7328799
-5.7608104 4.4637628 -1.7344717
-6.1291795 4.2924213 -1.7808688
-6.8630857 3.8786969 -1.8761923
-6.9521289 3.7105718 -1.8755001
-7.0371385 3.5404718 -1.874837
-7.1181445 3.3684778 -1.8742028
-7.1950293 3.1946857 -1.8735986
-7.2678027 3.0191815 -1.8730241
-7.3364158 2.8420868 -1.8724796
-7.4008298 2.6634843 -1.8719656
-7.8253808 0.6271472 -1.8683779
-7.8455272 0.24878967 -1.868142
-7.8489547 0.059382934 -1.8680727
-7.8479395 -0.13004516 -1.8680362
-7.8326268 -0.5085687 -1.8680606
-7.8183398 -0.69746214 -1.8681213
-7.6807613 -1.6342791 -1.8689123
-7.5951657 -2.0035708 -1.869454
-7.4923239 -2.3685577 -1.8701234
-7.3724413 -2.7284787 -1.8709189
-7.2357616 -3.0825381 -1.8718388
-6.727705 -4.1020646 -1.8753277
-6.6291599 -4.2647839 -1.8760126
-6.5267968 -4.4252162 -1.8767257
-6.4206443 -4.5832381 -1.8774676
-6.1971774 -4.8917842 -1.8790346
-6.0799899 -5.0421262 -1.8798591
-5.7072849 -5.4764109 -1.8824915
-5.0195408 -6.139555 -1.8873811
-4.8044724 -6.1748118 -1.8620242
-4.3510938 -6.1863971 -1.800033
-4.1351171 -6.1916647 -1.7720062
-3.9255567 -6.1966128 -1.7457941
-3.4679589 -6.4661655 -1.7462804
-3.3130176 -6.5521622 -1.7473965
-3.1559765 -6.6344976 -1.748529
-2.9969139 -6.7131338 -1.7496774
-2.8359375 -6.7880096 -1.7508405
-2.6730762 -6.859087 -1.7520186
-2.342207 -6.9896188 -1.7544147
-2.1743653 -7.0489936 -1.7556317
-1.8342675 -7.1557617 -1.7581011
-1.3146288 -7.2853403 -1.7618819
-1.1392578 -7.32025 -1.7631602
-0.60804689 -7.3997216 -1.7670376
-0.25067383 -7.4314175 -1.7696513
-0.071318358 -7.4408226 -1.7709643
0.46820313 -7.443078 -1.7749206
0.64818358 -7.4351439 -1.7762426
1.1869922 -7.3852139 -1.7802056
1.5442382 -7.3301635 -1.7828387
1.721953 -7.2961287 -1.7841498
1.8989258 -7.2577538 -1.7854568
2.0750291 -7.2150731 -1.7867582
2.4242382 -7.1168261 -1.7893423
2.5971289 -7.0613022 -1.7906232
2.7687793 -7.0015402 -1.7918959
3.4403124 -6.7207193 -1.7968862
3.7656639 -6.5557303 -1.7993107
4.238369 -6.2784319 -1.802842
4.873291 -6.1994414 -1.8767257
5.1158299 -6.194252 -1.9119824
5.3676267 -6.1886816 -1.9496928
5.7075877 -5.9723053 -1.9660928
5.8533497 -5.8360882 -1.9671934
6.4021482 -5.255796 -1.9713534
6.6547656 -4.9455943 -1.9732784
6.7753515 -4.7857819 -1.9741999
6.8920016 -4.6229768 -1.9750934
7.0046191 -4.4572606 -1.9759578
7.2175097 -4.1175075 -1.9775982
7.3176465 -3.9436626 -1.9783731
7.4134765 -3.7673399 -1.979117
7.6744823 -3.2244952 -1.9811575
7.8258395 -2.8521504 -1.9823544
7.9586229 -2.4725525 -1.9834164
8.01791 -2.2803245 -1.9838961
8.072422 -2.086623 -1.9843409
8.1669235 -1.6953644 -1.9851251
8.2068653 -1.4980401 -1.9854639
8.2418842 -1.2997521 -1.9857669
8.29706 -0.9007678 -1.9862645
8.3323536 -0.49947202 -1.9866167
8.3424807 -0.29826599 -1.986738
8.3476171 -0.096859738 -1.9868224
8.3427925 0.3060559 -1.9868808
8.2083979 1.5062207 -1.9861742
8.1686325 1.7036572 -1.9859288
8.1240139 1.9000189 -1.9856472
8.0744925 2.0951989 -1.9853295
7.897119 2.672246 -1.9841628
7.8285251 2.8613818 -1.9837039
7.7552438 3.0487201 -1.9832101
7.6773825 3.2341242 -1.9826821
7.5949411 3.417486 -1.9821203
7.4166207 3.777631 -1.9808962
7.2207618 4.1282806 -1.9795415
7.0448728 4.2565413 -1.9589278
6.3779101 4.2867594 -1.8289126
6.2421093 4.4178691 -1.8200275
5.8983297 4.8513923 -1.8176069
5.7767868 4.9899602 -1.8167477
5.3925586 5.3866987 -1.8140222
5.1209178 5.634604 -1.8120877
4.8376465 5.8685822 -1.8100647
4.5435643 6.0880704 -1.807959
4.3926854 6.1922307 -1.8068767
3.7660742 6.5706048 -1.8024298
3.3829198 6.2469621 -1.6907419
1.9558984 6.251164 -1.5588626
1.6295507 6.2521172 -1.5376763
0.99917966 6.2539482 -1.5072776
0.84500974 6.254395 -1.5020306
0.69182616 6.254837 -1.4976902
0.53942382 6.2552762 -1.4942421
0.085214838 6.2565813 -1.4891663
-0.36830077 6.2578778 -1.4919122
-0.52013671 6.2583108 -1.4945738
-0.82588863 6.2591791 -1.502557
-0.96766597 6.1797452 -1.4886628
-1.120459 6.1762381 -1.4938976
-1.2752148 6.1766753 -1.5010096
-1.431543 6.177115 -1.5090759
-1.612246 6.265336 -1.5396894
-2.4493163 6.2676787 -1.6015238
-2.6255956 6.268168 -1.6173744
-3.3248339 6.5603728 -1.7504114
-3.4797947 6.4737835 -1.7492108
-3.6326561 6.3837223 -1.7480633
-3.9313965 6.193079 -1.7458279
-4.3610644 5.8815665 -1.7426044
-4.4990234 5.7711673 -1.7415668
-4.6342969 5.6576066 -1.7405484
-4.7667284 5.5409379 -1.7395499
-4.8962989 5.4212446 -1.7385718
-5.0229588 5.2985773 -1.7376143
-5.4988279 4.7797904 -1.7340035
-5.6098533 4.6434197 -1.7331576
-5.7175488 4.5045514 -1.7323352
-6.3330369 4.2852349 -1.8198583
-6.9227829 3.7670355 -1.8757284
-7.00916 3.5975835 -1.8750556
-7.0915136 3.4262097 -1.8744117
-7.1697655 3.2529943 -1.8737975
-7.2439356 3.0780663 -1.8732128
-7.3797555 2.7233875 -1.8721341
-7.4987402 2.3629143 -1.8711777
-7.6006446 1.997456 -1.8703451
-7.6451268 1.8130951 -1.8699758
-7.6852536 1.6277783 -1.8696387
-7.721035 1.4415851 -1.8693328
-7.752461 1.2546594 -1.8690588
-7.8020701 0.87892026 -1.8686076
-7.8202734 0.69031674 -1.8684301
-7.8483005 0.12273987 -1.8680924
-7.8487692 -0.066688232 -1.868045
-7.8364158 -0.4453375 -1.8680475
-7.7586617 -1.198861 -1.8684423
-7.6933789 -1.5721698 -1.8688341
-7.5628414 -2.1255388 -1.8696628
-7.5107031 -2.307864 -1.8700027
-7.3936424 -2.6686728 -1.8707772
-7.3288083 -2.8469851 -1.8712112
-6.9425387 -3.7137604 -1.8738425
-6.8531542 -3.8814952 -1.8744589
-6.7597852 -4.0471554 -1.8751051
-6.4565721 -4.5306535 -1.8772163
-6.2355857 -4.8409019 -1.8787647
-6.0000196 -5.1406837 -1.8804226
-5.8769431 -5.2864203 -1.8812915
-5.7503905 -5.4292846 -1.8821863
-5.3505955 -5.8398447 -1.8850229
-5.0679884 -6.0977216 -1.8870355
-4.8833594 -6.1727276 -1.8732225
-4.6501951 -6.1788316 -1.8404685
-4.4248338 -6.1845598 -1.8098325
-4.2066112 -6.1899395 -1.7811728
-3.820996 -6.251502 -1.7437412
-3.5192969 -6.4365973 -1.7459106
-3.3650682 -6.5238028 -1.7470214
-3.2087305 -6.6073699 -1.7481484
-3.0503514 -6.6872458 -1.7492917
-2.8899705 -6.7633972 -1.7504501
-2.3979981 -6.9688807 -1.7540103
-2.0618067 -7.0863137 -1.7564486
-1.8915429 -7.1390247 -1.7576849
-1.3730762 -7.2727256 -1.7614564
-1.0220214 -7.3411574 -1.7640152
-0.31055662 -7.4273167 -1.769213
0.048242185 -7.4446893 -1.7718405
0.58800781 -7.4382796 -1.7758005
1.1270605 -7.3927221 -1.7797647
1.6626172 -7.3079877 -1.7837118
1.8398242 -7.2710671 -1.7850201
2.0162401 -7.2298284 -1.7863235
2.3661621 -7.1344452 -1.7889122
2.5394726 -7.0803447 -1.7901959
2.8822069 -6.9594369 -1.7927377
3.051455 -6.8926816 -1.7939944
3.5494237 -6.6676121 -1.797699
4.030488 -6.4061356 -1.8012878
4.3391209 -6.2102098 -1.8030341
5.0336914 -6.1960287 -1.8999258
5.2823243 -6.190589 -1.9367965
5.5081053 -6.1482878 -1.9645888
5.6581249 -6.0170407 -1.9657196
5.8049803 -5.8820548 -1.966828
6.0886521 -5.6012058 -1.968974
6.2253318 -5.455513 -1.9700102
6.3584375 -5.3064137 -1.9710211
6.4878712 -5.1539969 -1.9720058
6.613584 -4.9983582 -1.9729642
7.0773044 -4.3454089 -1.976517
7.1830664 -4.1750727 -1.9773321
7.2846189 -4.0020862 -1.9781173
7.3818946 -3.8265846 -1.9788717
7.4748144 -3.648659 -1.9795943
7.5633297 -3.4684243 -1.9802856
7.7268944 -3.1014495 -1.9815707
8.1940327 -1.5641534 -1.9853543
8.2307129 -1.366173 -1.9856695
8.2624416 -1.1672974 -1.9859484
8.3278418 -0.56670529 -1.986568
8.3464355 -0.1642224 -1.986798
8.3482323 0.037244871 -1.9868581
8.3450098 0.23869933 -1.9868814
8.3367376 0.44001037 -1.9868677
8.3234863 0.6410504 -1.9868171
8.2819824 1.0418243 -1.9866061
8.2537594 1.2412841 -1.9864455
8.2205954 1.439961 -1.9862484
8.139472 1.8344665 -1.9857453
8.0388575 2.2243559 -1.9850982
7.981328 2.4172423 -1.9847213
7.919023 2.6086028 -1.9843087
7.8519921 2.798311 -1.9838613
7.7802634 2.9862738 -1.983379
7.6230273 3.356391 -1.982312
7.4476852 3.71804 -1.9811102
5.9382129 4.8043633 -1.8178885
5.6940527 5.0804739 -1.8161621
5.5670409 5.2138152 -1.8152615
5.4368262 5.343924 -1.8143368
5.3035154 5.4706998 -1.8133886
5.0278907 5.7140422 -1.8114239
4.8858008 5.8304424 -1.8104089
4.4434276 6.1578116 -1.8072408
4.2909374 6.2594633 -1.8061459
3.8197753 6.5413361 -1.8028021
3.4483202 6.246768 -1.6981692
3.065371 6.247901 -1.6562884
2.5230858 6.2495012 -1.6039853
2.1790428 6.2505107 -1.575389
1.6835351 6.2519608 -1.5409304
1.5228027 6.2524285 -1.5315386
1.3639648 6.2528901 -1.5231427
1.2067578 6.2533464 -1.5157174
0.74296874 6.2546892 -1.499043
0.59032226 6.2551312 -1.4952966
0.43835938 6.255568 -1.4924372
-0.16635741 6.2573004 -1.4897238
-0.31762695 6.2577324 -1.4912183
-0.77450192 6.2590322 -1.5009722
-0.91660154 6.1796012 -1.4867978
-1.2232813 6.1765289 -1.4985265
-1.3790624 6.1769671 -1.5062715
-1.7200977 6.2656388 -1.5463556
-2.2192187 6.2670364 -1.582269
-2.3911133 6.2675161 -1.5964981
-2.5662498 6.2680044 -1.6119338
-2.7449121 6.2685003 -1.6286273
-2.9273925 6.2690067 -1.6466382
-3.4282227 6.5031438 -1.7496109
-3.8820996 6.2259283 -1.7461972
-4.0286818 6.1265836 -1.7450989
-4.1727734 6.0238361 -1.7440183
-4.3142967 5.917768 -1.7429556
-4.4531736 5.808454 -1.7419115
-4.7227635 5.5803018 -1.7398814
-4.9809275 5.339931 -1.7379321
-5.1055861 5.2153373 -1.7369889
-5.2271776 5.0879121 -1.7360674
-5.4609666 4.8248281 -1.7342916
-5.6818943 4.5512772 -1.7326077
-5.7873926 4.410778 -1.7318012
-6.5459471 4.2776432 -1.8610574
-6.8013182 3.9900126 -1.8766714
-6.8930078 3.8232658 -1.87596
-7.064414 3.4837401 -1.874624
-7.6723142 1.6898645 -1.8697479
-7.7424216 1.3172582 -1.8691472
-7.7950096 0.94190913 -1.8686739
-7.8146873 0.75344545 -1.8684857
-7.8299313 0.56457704 -1.8683302
-7.8407421 0.37543336 -1.8682067
-7.8490915 -0.0033251953 -1.8680573
-7.8466406 -0.19274108 -1.8680313
-7.7055078 -1.5099536 -1.8687598
-7.6256933 -1.8804932 -1.8692586
-7.5793161 -2.0642989 -1.8695562
-7.5286231 -2.2470195 -1.8698853
-7.4144139 -2.6087091 -1.8706388
-7.28333 -2.9648113 -1.8715173
-7.2115231 -3.1405373 -1.8720031
-7.1355858 -3.3145721 -1.8725195
-7.0555954 -3.486824 -1.8730661
-6.9715524 -3.6572044 -1.8736428
-6.7914548 -3.9919875 -1.8748857
-6.6955175 -4.1561933 -1.8755511
-6.5956931 -4.3181586 -1.8762455
-6.4920897 -4.4777937 -1.8769681
-6.0403905 -5.0913072 -1.8801382
-5.9184861 -5.2379894 -1.8809979
-5.7930956 -5.3818207 -1.8818841
-5.5320897 -5.6606436 -1.8837335
-4.9631934 -6.1705995 -1.8846728
-4.7272849 -6.1768327 -1.8511816
-4.4994044 -6.182683 -1.8198538
-3.8705566 -6.2191863 -1.743385
-3.4169042 -6.4950333 -1.746648
-3.2612598 -6.5798235 -1.7477697
-3.103545 -6.660943 -1.7489074
-2.782207 -6.8119707 -1.7512289
-2.2868164 -7.0097141 -1.7548163
-2.1184473 -7.0677805 -1.7560376
-1.9486327 -7.1218462 -1.7572705
-1.7774512 -7.1718698 -1.758514
-1.6050097 -7.2178159 -1.7597681
-1.4313769 -7.2596593 -1.7610319
-1.2566894 -7.2973557 -1.7623042
-1.0810156 -7.3308768 -1.7635849
-0.90443355 -7.3602047 -1.7648731
-0.72708982 -7.3853025 -1.7661679
-0.54906249 -7.4061522 -1.7674687
-0.37041014 -7.4227252 -1.768775
-0.011845703 -7.4429865 -1.7714
1.2462597 -7.3773046 -1.7806424
1.4250097 -7.3505111 -1.7819595
2.1331153 -7.1999888 -1.7871878
2.8252635 -6.980834 -1.792315
2.9949999 -6.9154778 -1.793575
3.4946971 -6.6945262 -1.7972913
3.6576855 -6.612709 -1.7985058
4.1346288 -6.3433166 -1.8020663
4.2892966 -6.2457018 -1.8032233
4.4871583 -6.2073212 -1.8228838
4.7158203 -6.2027121 -1.8544192
4.9525585 -6.1977649 -1.8881319
5.4531736 -6.1867485 -1.9627471
5.6082907 -6.0613604 -1.9653437
5.7562108 -5.9276133 -1.9664598
5.9008689 -5.790195 -1.9675528
6.5719433 -5.0507836 -1.9726465
6.814404 -4.7322164 -1.9744987
6.9297166 -4.5684333 -1.9753827
7.0410056 -4.4017811 -1.9762377
7.1481347 -4.232348 -1.9770628
7.349834 -3.8855777 -1.9786227
7.4442186 -3.7084515 -1.9793563
7.5342188 -3.5289767 -1.980058
7.6197557 -3.347265 -1.9807277
7.7007909 -3.1633921 -1.9813647
7.9787693 -2.4090862 -1.983579
8.0364838 -2.2163637 -1.9840471
8.1806736 -1.6301742 -1.9852411
8.2523727 -1.2339001 -1.9858592
8.2808104 -1.0345252 -1.9861141
8.3042965 -0.83448178 -1.9863328
8.3362598 -0.43289429 -1.9866611
8.3447266 -0.23160827 -1.9867697
8.3400583 0.37268004 -1.9868761
8.311904 0.77465147 -1.9867632
8.2903128 0.97495544 -1.9866515
8.2637691 1.1746502 -1.9865032
8.1544037 1.768786 -1.9858395
8.1081543 1.964765 -1.9855459
8.0570307 2.1595001 -1.9852165
7.9403806 2.5447583 -1.9844507
7.8047752 2.9236169 -1.9835442
7.73 3.1103168 -1.9830393
7.6505857 3.2950566 -1.9824998
7.5666599 3.4777148 -1.9819267
7.4782419 3.6581879 -1.9813205
7.2881832 4.0120978 -1.9800088
6.9265332 4.2609258 -1.9354223
6.5853124 4.2734356 -1.8683554
6.3143945 4.3177214 -1.820534
6.0935059 4.6134281 -1.818983
5.9777145 4.757 -1.8181671
5.8584571 4.8976007 -1.8173254
5.2131152 5.5531912 -1.8127447
4.0317187 6.4201455 -1.8042668
3.8732715 6.5116191 -1.8031726
3.3187206 6.2471499 -1.6835611
3.1280956 6.2477155 -1.6628793
2.9419823 6.2482648 -1.6436437
2.7600391 6.2488017 -1.6257858
2.5818748 6.2493277 -1.6092379
2.4072266 6.2498407 -1.5939419
2.2357421 6.2503433 -1.5798461
2.0671875 6.2508378 -1.5669008
1.9012792 6.2513237 -1.5550652
1.7377539 6.251801 -1.5443003
1.5763476 6.2522721 -1.5345682
1.2591797 6.2531953 -1.5180944
0.48913085 6.2554216 -1.4932956
0.33751953 6.2558575 -1.49102
0.18628906 6.2562909 -1.4896183
-0.26699218 6.2575898 -1.4906219
-0.41850585 6.2580204 -1.4926964
-0.72324216 6.2588873 -1.4994874
-1.0183301 6.1798892 -1.4906107
-1.4836816 6.1772623 -1.5119599
-1.665791 6.2654877 -1.5429488
-1.9943554 6.2664094 -1.5650762
-2.1623828 6.2668781 -1.5777704
-2.6847265 6.2683344 -1.6228986
-2.8658788 6.268836 -1.6404624
-3.2199805 6.6162639 -1.7512215
-3.3763769 6.5321183 -1.7500125
-3.5306249 6.4443145 -1.7488165
-3.682744 6.3531351 -1.7476889
-3.8325391 6.2583976 -1.7465682
-3.9799218 6.1601872 -1.7454644
-4.2672267 5.9536209 -1.7433093
-4.5440917 5.7339373 -1.7412275
-4.8099318 5.501657 -1.7392237
-4.9385643 5.3809552 -1.7382522
-5.0642185 5.2573309 -1.7373019
-5.1868458 5.1308441 -1.7363733
-5.3063669 5.0015702 -1.7354666
-5.4227438 4.8695731 -1.7345822
-5.5359473 4.7349334 -1.7337207
-5.6458788 4.5977397 -1.7328825
-5.8557129 4.3159671 -1.7312781
-6.4377637 4.2815104 -1.8400692
-6.7697754 4.0453105 -1.8769156
-6.9518356 3.7111566 -1.8755025
7.4677243 -1.177036 -1.9801178
7.517539 -0.81551754 -1.9805673
7.5493455 -0.4519116 -1.9808853
7.5630469 -0.087129511 -1.9810705
7.5631151 0.095413208 -1.9811136
7.5496383 0.4602313 -1.9810998
7.5361423 0.64227295 -1.9810431
7.5180955 0.82391536 -1.980953
7.4370313 1.365307 -1.9804846
7.4010935 1.5442132 -1.9802624
7.3607225 1.7221521 -1.9800078
7.3159471 1.8990021 -1.9797207
7.2668262 2.0746698 -1.9794012
7.2133493 2.2490313 -1.9790497
7.0273337 2.7632239 -1.9778051
6.9569235 2.9313006 -1.9773278
6.5440621 3.7420976 -1.9744885
6.4496875 3.8976398 -1.9738326
6.3515821 4.0507464 -1.9731487
6.2496972 4.2013273 -1.9724364
6.0205173 4.2617545 -1.9320117
5.7370996 4.2726436 -1.8736203
5.4772754 4.2884488 -1.8220395
5.346797 4.39856 -1.8134565
5.2369432 4.5243793 -1.8126801
4.8892479 4.8847208 -1.8102142
4.6433496 5.109993 -1.8084631
4.5164356 5.2179508 -1.8075573
4.2549901 5.4241791 -1.805688
4.1206541 5.522337 -1.8047256
3.7041991 5.7963409 -1.8017352
3.5612109 5.8806829 -1.8007061
3.2695019 6.038609 -1.7986035
2.9707615 6.1819096 -1.7964457
2.3551464 6.4234357 -1.7919718
1.8807422 6.5645914 -1.7885969
1.6289648 6.2519803 -1.692203
1.4689257 6.2524481 -1.6822414
0.84447265 6.254262 -1.6529925
0.69128907 6.254705 -1.648219
0.38711914 6.2555814 -1.6416073
0.084697261 6.2564492 -1.6388497
-0.21742187 6.2573152 -1.6399163
-0.3688086 6.2577457 -1.6418829
-0.52064455 6.2581778 -1.6448153
-0.67310548 6.2586112 -1.6487192
-0.96815425 6.1796145 -1.6383204
-1.1209472 6.1761065 -1.644084
-1.2757128 6.1765423 -1.6519156
-1.4320507 6.1769829 -1.660795
-1.6774414 6.5164752 -1.7624623
-2.441787 6.2468925 -1.7567652
-2.736953 6.1141434 -1.7545696
-3.1662891 5.8893585 -1.7513685
-3.4427049 5.7229633 -1.7493026
-4.2184277 5.1490655 -1.7434797
-4.3392091 5.043128 -1.7425694
-4.5728321 4.8229923 -1.7408047
-4.6856055 4.7089214 -1.7399511
-4.7955761 4.5922699 -1.7391174
-5.0069432 4.3515019 -1.7375113
-5.1900487 4.2952423 -1.764558
-5.706748 4.2762065 -1.8678143
-5.8574705 4.1722894 -1.8836359
-5.9541111 4.0281315 -1.8828934
-6.0473046 3.8817852 -1.882176
-6.1369433 3.7333515 -1.881484
-6.2230468 3.582885 -1.8808175
-6.3055563 3.430495 -1.8801769
-6.3844137 3.2762487 -1.8795626
-6.5310645 2.9625671 -1.8784142
-6.6627145 2.6425219 -1.8773741
-6.7228513 2.4803259 -1.8768954
-6.8315039 2.1520574 -1.876022
-6.8799996 1.9861511 -1.8756278
-6.9245605 1.8191785 -1.8752619
-6.9651952 1.6512463 -1.8749249
-7.0018845 1.4824286 -1.8746166
-7.1252246 0.62836671 -1.8735131
-7.1378026 0.45620176 -1.8733809
-7.1508493 0.11124755 -1.8732049
-7.1476464 -0.23391418 -1.873148
-7.1399899 -0.40633911 -1.8731641
-7.1125293 -0.75043333 -1.8732853
-7.0689549 -1.09289 -1.8735254
-7.009326 -1.432973 -1.8738835
-6.9735155 -1.6019052 -1.8741068
-6.9337597 -1.7699628 -1.8743593
-6.8424511 -2.1031318 -1.8749515
-6.7909179 -2.2680492 -1.8752908
-6.6762891 -2.5941434 -1.8760556
-6.6132421 -2.7551322 -1.8764807
-6.5464258 -2.9146254 -1.8769336
-6.4758301 -3.0725467 -1.8774145
-6.4015427 -3.2288072 -1.8779229
-6.3235545 -3.3833227 -1.878459
-6.2419238 -3.5360043 -1.8790221
-6.0679297 -3.8355229 -1.8802285
-5.9756541 -3.9822063 -1.8808709
-5.8799024 -4.12672 -1.8815396
-5.5723438 -4.5464764 -1.8836975
-5.4632421 -4.6815434 -1.8844662
-5.3508983 -4.8140469 -1.8852594
-5.2354393 -4.9439149 -1.886076
-4.9952927 -5.1954575 -1.8877786
-4.6129785 -5.5512128 -1.8904997
-4.3441992 -5.7731848 -1.8924193
-4.205781 -5.8794107 -1.8934097
-4.0648437 -5.982388 -1.8944193
-3.5730176 -6.1770806 -1.8690951
-3.3792186 -6.1815929 -1.8452394
-3.1900976 -6.1858258 -1.822983
-3.0053124 -6.1897931 -1.8022473
-2.6473436 -6.1969848 -1.7650477
-2.4807909 -6.2183914 -1.7535778
-2.1805663 -6.3387055 -1.7557516
-1.8745409 -6.4446716 -1.7579713
-1.7195703 -6.4921861 -1.759097
-1.2478515 -6.6124535 -1.7625283
-0.92855465 -6.6737628 -1.7648559
-0.76773435 -6.698678 -1.7660296
-0.60626954 -6.7197361 -1.7672088
-0.44420898 -6.7369237 -1.7683935
-0.11879882 -6.7596045 -1.7707748
0.044404294 -6.7650695 -1.7719705
0.20779297 -6.7665977 -1.7731683
0.69816405 -6.7475147 -1.776769
1.0243067 -6.7150216 -1.7791686
1.9905468 -6.5229645 -1.7862997
2.1487987 -6.4772744 -1.7874709
2.3059766 -6.4277191 -1.7886353
2.4620018 -6.3743205 -1.7897918
2.7702734 -6.256084 -1.7920804
3.1136131 -6.2042575 -1.8181988
4.2767482 -6.1198936 -1.9555645
4.5722461 -5.9130931 -1.9577798
4.8576074 -5.6918206 -1.9599242
5.1319237 -5.4565601 -1.961991
5.2648044 -5.3338389 -1.962994
5.7655368 -4.8108149 -1.9667882
5.9963183 -4.5310636 -1.9685458
6.2131739 -4.2400317 -1.9702038
6.3162403 -4.0904918 -1.9709945
6.6029978 -3.6269085 -1.9732056
7.0026464 -2.8100872 -1.9763268
7.0703516 -2.6409981 -1.9768628
7.1338477 -2.4702318 -1.9773681
7.345078 -1.7726331 -1.9790797
7.3870311 -1.5951366 -1.9794286
7.4245701 -1.4166344 -1.9797454
7.4862986 -1.0570245 -1.9802819
7.5104394 -0.87615174 -1.9805011
7.530117 -0.69471741 -1.9806875
7.5452733 -0.51283139 -1.9808412
7.5559177 -0.33061033 -1.9809616
7.5620117 -0.14817871 -1.9810488
7.5635934 0.034356687 -1.9811028
7.5606346 0.21687561 -1.9811236
7.553164 0.39927366 -1.9811114
7.541152 0.58142638 -1.9810656
7.5246387 0.76321346 -1.980987
7.5035934 0.94452453 -1.9808745
7.478076 1.1252441 -1.9807295
7.4136229 1.4844812 -1.9803405
7.3746972 1.6627489 -1.9800966
7.3314061 1.8399774 -1.9798203
7.2317286 2.190866 -1.9791709
7.1147852 2.5362537 -1.9783936
7.0499411 2.7066162 -1.9779577
6.907783 3.0421479 -1.9769932
6.6639647 3.5309076 -1.9753189
6.5747657 3.6895416 -1.9747015
6.3847852 3.9998174 -1.9733804
5.5576072 4.2794342 -1.8372128
5.1620703 4.606564 -1.8121502
5.0471482 4.7276654 -1.8113356
4.6852245 5.0731792 -1.8087617
4.5591698 5.1821966 -1.8078625
4.4305272 5.2880206 -1.8069439
4.0299706 5.5857964 -1.8040752
3.8918555 5.678299 -1.8030839
3.021162 6.1589737 -1.7968099
2.8698926 6.2262979 -1.7957164
2.7171385 6.289865 -1.7946109
2.5629687 6.3496537 -1.7934942
2.250752 6.4577541 -1.7912295
1.7743163 6.5911493 -1.787836
1.522246 6.2522917 -1.68545
0.89591795 6.2541142 -1.6548109
0.74242187 6.2545571 -1.6497053
-0.16685547 6.2571697 -1.6394699
-0.31813475 6.2576008 -1.641119
-0.46980467 6.2580328 -1.6437268
-0.62204099 6.2584648 -1.6473056
-0.77501953 6.2588992 -1.6518627
-0.91708982 6.1794705 -1.636266
-1.070166 6.1799016 -1.6427411
-1.3795702 6.1768341 -1.657708
-1.935791 6.4366522 -1.7605084
-2.3917871 6.2677202 -1.7571367
-2.9774022 5.9930878 -1.7527779
-3.2591796 5.8354278 -1.7506747
-3.3970506 5.7516923 -1.7496442
-3.5328221 5.6647406 -1.7486281
-3.6663964 5.5746427 -1.7476275
-4.1774707 5.1838641 -1.7437884
-4.4181347 4.971076 -1.7419739
-4.6481934 4.7473664 -1.7402345
-4.867197 4.5132442 -1.7385737
-4.9724317 4.3924494 -1.737774
-5.1112595 4.3000178 -1.7495139
-5.3556542 4.2892256 -1.7971963
-5.8243942 4.2200017 -1.8838894
-5.9221778 4.0765958 -1.883139
-6.1073532 3.7832294 -1.8817126
-6.1946287 3.6334355 -1.8810376
-6.2783594 3.4816699 -1.8803883
-6.3584571 3.3280401 -1.8797652
-6.4348631 3.1726165 -1.8791685
-6.5075684 3.0154893 -1.8785987
-6.6417575 2.6964502 -1.8775402
-6.7031446 2.534724 -1.8770525
-6.7607226 2.3716435 -1.8765922
-6.814414 2.2072942 -1.8761603
-6.9101071 1.8751293 -1.8753811
-6.9520702 1.7075115 -1.8750345
-7.0541015 1.1995629 -1.8741678
-7.0801368 1.0288532 -1.873937
-7.1021385 0.85758907 -1.8737359
-7.1201172 0.68588746 -1.8735641
-7.1340528 0.51382202 -1.8734219
-7.1439452 0.34148863 -1.8733093
-7.1493258 -0.17620544 -1.873149
-7.0998044 -0.86460936 -1.8733521
-6.9474998 -1.7138608 -1.8742715
-6.905117 -1.8812939 -1.8745434
-6.8588085 -2.0477097 -1.8748443
-6.8085938 -2.2130234 -1.875174
-6.6965332 -2.5399857 -1.8759197
-6.6347656 -2.701448 -1.8763354
-6.5691991 -2.8614476 -1.8767788
-6.4998531 -3.0199032 -1.8772504
-6.0069237 -3.9333768 -1.880653
-5.7128611 -4.3623919 -1.8827099
-5.6081247 -4.5007434 -1.8834459
-5.5001073 -4.6366463 -1.8842062
-5.3888378 -4.77002 -1.8849913
-5.274404 -4.9007773 -1.8858002
-5.1568847 -5.0288544 -1.8866323
-5.0362988 -5.1541729 -1.8874874
-4.912734 -5.276659 -1.8883651
-4.7862501 -5.3962622 -1.8892651
-4.5247364 -5.6264606 -1.8911294
-3.8246288 -6.1464982 -1.8961428
-3.6389453 -6.1755066 -1.8774463
-3.0666602 -6.1884942 -1.8090185
-2.7062011 -6.1958485 -1.7708882
-2.3815625 -6.2599998 -1.7542959
-1.615791 -6.5217676 -1.759851
-1.4588476 -6.5631123 -1.7609924
-1.1419629 -6.6345415 -1.7632998
-0.82161129 -6.690773 -1.7656361
0.64352536 -6.7514029 -1.7763674
1.2947754 -6.6759033 -1.7811614
1.7779003 -6.5778899 -1.7847275
2.0959668 -6.4929881 -1.78708
2.4099512 -6.3926086 -1.7894061
3.2383204 -6.2022085 -1.8326062
3.826787 -6.1915636 -1.9064676
4.3761621 -6.0527086 -1.9563094
4.5235157 -5.9487004 -1.9574142
5.0868454 -5.4968467 -1.961651
5.3515821 -5.2503462 -1.9636499
5.7256346 -4.8564444 -1.9664849
5.8438573 -4.7190137 -1.967384
5.9586716 -4.578651 -1.9682586
6.2821679 -4.1408024 -1.970733
6.3827634 -3.9895468 -1.9715061
6.5727148 -3.6796584 -1.9729713
6.6619434 -3.5212054 -1.9736625
6.7472458 -3.3605392 -1.9743255
6.8285642 -3.1977446 -1.97496
6.9058785 -3.0329556 -1.9755652
6.9790821 -2.8662536 -1.9761409
7.0481639 -2.6977456 -1.9766867
7.1130662 -2.5275302 -1.9772024
7.1737595 -2.3557062 -1.9776875
7.2301755 -2.1824028 -1.9781415
7.2822948 -2.0077176 -1.9785644
7.3734765 -1.6546326 -1.9793154
7.4470897 -1.2973218 -1.9799385
7.4772067 -1.1173773 -1.9802012
7.5240426 -0.75545895 -1.980629
7.5528512 -0.39158446 -1.980925
7.5621481 0.15583618 -1.9811206
7.5456738 0.52053773 -1.9810846
7.530664 0.70245606 -1.9810168
7.5111327 0.88393855 -1.9809158
7.4871092 1.0648706 -1.9807818
7.3882127 1.6032318 -1.9801818
7.3463964 1.7808191 -1.9799163
7.2495995 2.13255 -1.9792883
7.0721188 2.6498175 -1.978107
6.8568163 3.1521568 -1.976645
6.3182516 4.1008821 -1.9729159
5.9247851 4.2654557 -1.9121685
5.3178906 4.4464054 -1.8156035
5.0858984 4.6874809 -1.8116106
4.9690332 4.8066473 -1.8107809
4.7268162 5.0360212 -1.8090581
4.6016212 5.1460834 -1.8081656
4.4738474 5.2529864 -1.8072532
4.343545 5.3566546 -1.8063216
3.7987401 5.7379446 -1.8024148
3.2204981 6.0633478 -1.7982497
2.9206738 6.204196 -1.7960837
2.7683885 6.2690263 -1.794982
2.6146777 6.33008 -1.793869
2.1458495 6.490375 -1.7904865
1.8278515 6.5780206 -1.788219
1.4163378 6.2526016 -1.6791834
1.258623 6.2530608 -1.6706613
1.1023828 6.2535138 -1.6631873
0.94747066 6.2539639 -1.6567411
0.64076173 6.2548504 -1.6468557
0.33697265 6.2557268 -1.6408862
0.18575194 6.2561603 -1.6393465
0.034697264 6.2565937 -1.6387625
-0.41902342 6.2578888 -1.6427474
-0.87734371 6.2591901 -1.6554449
-1.0188282 6.1797562 -1.6404637
-1.1720313 6.1762505 -1.6465615
-1.7290527 6.5014248 -1.7620727
-2.0380762 6.4020147 -1.7597623
-2.3416016 6.288157 -1.7575097
-2.7851269 6.090838 -1.7542108
-3.072041 5.9420977 -1.7520721
-3.2126074 5.8627191 -1.7510225
-3.6219726 5.6051264 -1.7479603
-4.01124 5.3195181 -1.745039
-4.4958787 4.8978276 -1.7413864
-4.7223144 4.6705914 -1.739673
-4.831367 4.5530949 -1.7388459
-4.9375391 4.4331193 -1.738039
-5.2716894 4.2922869 -1.7805902
-5.5273924 4.2829008 -1.8315125
-5.7909374 4.2674627 -1.8841461
-5.8898435 4.1248102 -1.8833874
-6.4097166 3.2247949 -1.8793652
-6.4836621 3.0682318 -1.8787864
-6.6203809 2.7502239 -1.8777096
-6.7418847 2.4263353 -1.8767431
-6.796875 2.2624016 -1.8763016
-6.8952146 1.9309759 -1.8755033
-6.9778123 1.595451 -1.8748196
-7.013154 1.4263678 -1.874521
-7.0718651 1.086004 -1.874011
-7.0952244 0.91492492 -1.8738
-7.1145411 0.74335873 -1.8736182
-7.1298242 0.57140625 -1.8734661
-7.1410837 0.39915466 -1.8733435
-7.1514354 0.054105833 -1.8731872
-7.1505075 -0.11848571 -1.8731539
-7.1365528 -0.46337402 -1.873176
-7.1235352 -0.6354773 -1.8732314
-7.0601754 -1.1493609 -1.8735766
-7.0310545 -1.3195294 -1.8737506
-6.7730174 -2.3223813 -1.8754095
-6.7163572 -2.4856701 -1.875787
-6.5915427 -2.8080974 -1.8766274
-6.5234666 -2.9670823 -1.8770899
-6.4516501 -3.1244578 -1.8775798
-6.3761425 -3.28016 -1.8780973
-6.0377731 -3.884316 -1.8804382
-5.7471385 -4.3155799 -1.8824693
-5.6435251 -4.4547377 -1.8831968
-5.0769629 -5.112565 -1.887199
-4.9543943 -5.2360067 -1.8880692
-4.828867 -5.3565903 -1.8889618
-4.5692477 -5.5888128 -1.8908117
-4.4352832 -5.7003355 -1.8917681
-4.2986622 -5.8087053 -1.892745
-4.0176368 -6.0157518 -1.8947577
-3.5083301 -6.178606 -1.8610153
-3.3161035 -6.1830239 -1.8376983
-2.4315233 -6.2392888 -1.7539343
-2.2816503 -6.3000445 -1.7550192
-1.9775097 -6.4108419 -1.7572241
-1.667998 -6.5071092 -1.7594717
-1.5114355 -6.5497231 -1.76061
-1.3538183 -6.5885596 -1.7617569
-1.1952245 -6.6236486 -1.7629119
-0.87540036 -6.682435 -1.7652438
-0.71434569 -6.7060785 -1.7664193
-0.55266601 -6.7258611 -1.7676005
-0.064785153 -6.761848 -1.7711703
0.098476559 -6.7660089 -1.7723668
0.4253906 -6.7625146 -1.7747651
0.75222653 -6.7432261 -1.7771666
1.0781543 -6.7081175 -1.7795651
1.2405859 -6.6846385 -1.7807618
1.5637597 -6.6258521 -1.7831457
1.8841504 -6.5513663 -1.7855129
2.0430467 -6.5082712 -1.7866882
2.2009473 -6.461298 -1.7878571
2.3577733 -6.4104657 -1.7890191
2.9901659 -6.2062106 -1.8043873
3.1754394 -6.2032518 -1.8252828
3.3650293 -6.2000504 -1.8477044
3.7588573 -6.1928716 -1.8974655
3.9638867 -6.1888647 -1.924994
4.1749997 -6.1845555 -1.9544343
4.4745021 -5.9838967 -1.9570466
4.6201854 -5.8774552 -1.9581399
4.7632909 -5.7674127 -1.959215
5.17624 -5.4163013 -1.9623255
5.3081346 -5.29249 -1.9633214
5.4370117 -5.1654196 -1.9642962
5.5628123 -5.0351338 -1.9652492
5.6853809 -4.901742 -1.9661791
5.8046875 -4.7653098 -1.9670858
6.2477145 -4.1908069 -1.9704688
6.4476657 -3.8875008 -1.9720057
6.6325388 -3.574441 -1.9734346
6.7191601 -3.4145038 -1.974107
6.8804684 -3.0882945 -1.975366
6.9550486 -2.9222219 -1.9759516
7.025527 -2.754288 -1.9765075
7.1539354 -2.4133432 -1.9775287
7.2117772 -2.2405267 -1.9779931
7.3145895 -1.8907309 -1.9788285
7.3594527 -1.7139831 -1.9791988
7.3999314 -1.5361462 -1.979537
7.4676266 -1.1776513 -1.980117
7.4947948 -0.9972198 -1.9803581
7.5174704 -0.81613034 -1.9805666
7.5492773 -0.45253173 -1.9808847
7.5584273 -0.27023253 -1.9809941
7.5630369 -0.087755732 -1.9810704
7.5496874 0.4596118 -1.9810998
7.5361814 0.64165038 -1.9810431
7.5181637 0.82329041 -1.9809533
7.4686131 1.1849377 -1.9806741
7.4371481 1.364696 -1.9804852
7.3161035 1.8984125 -1.9797217
7.2670116 2.0740795 -1.9794024
7.2135448 2.2484429 -1.9790509
7.1558008 2.4213977 -1.9786676
7.0937986 2.5928333 -1.9782528
7.0275583 2.7626574 -1.9778067
6.8826466 3.0969799 -1.9768217
6.7214646 3.4235468 -1.9757156
6.6348534 3.5836821 -1.9751178
6.5443749 3.7415679 -1.9744908
6.4500098 3.8971136 -1.973835
6.2500587 4.2008147 -1.9724391
6.0214939 4.2617183 -1.9322164
5.2373142 4.5239544 -1.8126827
