# .PCD v0.7 - Point Cloud Data file format
VERSION 0.7
FIELDS x y z
SIZE 4 4 4
TYPE F F F
COUNT 1 1 1
WIDTH 1494
HEIGHT 1
VIEWPOINT 0 0 0 1 0 0 0
POINTS 1494
DATA ascii
-5.0598435 2.4495728 -1.8862433
-5.11624 2.3262682 -1.8857969
-5.1697021 2.2016809 -1.8853717
-5.3918943 1.562196 -1.8835754
-5.4271774 1.4314715 -1.8832831
-5.4593406 1.2999561 -1.8830138
-5.5142965 1.0349066 -1.8825438
-5.5370703 0.90150756 -1.8823433
-5.6075878 -0.041827392 -1.881595
-5.6049118 -0.17706604 -1.8815823
-5.5990524 -0.31220579 -1.881593
-5.5437403 -0.85029173 -1.8818722
-5.5219922 -0.98382443 -1.882001
-5.4690771 -1.2491956 -1.8823282
-5.3663378 -1.6419451 -1.882993
-5.2360058 -2.0265813 -1.8838638
-5.1340723 -2.2775681 -1.8845567
-5.0786572 -2.4012215 -1.8849365
-5.0203319 -2.5235653 -1.8853382
-4.8950338 -2.7640059 -1.8862065
-4.7584424 -2.9983723 -1.8871597
-4.6860056 -3.1131096 -1.8876675
-4.5330176 -3.3373709 -1.8887441
-4.4525342 -3.4467783 -1.8893129
-4.3694677 -3.5542789 -1.8899009
-4.2838426 -3.6598134 -1.8905084
-4.1957126 -3.7633159 -1.8911349
-3.9167528 -4.0610952 -1.8931251
-3.8190625 -4.1559272 -1.8938245
-3.7191112 -4.2484393 -1.8945408
-3.512661 -4.4263148 -1.8960241
-3.40625 -4.5115724 -1.8967899
-3.2977977 -4.5943084 -1.8975717
-3.1873631 -4.6744733 -1.8983686
-3.075 -4.7520318 -1.8991805
-2.8447411 -4.8990898 -1.9008471
-2.6075342 -5.0351343 -1.9025677
-2.4864745 -5.0989146 -1.903447
-2.1142969 -5.2728477 -1.9061561
-1.9874804 -5.3248925 -1.907081
-1.8593701 -5.3739133 -1.9080162
-1.4681689 -5.5025249 -1.9108768
-1.2022949 -5.5726013 -1.912825
-1.0681006 -5.6028638 -1.9138097
-0.79749513 -5.6537199 -1.9157977
-0.66123044 -5.6742783 -1.9167999
-0.5244531 -5.6915636 -1.9178066
-0.11173828 -5.7236524 -1.9208496
0.16459472 -5.7284646 -1.9228909
0.30287597 -5.7258701 -1.9239135
0.44113281 -5.7199402 -1.9249369
0.85490721 -5.6821156 -1.9280044
0.99224609 -5.6628366 -1.9290243
1.1291406 -5.6402292 -1.9300414
1.2655517 -5.6143026 -1.931056
1.8042382 -5.4776349 -1.9350706
1.936831 -5.4353056 -1.9360608
2.1989112 -5.3409815 -1.9380207
2.3282616 -5.2890325 -1.9389892
2.456372 -5.2339282 -1.9399494
2.832495 -5.0499625 -1.9427738
3.1946826 -4.8387337 -1.9455019
3.5409374 -4.6012635 -1.9481182
3.7619481 -4.4289503 -1.9497933
3.8693016 -4.3387389 -1.9506086
3.9744432 -4.245893 -1.9514081
4.2760739 -3.9520648 -1.9537084
4.4649901 -3.7440181 -1.9551548
4.5556202 -3.636528 -1.9558505
4.8114648 -3.3009596 -1.9578226
4.8912354 -3.184943 -1.9584399
4.968154 -3.066978 -1.9590369
5.1132226 -2.8254452 -1.9601673
5.1812887 -2.7020307 -1.9607002
5.2463183 -2.5769451 -1.9612108
5.3082714 -2.4502673 -1.9616995
5.4752393 -2.0614393 -1.9630271
5.5704637 -1.7957003 -1.9637949
5.6525097 -1.5254992 -1.9644665
5.68853 -1.3889319 -1.9647655
5.7211766 -1.2514844 -1.96504
5.798667 -0.83484131 -1.965713
5.8451805 -0.41348997 -1.9661583
5.8588181 -0.13112487 -1.9663272
5.8531494 0.29283568 -1.9663873
5.8442917 0.43391663 -1.9663557
5.8161473 0.71521544 -1.9662155
5.7968798 0.85524231 -1.9661068
5.7480416 1.1336322 -1.9658128
5.5665479 1.8159051 -1.9646354
5.5202589 1.9493316 -1.9643255
5.4179149 2.2124944 -1.9636323
5.3619385 2.3420708 -1.9632498
5.3027735 2.4702051 -1.9628433
5.2405176 2.596817 -1.9624135
5.1067576 2.845186 -1.9614848
4.96103 3.0865452 -1.9604657
4.8036914 3.3203235 -1.959359
4.7208009 3.4341931 -1.9587737
4.6351609 3.5459704 -1.9581677
4.5468311 3.6555638 -1.9575411
4.0668406 4.1687632 -1.9541169
3.9636083 4.2640257 -1.9533769
3.8581054 4.3567042 -1.9526193
3.7006199 4.3876963 -1.9259328
3.3615625 4.3998523 -1.8578656
3.2004833 4.4053478 -1.8270488
3.0489404 4.417026 -1.8008614
2.9293065 4.4706225 -1.7933774
2.81937 4.5379672 -1.792581
2.2476709 4.8329916 -1.7884263
2.0100243 4.9309835 -1.7866933
1.88958 4.9755774 -1.7858138
1.5225928 5.0915098 -1.7831292
1.3986377 5.1241393 -1.7822207
1.1486963 5.1802955 -1.7803869
0.64294434 5.255857 -1.7766669
0.51572263 5.2670546 -1.7757293
0.38832518 5.275166 -1.7747896
0.26084471 5.2801991 -1.7738484
0.13332519 5.282146 -1.7729063
-0.12142578 5.2768149 -1.7710222
-0.37536621 5.2592273 -1.7691408
-0.50185055 5.2458568 -1.7682028
-0.87843257 5.187623 -1.7654052
-1.2492578 5.1025391 -1.7626437
-1.4923437 5.0311694 -1.7608297
-1.6124365 4.991168 -1.7599325
-2.0816064 4.8030052 -1.7564193
-2.4199364 4.6332078 -1.7538779
-2.8745067 4.4083924 -1.765841
-3.1800096 4.3977537 -1.8209575
-3.3399999 4.3918982 -1.8513615
-3.5053954 4.3856506 -1.8838333
-3.6358154 4.3303857 -1.8972219
-3.8373096 4.1466541 -1.8956883
-4.3003078 3.6480005 -1.8921461
-4.3855224 3.5419848 -1.8914906
-4.4681735 3.4340222 -1.8908536
-4.548213 3.3241687 -1.8902357
-4.7002978 3.0990276 -1.8890573
-4.8414698 2.867069 -1.887958
-4.9078612 2.7487073 -1.8874389
-4.971416 2.6288354 -1.8869401
-5.0898876 2.3848486 -1.8860058
-5.2914305 1.8817865 -1.884395
-5.3343015 1.7532922 -1.8840472
-5.3741159 1.6238421 -1.8837217
-5.4108448 1.4935052 -1.8834188
-5.4750094 1.2304785 -1.8828813
-5.5024171 1.097918 -1.8826468
-5.5804882 0.56250548 -1.8819407
-5.5920897 0.42771482 -1.8818226
-5.607749 0.022256469 -1.8816092
-5.6065869 -0.11300232 -1.8815854
-5.6022215 -0.24819763 -1.881585
-5.5839405 -0.51809692 -1.8816551
-5.5700293 -0.65265381 -1.8817255
-5.552949 -0.78686094 -1.8818194
-5.5092969 -1.05388 -1.8820779
-5.482749 -1.1865612 -1.8822421
-5.4202881 -1.4498931 -1.8826404
-5.3034425 -1.8387594 -1.8834105
-5.2583933 -1.966455 -1.8837128
-5.0483298 -2.4657681 -1.8851452
-4.9884763 -2.5873804 -1.8855582
-4.9257665 -2.7075841 -1.8859929
-4.8601804 -2.8262844 -1.8864491
-4.7206736 -3.05896 -1.8874242
-4.4909863 -3.3951702 -1.8890411
-4.2377687 -3.7145379 -1.8908356
-4.1483493 -3.8169506 -1.8914721
-4.0564795 -3.9172528 -1.8921269
-3.9622264 -4.0153809 -1.8928
-3.5623388 -4.3850598 -1.8956667
-3.2399316 -4.6368175 -1.8979892
-3.1284716 -4.7156119 -1.8987941
-3.0151219 -4.7917647 -1.8996136
-2.8999267 -4.8652363 -1.9004474
-2.664331 -5.0039215 -1.9021554
-2.1739306 -5.2471423 -1.9057215
-2.0477197 -5.3006096 -1.9066416
-1.9202197 -5.3510704 -1.907572
-1.4297656 4.6675048 -1.7612048
-1.541206 4.6294727 -1.7603719
-1.6516503 4.5887952 -1.7595458
-1.76104 4.5455065 -1.758727
-1.976372 4.4512033 -1.7571125
-2.0901172 4.4169407 -1.7629811
-2.2169092 4.4067149 -1.7797304
-2.6246436 4.3937778 -1.8465031
-2.7674854 4.3888636 -1.8719548
-2.9142675 4.3836179 -1.8991548
-3.0232763 4.3179331 -1.9017465
-3.2253904 4.1637607 -1.9002154
-3.4197752 4.0002575 -1.8987392
-3.6060252 3.8278198 -1.8973211
-3.9524901 3.4577806 -1.8946711
-4.0334277 3.3603344 -1.8940495
-4.1119871 3.261029 -1.8934448
-4.1881347 3.1599219 -1.8928577
-4.4679589 2.7385986 -1.8906879
-4.5924659 2.518645 -1.8897146
-4.6507468 2.4065607 -1.8892568
-4.7063427 2.2931523 -1.8888186
-4.7592335 2.1784844 -1.8884001
-4.8093848 2.0626252 -1.8880016
-4.8567576 1.9456347 -1.8876232
-4.9013429 1.8275769 -1.8872653
-4.9431152 1.7085211 -1.8869277
-4.9820457 1.5885296 -1.8866113
-5.051333 1.3460101 -1.8860406
-5.0816455 1.2236193 -1.8857871
-5.1090574 1.1005584 -1.8855549
-5.1335402 0.97690123 -1.8853441
-5.1893406 0.60300779 -1.8848417
-5.2020359 0.47763669 -1.8847177
-5.2117677 0.3520056 -1.8846154
-5.2185154 0.22618712 -1.8845353
-5.2223043 0.1002478 -1.884477
-5.2209129 -0.15171386 -1.8844265
-5.2157569 -0.27759886 -1.8844345
-5.1654444 -0.77889466 -1.8846856
-5.1225681 -1.027235 -1.8849428
-5.0967331 -1.1505902 -1.8851041
-5.0679932 -1.2733111 -1.8852869
-4.9242234 -1.7565142 -1.8862332
-4.8353224 -1.9925739 -1.8868334
-4.786694 -2.1089959 -1.8871648
-4.7353125 -2.2242496 -1.8875171
-4.6812158 -2.3382809 -1.8878894
-4.624414 -2.4510207 -1.8882822
-4.5649462 -2.5624063 -1.8886948
-4.4381347 -2.7808766 -1.8895794
-4.3708644 -2.8878403 -1.8900509
-4.3010545 -2.993196 -1.8905417
-4.2286081 -3.0968714 -1.8910522
-4.1539841 -3.1988864 -1.8915793
-3.744663 -3.6811044 -1.8944887
-3.6560156 -3.7716155 -1.8951221
-3.5652099 -3.8600192 -1.8957719
-3.2803173 -4.1121321 -1.897817
-3.1813672 -4.191627 -1.8985293
-2.7671094 -4.4856725 -1.9015204
-2.6591942 -4.5529814 -1.9023019
-2.5496776 -4.6177244 -1.9030958
-2.3260009 -4.7393517 -1.9047198
-2.2119727 -4.7961664 -1.9055489
-2.0965674 -4.8502588 -1.906389
-1.9798584 -4.9016013 -1.9072393
-1.7427539 -4.9959044 -1.908969
-1.3788867 -5.1159554 -1.9116298
-1.1316308 -5.181406 -1.9134415
-1.0068164 -5.2096872 -1.9143573
-0.88128906 -5.2349753 -1.915279
-0.75513184 -5.2572508 -1.9162061
-0.62840819 -5.2765012 -1.9171382
-0.50120115 -5.2927051 -1.9180746
-0.37357908 -5.3058581 -1.9190147
-0.24562988 -5.3159361 -1.919958
0.011044921 -5.3268476 -1.9218525
0.26818848 -5.3253794 -1.9237536
0.52521485 -5.3114982 -1.9256567
0.78152829 -5.2852011 -1.9275576
1.1633301 -5.2225366 -1.9303946
1.2895752 -5.1954908 -1.9313344
1.415205 -5.1653714 -1.9322703
1.540122 -5.1322093 -1.9332016
1.6642529 -5.0960112 -1.9341278
1.7875439 -5.0567923 -1.9350485
1.9098877 -5.0145736 -1.9359629
2.0312352 -4.9693823 -1.9368708
2.2706201 -4.8701463 -1.9386642
2.505127 -4.7592926 -1.9404242
2.6203516 -4.6995835 -1.9412903
2.8464403 -4.5717497 -1.9429921
3.066211 -4.4329414 -1.9446499
3.2791455 -4.2834563 -1.9462597
3.5845311 -4.0399518 -1.9485757
3.6823339 -3.9538302 -1.9493194
3.871582 -3.7744381 -1.9507613
4.0519629 -3.5858681 -1.95214
4.1386814 -3.4882786 -1.9528046
4.3049169 -3.2867808 -1.9540817
4.4611621 -3.0772469 -1.9552871
4.6759567 -2.7489781 -1.9569536
4.8055758 -2.5215824 -1.9579666
4.9239206 -2.2879825 -1.9588975
4.9787889 -2.169034 -1.9593318
5.0307126 -2.0487494 -1.9597446
5.2084861 -1.5557079 -1.9611772
5.2453122 -1.4298474 -1.9614798
5.2790184 -1.3031 -1.9617593
2.6746678 -0.13124572 -0.96614087
2.673413 0.062400512 -0.96479118
2.6757567 0.12708312 -0.96646136
5.3130469 1.1675525 -1.9626056
5.2130027 1.5481366 -1.9619578
5.1734571 1.6731994 -1.9616957
5.1308494 1.7972326 -1.9614105
5.0365624 2.0419135 -1.9607725
4.984951 2.1624103 -1.96042
4.8729587 2.399353 -1.9596493
4.6148925 2.8550298 -1.9578515
4.3928857 3.1786864 -1.9562885
4.3137059 3.282774 -1.9557284
4.2320065 3.3848658 -1.9551491
4.0613327 3.5827942 -1.9539351
3.6922901 3.9520445 -1.9512962
3.4948485 4.1225133 -1.9498779
3.3931201 4.2040257 -1.9491457
3.2894773 4.282999 -1.9483986
2.8936036 4.3918614 -1.8975158
2.747036 4.3966846 -1.8704205
2.4654002 4.4053955 -1.8213654
1.8798437 4.5784421 -1.7856463
1.6553369 4.6594858 -1.7840064
1.4273682 4.7294641 -1.7823383
1.0801318 4.8134046 -1.7797918
0.61020505 4.88557 -1.7763357
-0.10052246 4.9079528 -1.7710878
-0.21875976 4.9016733 -1.7702124
-0.45444822 4.8806005 -1.768465
-0.57175291 4.8658214 -1.7675946
-0.68860841 4.8482313 -1.7667266
-1.1502343 4.7500868 -1.7632909
-1.2638623 4.7186923 -1.7624433
-1.7119579 4.5733423 -1.7618109
-2.1552198 4.4088902 -1.7705457
-2.2863817 4.4046302 -1.7904665
-2.5582519 4.3959961 -1.8350285
-2.9743164 4.3530531 -1.9021168
-3.0771778 4.2782946 -1.9013385
-3.1781883 4.2011414 -1.9005733
-3.3744481 4.0398121 -1.8990839
-3.9953661 3.4067345 -1.8943419
-4.0750585 3.3083074 -1.8937292
-4.2272363 3.10601 -1.8925556
-4.2996483 3.0022595 -1.8919955
-4.4369287 2.7898424 -1.8909296
-4.5017238 2.6812952 -1.8904245
-4.5639257 2.5712707 -1.8899384
-4.6234665 2.4598308 -1.8894714
-4.6803465 2.3470428 -1.8890239
-4.7345114 2.232965 -1.8885959
-4.8805661 1.8836389 -1.8874323
-4.9236717 1.7650518 -1.8870851
-5.0013962 1.525036 -1.8864529
-5.0964255 1.1589416 -1.8856622
-5.1222949 1.0355579 -1.8854414
-5.1452441 0.91161191 -1.885242
-5.1963868 0.53707337 -1.8847739
-5.2075291 0.41155639 -1.8846612
-5.2156935 0.28581542 -1.8845706
-5.2230906 0.033951417 -1.8844552
-5.2223239 -0.092034303 -1.8844305
-5.218574 -0.21797425 -1.8844279
-5.2021484 -0.46940002 -1.8844888
-5.189497 -0.59476316 -1.8845521
-5.173862 -0.71979123 -1.8846376
-5.1553025 -0.84442139 -1.8847449
-5.133779 -0.96858579 -1.8848739
-5.0819726 -1.215252 -1.8851978
-4.9825144 -1.5800555 -1.8858448
-4.9436278 -1.7000036 -1.8861035
-4.5934472 -2.5098081 -1.8884968
-4.4030614 -2.8373575 -1.8898252
-4.3344483 -2.9434805 -1.8903068
-4.0352149 -3.3511076 -1.8924204
-3.7858984 -3.6375041 -1.8941942
-3.6982958 -3.728991 -1.8948197
-3.6084862 -3.8184011 -1.895462
-3.5165625 -3.9056835 -1.8961205
-3.3265135 -4.0736551 -1.8974847
-2.8176415 -4.4529023 -1.9011549
-2.4914012 -4.6507502 -1.9035187
-2.2661817 -4.7695847 -1.9051547
-2.0353124 -4.8776207 -1.9068351
-1.799336 -4.9745836 -1.908556
-1.6795995 -5.0188355 -1.9094304
-1.4369433 -5.0987296 -1.9112048
-1.314165 -5.1343188 -1.9121037
-1.0660449 -5.1966605 -1.9139225
-0.6885156 -5.2677598 -1.9166961
-0.43409178 -5.3000059 -1.9185688
-0.3062793 -5.311543 -1.9195107
-0.17816406 -5.320003 -1.9204556
-0.049829099 -5.325377 -1.9214031
0.07868652 -5.3276615 -1.9223522
0.33584473 -5.3229322 -1.9242543
0.46437499 -5.3159113 -1.9252059
0.59274411 -5.3057823 -1.9261572
0.84876949 -5.2762213 -1.9280567
1.2298437 -5.2086859 -1.9308897
1.4810449 -5.1483002 -1.9327611
2.0946631 -4.9444079 -1.9373455
2.2143359 -4.8947148 -1.9382422
2.5659423 -4.7282243 -1.9408811
2.6804149 -4.6670294 -1.9417419
2.7934325 -4.6030345 -1.9425927
3.1229296 -4.394629 -1.9450784
3.2293506 -4.3198152 -1.945883
3.5374804 -4.0799017 -1.9482183
3.6362598 -3.9949353 -1.9489688
3.7329588 -3.9075441 -1.9497046
3.8275342 -3.8177798 -1.9504254
3.9199266 -3.7256949 -1.9511303
4.0979004 -3.534786 -1.9524919
4.3470068 -3.2324083 -1.9544059
4.5005517 -3.0208423 -1.9555917
4.5734425 -2.9122527 -1.9561567
4.6436424 -2.8018761 -1.9567022
4.7111325 -2.6897817 -1.9572281
4.7758789 -2.5760307 -1.957734
4.8378272 -2.4606998 -1.9582195
4.8969288 -2.3438518 -1.9586847
4.9531589 -2.2255592 -1.9591287
5.0568552 -1.9849396 -1.9599531
5.1042333 -1.8627548 -1.9603326
5.1486378 -1.7394165 -1.9606906
5.1899753 -1.6150036 -1.9610261
5.3244481 -1.1081281 -1.9621421
2.6619482 -0.16113342 -0.96214789
5.3518553 0.97809082 -1.962847
5.3262696 1.1068066 -1.9626888
5.297544 1.2348382 -1.9625072
5.230669 1.4885491 -1.962074
5.1925683 1.6140698 -1.9618226
5.1514206 1.7386004 -1.9615484
5.1072068 1.8620605 -1.9612515
5.0599756 1.9843823 -1.9609317
4.841567 2.4607422 -1.959432
4.7797608 2.5762389 -1.9590031
4.6477733 2.802434 -1.958082
4.5776706 2.9129906 -1.9575905
4.4295115 3.1286871 -1.9565471
4.2710204 3.3367498 -1.9554259
4.1880369 3.4377587 -1.9548367
4.1026268 3.5366759 -1.9542292
3.924741 3.7279882 -1.9529605
3.6411328 3.9978404 -1.9509292
3.4415624 4.1657214 -1.9494945
3.2341845 4.3235264 -1.9479997
3.1174901 4.384131 -1.9408537
2.8159668 4.3944383 -1.8830333
2.3936229 4.4074936 -1.8095236
2.1519432 4.4631357 -1.7876296
1.9324511 4.5576391 -1.7860301
1.8211328 4.6008286 -1.7852178
1.3668798 4.7460265 -1.7818952
1.2514111 4.7753406 -1.7810485
1.135332 4.8018384 -1.7801969
1.0186914 4.8255038 -1.7793405
0.54799801 4.8916578 -1.7758774
0.074042968 4.9119983 -1.7723789
-0.16275878 4.9050021 -1.7706271
-0.28088379 4.8972301 -1.769752
-0.51622069 4.8731737 -1.7680068
-0.63330078 4.8569164 -1.7671374
-0.86593747 4.8160048 -1.765408
-1.2101318 4.7339048 -1.7628442
-1.3233252 4.7010865 -1.7619996
-1.4356494 4.665576 -1.7611609
-1.6574023 4.5865917 -1.7595029
-1.7666943 4.5431638 -1.7586845
-1.8749316 4.4971581 -1.7578733
-1.9819579 4.448596 -1.7570705
-2.0965869 4.416151 -1.7637227
-2.3566747 4.4024682 -1.8016038
-2.492661 4.3981457 -1.8239149
-3.2305908 4.1595883 -1.9001759
-3.3286717 4.0788608 -1.8994316
-3.4247754 3.9958496 -1.8987013
-3.610786 3.8231823 -1.8972849
-3.7006199 3.7336278 -1.8965992
-3.873662 3.548341 -1.8952755
-3.9567919 3.4527147 -1.8946381
-4.1920652 3.154572 -1.8928273
-4.2656541 3.0516241 -1.8922585
-4.3367481 2.9469965 -1.8917079
-4.53478 2.6235785 -1.8901663
-4.7619286 2.1724396 -1.8883787
-4.8119483 2.0565155 -1.8879811
-4.9036036 1.8213586 -1.887247
-4.9452243 1.7022527 -1.8869107
-4.9840183 1.5822124 -1.8865951
-5.0529881 1.339613 -1.8860269
-5.110415 1.0940875 -1.8855433
-5.1561375 0.84618467 -1.8851457
-5.1745896 0.7215057 -1.8849792
-5.1900878 0.59644163 -1.8848345
-5.2121973 0.34540769 -1.8846107
-5.2224169 0.093641967 -1.8844746
-5.2154102 -0.28419983 -1.8844354
-5.1958594 -0.53540528 -1.8845195
-5.1443405 -0.90982479 -1.8848101
-5.121284 -1.0337213 -1.8849506
-4.9999413 -1.5229187 -1.8857298
-4.9624119 -1.6432891 -1.8859782
-4.9220362 -1.7627554 -1.886248
-4.8788328 -1.8812475 -1.8865386
-4.7840719 -2.1150687 -1.8871828
-4.7325535 -2.2302611 -1.8875359
-4.621367 -2.4568975 -1.8883032
-4.5617576 -2.5682125 -1.8887171
-4.4346776 -2.7865267 -1.8896039
-4.3672657 -2.8934014 -1.8900763
-4.2248044 -3.1022778 -1.8910791
-4.1499949 -3.2041883 -1.8916075
-4.0726805 -3.3043106 -1.8921548
-3.9929881 -3.4025965 -1.8927201
-3.6513085 -3.7763042 -1.8951555
-3.2751708 -4.1163578 -1.897854
-2.9723778 -4.3473797 -1.9000365
-2.5438819 -4.6210465 -1.9031378
-2.3200438 -4.7423992 -1.9047631
-2.0904737 -4.8530231 -1.9064333
-1.8556689 -4.9526286 -1.908145
-1.6161425 -5.040976 -1.9098941
-1.4947997 -5.0808501 -1.9107815
-1.2492089 -5.1518688 -1.9125797
-1.1250976 -5.1829643 -1.9134895
-0.87468749 -5.2362165 -1.9153275
-0.62175292 -5.2774291 -1.9171871
-0.2388916 -5.3163791 -1.9200077
0.14633788 -5.3276196 -1.9228524
0.27492675 -5.3251724 -1.9238033
0.53194332 -5.3109694 -1.9257066
0.66021484 -5.2992077 -1.9266576
0.7882275 -5.284348 -1.9276074
0.91590816 -5.2663832 -1.9285554
1.0431738 -5.2453351 -1.9295012
1.2961864 -5.1939874 -1.9313836
1.5466553 -5.1303864 -1.9332502
1.6707422 -5.0940309 -1.9341763
2.3946679 -4.8132496 -1.9395946
2.5111961 -4.7562323 -1.9404697
3.1791503 -4.3555956 -1.9455034
3.2846239 -4.2793956 -1.9463012
3.3882518 -4.2006207 -1.9470861
3.4899707 -4.1193051 -1.9478576
3.5897119 -4.0354981 -1.9486151
3.7829931 -3.8606 -1.9500858
3.8764257 -3.7696133 -1.9507983
4.056582 -3.5808039 -1.9521754
4.2273779 -3.3832791 -1.9534854
4.3091307 -3.2813888 -1.9541142
4.4651122 -3.0716565 -1.9553176
4.5392432 -2.963927 -1.9558915
4.679502 -2.7430987 -1.9569813
4.7455468 -2.6301258 -1.9574968
4.869277 -2.3994002 -1.9584668
4.9268651 -2.2817872 -1.9589208
4.9815817 -2.1627676 -1.9593539
5.0333543 -2.0424032 -1.9597656
5.3384128 -1.0405145 -1.9622616
2.6744335 0.065807492 -0.96518767
5.3628612 0.91689694 -1.9629136
5.338779 1.0459014 -1.9627665
5.2476368 1.4287469 -1.962185
5.1712937 1.6797314 -1.9616811
5.12853 1.803706 -1.9613949
5.0827341 1.9265747 -1.961086
4.9821677 2.1686902 -1.9604009
4.8093991 2.5217144 -1.959209
4.7461133 2.636389 -1.9587688
4.5397167 2.9704516 -1.9573236
4.3094726 3.2881811 -1.9556984
4.2276564 3.3901618 -1.9551181
3.9677196 3.6834691 -1.9532675
3.8764207 3.7768347 -1.952615
3.687207 3.9566381 -1.9512599
3.5894139 4.0429673 -1.9505577
3.2839892 4.2870727 -1.948359
3.0364063 4.3869801 -1.9248943
2.5970311 4.4014196 -1.8437861
2.4582078 4.4056091 -1.8201669
2.3245556 4.4130054 -1.799528
2.0946093 4.4890418 -1.7872121
1.9848388 4.5362277 -1.7864121
1.4213525 4.7311511 -1.7822942
1.0740088 4.8146434 -1.7797468
0.72203612 4.8725986 -1.7771592
0.60400879 4.8862095 -1.7762899
0.36729002 4.904829 -1.7745448
0.24876465 4.9098387 -1.77367
-0.10671386 4.9076939 -1.771042
-0.3429248 4.8919983 -1.7692922
-1.0418457 4.7773228 -1.7640985
-1.1562109 4.748508 -1.7632463
-1.2698095 4.7169676 -1.7623991
-1.3825488 4.6827307 -1.7615576
-1.6052442 4.6062536 -1.7598929
-1.7183251 4.5727038 -1.7624018
-1.9313965 4.4719214 -1.7574499
-2.038291 4.4231896 -1.7571167
-2.4278271 4.4002295 -1.8131534
-2.8519092 4.385869 -1.8874741
-2.9797509 4.3491969 -1.9020758
-3.0825341 4.2743077 -1.9012979
-3.379492 4.0354567 -1.8990455
-3.5674803 3.8648717 -1.897615
-3.7470164 3.6856604 -1.8962448
-3.9996045 3.4016216 -1.8943094
-4.2310886 3.1006176 -1.8925259
-4.3033838 2.9967682 -1.8919665
-4.5050583 2.6755571 -1.8903985
-4.5671144 2.5654619 -1.8899133
-4.6832471 2.341095 -1.8890008
-4.8371387 1.9950573 -1.8877801
-4.9258642 1.7588006 -1.8870676
-4.9659958 1.6391979 -1.886742
-5.0032763 1.5186999 -1.8864375
-5.0376954 1.3973706 -1.8861538
-5.0978565 1.1524817 -1.8856502
-5.123579 1.0290704 -1.8854302
-5.1463671 0.90509582 -1.8852321
-5.2160401 0.27921325 -1.8845663
-5.2210741 0.15331726 -1.8844988
-5.2231202 0.027340697 -1.8844534
-5.2182956 -0.22457092 -1.8844284
-5.188745 -0.60133117 -1.8845562
-5.1542478 -0.85094786 -1.8847511
-5.1079688 -1.0986871 -1.8850335
-5.0804491 -1.2216821 -1.8852073
-5.0500388 -1.3440045 -1.8854027
-4.9415135 -1.7062732 -1.8861175
-4.8996482 -1.8252341 -1.8863983
-4.8075194 -2.0600786 -1.8870229
-4.5903172 -2.5156457 -1.8885185
-4.3307862 -2.9489992 -1.8903326
-4.2595167 -3.0534136 -1.8908342
-4.1857762 -3.1561322 -1.8913547
-4.1096091 -3.2570999 -1.8918931
-3.7813623 -3.6423476 -1.8942267
-3.6936328 -3.7337377 -1.8948531
-3.5116894 -3.9102015 -1.8961554
-3.1232421 -4.2365565 -1.8989481
-2.9175682 -4.3856769 -1.9004323
-2.8120701 -4.4565587 -1.901195
-2.5960205 -4.5907598 -1.9027597
-2.1453466 -4.8278027 -1.9060339
-2.0291846 -4.8803053 -1.9068798
-1.7930859 -4.9769764 -1.9086016
-1.5524267 -5.0623178 -1.9103599
-1.4305273 -5.1006684 -1.9112518
-1.3076904 -5.1361046 -1.9121511
-1.1840038 -5.1685996 -1.9130576
-0.80834472 -5.2482333 -1.9158149
-0.68187499 -5.2687559 -1.9167449
-0.55485839 -5.286253 -1.9176794
-0.42738768 -5.3006902 -1.9186181
-0.04309082 -5.3255749 -1.9214528
0.085415035 -5.3276963 -1.9224021
0.21399902 -5.3267212 -1.9233527
0.34258789 -5.3226404 -1.9243041
0.47109374 -5.3154564 -1.9252559
0.59948242 -5.3051677 -1.9262072
0.98293942 -5.2556906 -1.9290534
1.109956 -5.233016 -1.9299978
1.2364502 -5.2072577 -1.930939
1.3623486 -5.1784363 -1.9318765
1.735708 -5.0736823 -1.9346614
1.8584521 -5.0327268 -1.9355785
1.9802295 -4.9887838 -1.9364892
2.1009569 -4.9418778 -1.9373928
2.7993212 -4.5996027 -1.9426371
3.0204637 -4.4630814 -1.9443046
3.1285596 -4.3907681 -1.9451209
3.2348828 -4.3158183 -1.9459248
3.3393993 -4.2382617 -1.946716
3.7379687 -3.9028976 -1.9497428
3.9247069 -3.7207997 -1.951167
4.0147409 -3.6263351 -1.9518551
4.1024318 -3.5296578 -1.9525267
4.4290819 -3.122036 -1.9550391
4.6472411 -2.7960379 -1.9567301
5.0091991 -2.0995865 -1.9595733
5.0594091 -1.9785573 -1.9599735
5.1066504 -1.8563125 -1.9603522
5.1508789 -1.7329202 -1.9607087
5.1920605 -1.6084552 -1.961043
5.2652001 -1.3566107 -1.9616443
5.2971091 -1.2293793 -1.9619108
5.3514938 -0.97272521 -1.9623746
2.6637499 -0.15785888 -0.96272552
2.6605077 0.16360535 -0.96168387
5.3505859 0.98485839 -1.9628391
5.3248534 1.1135364 -1.96268
5.2638965 1.3687586 -1.9622908
5.1491652 1.7451031 -1.9615333
5.1048045 1.868507 -1.9612353
5.0574169 1.9907622 -1.9609144
5.0070605 2.1117961 -1.9605713
4.9537449 2.2315326 -1.9602062
4.8975244 2.3499017 -1.959819
4.8384032 2.4668403 -1.9594101
4.7116795 2.69609 -1.9585288
4.5739255 2.918736 -1.957564
4.5010252 3.0274127 -1.9570514
4.425488 3.1342394 -1.9565188
4.347373 3.2391632 -1.9559666
4.2667284 3.3420994 -1.9553955
4.1836133 3.4430003 -1.9548053
4.0980811 3.5418041 -1.9541969
3.7328124 3.9148986 -1.9515868
3.2286522 4.3275218 -1.9479597
3.1093504 4.3844175 -1.9392389
2.808286 4.3946924 -1.8816183
2.6640332 4.3993297 -1.8555437
2.2575927 4.4210596 -1.7909821
2.146245 4.4657469 -1.7875881
1.8152734 4.6030197 -1.7851748
1.7029345 4.6433263 -1.7843542
1.5897119 4.6808763 -1.7835264
1.3608447 4.7476282 -1.7818508
1.1292236 4.803153 -1.7801522
1.0125586 4.8266687 -1.7792956
0.65996093 4.8801222 -1.7767023
0.54179198 4.8922181 -1.7758316
0.18637207 4.9113255 -1.7732092
0.06782715 4.9119654 -1.772333
-0.050644532 4.9097424 -1.7714568
-0.2870703 4.8967419 -1.7697062
-0.40488768 4.8859825 -1.7688328
-0.52237791 4.8723898 -1.767961
-0.63943356 4.8559837 -1.767092
-0.75599605 4.8367758 -1.7662258
-0.87200683 4.814785 -1.765363
-1.102124 4.7624989 -1.7636495
-1.4415137 4.6636362 -1.7611171
-1.6631689 4.5843773 -1.7594596
-1.8805761 4.4946728 -1.7578311
-1.9875342 4.4459777 -1.7570288
-2.1030469 4.415359 -1.764466
-2.7826805 4.3883286 -1.8747224
-3.1358643 4.2339344 -1.9008942
-3.2357812 4.1554127 -1.9001365
-3.3337696 4.0745606 -1.899393
-3.4297557 3.9914317 -1.8986634
-3.5237012 3.906074 -1.8979484
-3.7052734 3.7288756 -1.8965636
-3.8780859 3.5433691 -1.8952416
-3.9610839 3.447644 -1.8946052
-4.0417819 3.3500054 -1.8939853
-4.1959815 3.1492162 -1.892797
-4.2694383 3.0461833 -1.8922293
-4.4088573 2.835114 -1.891148
-4.5986962 2.5069537 -1.8896658
-4.6567039 2.3947253 -1.88921
-4.7120214 2.2811859 -1.8887738
-4.8615675 1.9332964 -1.8875847
-4.9473386 1.6959802 -1.8868936
-4.9859667 1.5758959 -1.8865793
-5.0216846 1.4549506 -1.886286
-5.0846629 1.2107391 -1.8857616
-5.1359425 0.96389705 -1.8853233
-5.1754737 0.71495908 -1.8849711
-5.2126169 0.33880982 -1.884606
-5.2190576 0.2129779 -1.8845282
-5.2205124 -0.16492248 -1.8844264
-5.2150536 -0.29079285 -1.8844365
-5.1951952 -0.54197508 -1.8845227
-5.163486 -0.79196835 -1.884697
-5.1432028 -0.91633725 -1.8848169
-5.1199951 -1.0402008 -1.8849587
-5.0648146 -1.2861395 -1.8853073
-4.9603562 -1.64958 -1.8859919
-4.9198437 -1.7689956 -1.8862627
-4.8764939 -1.8874371 -1.8865545
-4.8303514 -2.0048382 -1.8868673
-4.7297754 -2.2362654 -1.887555
-4.6753807 -2.3501711 -1.8879297
-4.5585594 -2.5740111 -1.8887392
-4.4961767 -2.6838334 -1.8891739
-4.4312253 -2.792171 -1.8896279
-4.3636622 -2.8989589 -1.8901016
-4.2935939 -3.0041497 -1.8905941
-4.2210302 -3.1076739 -1.8911057
-3.9065917 -3.5039971 -1.8933343
-3.7354784 -3.6906939 -1.8945541
-3.6465917 -3.780983 -1.8951895
-3.5555468 -3.869174 -1.8958411
-3.3672168 -4.0390186 -1.8971924
-3.2700293 -4.1205773 -1.897891
-3.1708837 -4.1998272 -1.8986048
-2.8622704 -4.4232855 -1.9008321
-2.647788 -4.5598936 -1.9023846
-2.5380907 -4.6243668 -1.9031799
-2.1999462 -4.8019652 -1.9056365
-1.9675293 -4.906826 -1.9073291
-1.849458 -4.95509 -1.9081903
-1.7301806 -5.0005369 -1.909061
-1.2427148 -5.1535697 -1.9126272
-1.1185693 -5.1845126 -1.9135373
-0.99367183 -5.2124839 -1.9144537
-0.86809081 -5.2374558 -1.9153759
-0.74186033 -5.2594128 -1.9163036
-0.4878369 -5.2942295 -1.9181728
-0.36017576 -5.3070569 -1.9191134
-0.10391601 -5.3234911 -1.9210037
0.024526367 -5.3270774 -1.9219521
0.15308104 -5.3275695 -1.9229022
0.28166991 -5.3249583 -1.9238533
0.41022459 -5.3192468 -1.9248049
0.53866696 -5.3104272 -1.9257565
0.66694337 -5.2985039 -1.9267074
1.0498437 -5.2441454 -1.9295508
1.1765966 -5.2198448 -1.9304935
1.3027929 -5.1924748 -1.9314327
1.5531884 -5.1285539 -1.9332989
1.9226611 -5.0099745 -1.9360584
2.4008057 -4.8103333 -1.9396408
2.5172706 -4.7531629 -1.9405154
2.745996 -4.6303363 -1.9422355
2.9686718 -4.4964051 -1.9439137
3.1847217 -4.3516607 -1.9455454
3.5948877 -4.031034 -1.9486544
4.0611863 -3.5757308 -1.9522107
4.2317233 -3.3779826 -1.9535187
4.3133545 -3.2759883 -1.9541467
4.3924851 -3.1719904 -1.9547566
4.4690623 -3.0660515 -1.9553481
4.5430517 -2.9582231 -1.9559209
4.8120604 -2.50948 -1.9580173
4.9298096 -2.2755771 -1.9589441
5.0359912 -2.0360537 -1.9597867
5.0846386 -1.9143767 -1.9601754
5.2125049 -1.5425507 -1.96121
5.2489843 -1.4165936 -1.9615099
5.2823777 -1.2897644 -1.9617873
5.3126364 -1.1621186 -1.9620419
5.3397608 -1.0337646 -1.9622732
5.3637109 -0.90476865 -1.9624811
2.6764014 -0.12454101 -0.96664929
2.6725585 -0.059814453 -0.96446121
2.6739061 0.13377625 -0.96591282
5.3100243 1.1809796 -1.9625865
5.2794676 1.3085815 -1.9623913
5.245791 1.435379 -1.9621731
5.2089987 1.561294 -1.9619315
5.1691356 1.6862615 -1.9616668
5.1262059 1.8101819 -1.9613794
4.9245167 2.2939978 -1.960005
4.6764989 2.7553339 -1.9582828
4.6075392 2.8666191 -1.9577999
4.5358887 2.9761498 -1.9572967
4.4616013 3.0838666 -1.9567736
4.384707 3.1896911 -1.9562308
4.2233005 3.3954558 -1.9550872
4.138906 3.4952612 -1.9544874
3.9629784 3.6884203 -1.9532336
3.8715723 3.7816699 -1.9525806
3.6821387 3.9612219 -1.9512234
3.5842235 4.0474305 -1.9505204
3.4842772 4.1311803 -1.9498019
3.1728075 4.3672509 -1.9475564
3.0284081 4.3872571 -1.9233354
2.4510205 4.4058189 -1.8189714
2.3178711 4.4138193 -1.7986631
2.197583 4.4418578 -1.787962
2.0888915 4.4915833 -1.7871705
1.9790869 4.5386243 -1.7863702
1.8681641 4.5829663 -1.7855611
1.52979 4.6995249 -1.7830881
1.415332 4.7328305 -1.78225
0.59781247 4.8868456 -1.7762445
0.47953123 4.8974376 -1.7753727
0.36109373 4.9051633 -1.7744992
0.24255858 4.9100232 -1.7736241
0.12397949 4.9120154 -1.7727481
0.0054687499 4.9111471 -1.7718719
-0.23115723 4.9008493 -1.7701205
-0.34911132 4.8914328 -1.7692463
-0.93282223 4.8020935 -1.7649103
-1.0478613 4.7758765 -1.7640538
-1.1621875 4.7469201 -1.7632017
-1.3884277 4.6808667 -1.7615136
-1.5002148 4.6438074 -1.7606784
-1.6110253 4.6041074 -1.7598498
-1.7246875 4.572063 -1.7629943
-2.1686864 4.4081335 -1.7724386
-2.7143407 4.3907142 -1.8623666
-2.8596289 4.385592 -1.8889101
-2.9851904 4.3453283 -1.9020345
-3.0878613 4.2703185 -1.9012576
-3.2875926 4.113153 -1.8997434
-3.4794531 3.9467871 -1.8982852
-3.5722997 3.8602796 -1.8975782
-4.0038428 3.3965001 -1.8942769
-4.1603317 3.1974242 -1.8930721
-4.3070946 2.991281 -1.8919379
-4.3767428 2.8857019 -1.8913975
-4.508379 2.6698174 -1.8903726
-4.7400436 2.2209313 -1.8885522
-4.7911911 2.105504 -1.8881463
-4.8396139 1.9889135 -1.8877603
-4.9280319 1.7525494 -1.8870498
-4.9680176 1.6328973 -1.8867255
-5.0051465 1.5123541 -1.886422
-5.0708008 1.2688556 -1.8858782
-5.1248436 1.0225799 -1.8854194
-5.1671729 0.77408993 -1.8850466
-5.1977 0.52392149 -1.8847609
-5.2085252 0.39837646 -1.8846506
-5.216372 0.27262267 -1.8845624
-5.2231445 0.02073059 -1.8844515
-5.2180028 -0.23117553 -1.884429
-5.2009668 -0.48256224 -1.8844944
-5.187993 -0.60788876 -1.8845602
-5.1313572 -0.98158687 -1.8848888
-5.0149069 -1.471944 -1.8856316
-4.978569 -1.5926843 -1.8858709
-4.9393897 -1.7125384 -1.8861319
-4.8973727 -1.8314483 -1.8864137
-4.3271046 -2.9545174 -1.8903586
-4.255713 -3.0588341 -1.890861
-4.105547 -3.2623456 -1.891922
-4.0268555 -3.361413 -1.8924798
-3.9458008 -3.4586148 -1.8930553
-3.8624413 -3.5538914 -1.8936486
-3.7768164 -3.6471927 -1.894259
-3.5989549 -3.8276575 -1.8955303
-3.5067918 -3.9147165 -1.8961906
-3.3163233 -4.0822239 -1.8975581
-3.2180858 -4.1625733 -1.8982649
-3.1179395 -4.2405915 -1.8989863
-3.015918 -4.3162308 -1.8997222
-2.806494 -4.4602027 -1.9012355
-2.6991942 -4.528451 -1.9020121
-2.1392968 -4.8306189 -1.9060779
-1.4664941 4.4050608 -1.7941928
-1.5845214 4.4023156 -1.8081213
-1.8262891 4.3961363 -1.8396564
-1.9503808 4.3926868 -1.8573622
-2.0768847 4.3889756 -1.8764352
-2.3232763 4.3533239 -1.906929
-2.4266112 4.2942653 -1.9061509
-2.727495 4.1026793 -1.9038808
-2.82458 4.0341454 -1.9031467
-3.0135643 3.8903089 -1.9017154
-3.1953516 3.7377355 -1.9003348
-3.3695362 3.5767858 -1.8990086
-3.4536572 3.4932909 -1.8983668
-3.8428271 3.0475762 -1.895383
-3.9140821 2.9531462 -1.8948334
-4.0497022 2.7594244 -1.8937844
-4.1139941 2.660244 -1.8932853
-4.1758986 2.559588 -1.8928035
-4.2924218 2.3540881 -1.8918928
-4.4484863 2.036247 -1.8906628
-4.49542 1.9279766 -1.8902897
-4.5397706 1.8186499 -1.8899357
-4.6205907 1.5970489 -1.889285
-4.6908202 1.3719428 -1.8887115
-4.7219043 1.25823 -1.8884546
-4.7502732 1.1438305 -1.8882173
-4.7759323 1.0288025 -1.8879999
-4.798862 0.91321224 -1.8878025
-4.8364649 0.68060058 -1.8874687
-4.8721142 0.32906371 -1.8871206
-4.8784375 0.21144408 -1.8870454
-4.8806982 -0.14182739 -1.8869436
-4.8578858 -0.4943701 -1.8870274
-4.8287988 -0.72813046 -1.8871863
-4.7376075 -1.1903002 -1.887749
-4.7079883 -1.3043548 -1.8879403
-4.6756787 -1.4176928 -1.8881518
-4.6030469 -1.6419482 -1.8886349
-4.5627637 -1.7527472 -1.8889059
-4.4743457 -1.9713778 -1.8895068
-3.9522851 -2.8944287 -1.8931433
-3.810122 -3.0833001 -1.8941487
-3.6590624 -3.265305 -1.8952214
-3.4994287 -3.4400303 -1.8963592
-3.244663 -3.6875927 -1.8981827
-3.0651317 -3.8423865 -1.8994725
-2.5852587 -4.1908922 -1.9029354
-2.48437 -4.2536631 -1.9036661
-2.3819776 -4.3140287 -1.9044086
-2.2781348 -4.3719549 -1.905162
-2.0663233 -4.4803519 -1.9067016
-1.7391406 -4.6238012 -1.9090854
-1.4020801 -4.7435546 -1.9115478
-1.2878222 -4.7780814 -1.9123842
-1.0568359 -4.8389082 -1.9140768
-0.8229785 -4.8886247 -1.9157934
-0.46799314 -4.9420609 -1.9184045
0.13032226 -4.9738874 -1.9228191
0.25036621 -4.9715905 -1.9237069
0.49028808 -4.9583106 -1.9254837
0.61001462 -4.9473224 -1.9263712
0.96745604 -4.8970022 -1.9290254
1.0858008 -4.8744669 -1.9299055
1.2035937 -4.8490624 -1.9307823
1.3208106 -4.8208032 -1.9316555
1.7822607 -4.6794648 -1.9351003
1.8954394 -4.6371446 -1.9359471
2.1186864 -4.5442643 -1.9376196
2.2286279 -4.493751 -1.9384444
2.5508885 -4.3262501 -1.9408667
2.6555762 -4.2651963 -1.9416553
2.7587891 -4.2015872 -1.9424335
2.8604541 -4.1354604 -1.9432006
2.9605224 -4.0668449 -1.9439569
3.0589256 -3.9957848 -1.9447013
3.2504883 -3.8464851 -1.9461532
3.3435302 -3.768333 -1.9468597
3.4346678 -3.687907 -1.9475528
3.5238574 -3.6052444 -1.9482318
3.6110106 -3.5204034 -1.9488966
3.6961083 -3.4334273 -1.9495465
4.0147071 -3.0652153 -1.95199
4.0886765 -2.9683559 -1.9525601
4.4219728 -2.4580998 -1.9551464
4.5374608 -2.243027 -1.9560519
4.5970993 2.1273401 -1.9575448
4.5435886 2.2371819 -1.9571757
4.487422 2.3456542 -1.9567868
4.3672071 2.5582378 -1.9559493
4.3032517 2.6622241 -1.9555017
4.2367725 2.7645836 -1.9550349
4.1678271 2.8652551 -1.9545496
3.8681982 3.2499182 -1.9524275
3.7875731 3.3412921 -1.9518536
3.6198094 3.5178978 -1.9506559
3.4437158 3.6859875 -1.9493948
3.3526807 3.7667139 -1.9487414
3.2597313 3.8451648 -1.9480733
2.97 4.0664258 -1.9459851
2.7683692 4.201776 -1.9445273
2.6651905 4.2656837 -1.9437801
2.5605223 4.3270373 -1.9430211
2.1863866 4.3912315 -1.8956994
1.9310741 4.3981895 -1.8562918
1.8071094 4.4012866 -1.838663
1.5655518 4.4067783 -1.8072749
1.1166065 4.4685755 -1.7799784
1.0080518 4.4922009 -1.7791816
0.45959473 4.5744886 -1.7767102
0.34865233 4.5780969 -1.7743285
-0.31481934 4.5737619 -1.7717129
-0.42429197 4.5568442 -1.76861
-0.53383785 4.5431957 -1.7677972
-0.75163573 4.5080347 -1.7661788
-0.8597461 4.4865489 -1.7653745
-0.96727538 4.4624815 -1.7645739
-1.2958398 4.4096265 -1.7761586
-2.3778417 4.3225522 -1.9065183
-2.4804053 4.2622132 -1.9057456
-2.5814452 4.1994638 -1.9049838
-2.6809227 4.1343479 -1.9042327
-2.9694285 3.9251819 -1.90205
-3.0621092 3.850996 -1.901347
-3.1529686 3.7746422 -1.9006571
-3.4140477 3.5330968 -1.8986691
-3.4971094 3.4485717 -1.8980348
-3.5781054 3.3621216 -1.8974154
-3.6569824 3.2737951 -1.896811
-3.808291 3.0917273 -1.8956487
-4.0184131 2.8058844 -1.8940269
-4.1468749 2.6074591 -1.8930296
-4.2075047 2.5060503 -1.892557
-4.265698 2.4032562 -1.8921021
-4.3214259 2.2991364 -1.8916651
-4.4253564 2.0871551 -1.8908459
-4.4735107 1.9794073 -1.8904642
-4.6024022 1.6498809 -1.8894321
-4.7371678 1.1981133 -1.8883272
-4.764111 1.0833734 -1.8881004
-4.7883396 0.96804196 -1.8878937
-4.8445163 0.6191296 -1.8873943
-4.8577247 0.50206846 -1.8872687
-4.8681445 0.38473511 -1.8871634
-4.8757858 0.26718873 -1.8870785
-4.8820019 -0.086035155 -1.8869474
-4.8785009 -0.20377074 -1.886945
-4.8512988 -0.55600524 -1.8870612
-4.8193016 -0.78938538 -1.8872416
-4.7762938 -1.0210272 -1.8875037
-4.7506833 -1.136029 -1.8876654
-4.7223535 -1.2504052 -1.8878473
-4.6913233 -1.3640924 -1.8880492
-4.6576076 -1.477019 -1.8882711
-4.6212111 -1.5891327 -1.8885133
-4.5821776 -1.7003675 -1.888775
-4.540503 -1.8106674 -1.8890566
-4.4962401 -1.9199628 -1.8893572
-4.4493699 -2.028193 -1.8896776
-4.399951 -2.1353045 -1.8900172
-4.3479881 -2.2412391 -1.8903757
-4.2365818 -2.4493146 -1.891149
-4.1153712 -2.6519687 -1.8919963
-4.051167 -2.751112 -1.892447
-3.8446093 -3.0391612 -1.8939043
-3.6956248 -3.222832 -1.8949614
-3.538003 -3.3993182 -1.896084
-3.4560547 -3.4847434 -1.8966691
-3.3720653 -3.568218 -1.8972698
-3.198164 -3.7291336 -1.8985165
-3.016665 -3.8816981 -1.8998213
-2.5323682 -4.2242169 -1.9033184
-2.4306934 -4.2857285 -1.9040551
-2.2229247 -4.4014482 -1.905563
-2.1169775 -4.455584 -1.9063331
-2.0097215 -4.5071921 -1.9071134
-1.9012011 -4.5562425 -1.9079037
-1.7915088 -4.6027012 -1.9087034
-1.6806933 -4.6465435 -1.9095119
-1.568789 -4.6877327 -1.9103291
-1.3420606 -4.762063 -1.9119871
-1.2273583 -4.795156 -1.9128269
-1.111836 -4.8254981 -1.9136735
-0.99556148 -4.8530731 -1.9145263
-0.87860841 -4.8778601 -1.9153848
-0.40532714 -4.9487939 -1.9188659
-0.28597656 -4.9594011 -1.9197456
-0.16634765 -4.9671378 -1.920628
-0.046518553 -4.9719958 -1.9215126
0.073457032 -4.9739676 -1.9223988
0.19349609 -4.9730444 -1.9232864
0.4334912 -4.9625053 -1.9250628
0.5533154 -4.9528871 -1.9259508
0.67293942 -4.9403777 -1.926838
0.91124022 -4.9066782 -1.9286075
1.1478467 -4.8614535 -1.9303672
1.4983691 -4.7721891 -1.9329797
1.6137549 -4.7367697 -1.9338409
1.8419287 -4.6575379 -1.9355465
1.9545898 -4.6137667 -1.9363899
2.1766944 -4.5180202 -1.9380546
2.5008056 -4.3542771 -1.9404896
2.6061668 -4.2944441 -1.9412829
3.0125096 -4.0297527 -1.9443501
3.1100147 -3.9574239 -1.9450881
3.2057519 -3.8827057 -1.9458139
3.4818358 -3.6446846 -1.9479117
3.6560447 -3.4748952 -1.9492403
3.7400389 -3.3868172 -1.9498825
3.9788671 -3.110455 -1.9517142
4.0539255 -3.0144751 -1.9522921
4.1969581 -2.8170586 -1.9533969
4.5110497 -2.2944918 -1.9558443
4.5660987 -2.1855044 -1.9562774
4.5692725 2.1853087 -1.9573531
4.5143652 2.2944379 -1.9569736
4.4568019 2.4021649 -1.9565741
4.3338623 2.6131585 -1.9557163
4.268579 2.7162926 -1.9552583
4.2007909 2.8177729 -1.9547818
4.1305714 2.9175322 -1.9542868
4.0579247 3.0155206 -1.9537735
3.9056201 3.2059362 -1.9526935
3.8260448 3.2982507 -1.9521275
3.7442577 3.3885639 -1.9515448
3.6603222 3.4768176 -1.9509455
3.3960545 3.7287488 -1.949053
3.1143212 3.9604149 -1.9470261
2.8167186 4.1706152 -1.9448771
2.7142577 4.2357211 -1.9441354
2.6102831 4.2982883 -1.943382
2.504868 4.3582835 -1.9426173
1.8655566 4.3998523 -1.846849
1.7427588 4.4028234 -1.8299142
1.6220752 4.40556 -1.8142596
1.5032812 4.4080725 -1.7998338
1.3881885 4.4165268 -1.78909
1.2755712 4.4289646 -1.7811438
1.1678565 4.4564648 -1.7803543
1.0595556 4.4813352 -1.7795597
0.95073241 4.5035667 -1.7787607
0.84144044 4.5231457 -1.7779576
0.62176758 4.5543175 -1.7763413
0.51231933 4.5732126 -1.7783729
-0.041474607 4.5837097 -1.7714462
-0.15195312 4.5792575 -1.7706285
-0.26239747 4.5749631 -1.7709002
-0.70020992 4.5173097 -1.766561
-1.0235938 4.4487867 -1.7641543
-1.3562158 4.4074583 -1.7820758
-1.4726367 4.404923 -1.7948943
-1.5907568 4.4021654 -1.8088841
-1.7107421 4.3991818 -1.8240887
-1.832749 4.3959608 -1.8405509
-2.2128272 4.3847804 -1.898054
-2.4319921 4.2911024 -1.9061105
-2.6340039 4.1654921 -1.904587
-2.9249072 3.9595642 -1.9023871
-3.0184276 3.8864195 -1.9016784
-3.1101513 3.8110864 -1.9009823
-3.2000146 3.733618 -1.9002993
-3.6198828 3.315871 -1.8970954
-3.846621 3.0426641 -1.8953537
-3.9866064 2.8519969 -1.8942732
-4.0531297 2.7542632 -1.8937579
-4.1173048 2.655 -1.8932596
-4.1790819 2.5542712 -1.8927788
-4.4510059 2.030597 -1.8906426
-4.4978123 1.9222662 -1.8902706
-4.542026 1.812885 -1.8899176
-4.5836134 1.7025061 -1.8895836
-4.6225734 1.5911908 -1.8892688
-4.7234616 1.2522491 -1.8884416
-4.8200245 0.79102659 -1.8876166
-4.8518114 0.55756837 -1.8873255
-4.8635545 0.44035399 -1.8872106
-4.8725147 0.32289794 -1.8871161
-4.8786864 0.20527221 -1.8870422
-4.8820896 0.087539673 -1.8869886
-4.8805075 -0.14800353 -1.8869436
-4.8755417 -0.26567811 -1.886952
-4.7874804 -0.96634215 -1.8874342
-4.7361131 -1.1963012 -1.8877586
-4.7063622 -1.3103168 -1.887951
-4.6739063 -1.4236169 -1.8881636
-4.6387892 -1.5361242 -1.8883961
-4.6010108 -1.6477832 -1.8886485
-4.517529 -1.8683087 -1.8892125
-4.423696 -2.084703 -1.8898538
-4.3729296 -2.1912041 -1.8902035
-4.3196387 -2.2964892 -1.890572
-4.2056251 -2.5031817 -1.8913651
-3.6549804 -3.2699847 -1.8952506
-3.5761034 -3.3581827 -1.8958122
-3.495127 -3.4445126 -1.8963901
-3.3270605 -3.6113443 -1.8975921
-3.0603223 -3.8463323 -1.899507
-2.967705 -3.9204006 -1.9001739
-2.8733106 -3.9922721 -1.9008541
-2.7771924 -4.0618906 -1.9015479
-2.4790478 -4.2568865 -1.9037048
-2.3765771 -4.3171268 -1.9044476
-2.2726562 -4.3749266 -1.9052018
-2.1673436 -4.4302483 -1.9059669
-2.0606933 -4.4830589 -1.9067425
-1.843623 -4.5810156 -1.9083235
-1.7333251 -4.6260996 -1.9091277
-1.3961084 -4.7454338 -1.9115916
-1.2818164 -4.7798185 -1.9124283
-1.0507275 -4.8403563 -1.9141216
-0.93409175 -4.866467 -1.9149774
-0.8168115 -4.8897758 -1.9158387
-0.69894528 -4.9102769 -1.916705
-0.3425537 -4.9547348 -1.9193286
0.25666991 -4.9713926 -1.9237536
0.3766748 -4.9660478 -1.924642
0.49657226 -4.9578052 -1.9255301
0.61629391 -4.9466653 -1.9264178
0.85492188 -4.9157023 -1.928189
0.97367674 -4.8958945 -1.9290717
1.0919921 -4.873208 -1.9299515
1.2097558 -4.847652 -1.9308282
1.3269287 -4.8192401 -1.9317011
1.4434326 -4.7879844 -1.9325697
1.6741455 -4.7170057 -1.9342922
2.1244824 -4.5416827 -1.9376631
2.2343504 -4.4910297 -1.9384874
2.6610303 -4.2619224 -1.9416963
2.7641551 -4.1981812 -1.9424739
2.8657274 -4.1319251 -1.9432406
2.9657128 -4.0631833 -1.9439961
3.064038 -3.9919896 -1.9447399
3.1606152 -3.9183996 -1.9454716
3.2554052 -3.8424437 -1.9461905
3.3483543 -3.7641737 -1.9468963
3.6155176 -3.5158987 -1.948931
3.7005126 -3.4288061 -1.9495801
3.7833738 -3.3396382 -1.950214
3.8640525 -3.2484419 -1.9508324
3.9424853 -3.1552734 -1.9514346
4.0924854 -2.9632318 -1.9525894
4.2329831 -2.7639532 -1.9536757
4.425127 -2.4525368 -1.9551711
4.5403514 -2.2373159 -1.9560746
4.5939894 -2.127614 -1.9564974
4.6453075 2.0220556 -1.957876
4.5943699 2.1331279 -1.9575261
4.4844041 2.3513074 -1.9567657
4.2998242 2.6676311 -1.9554776
4.1641455 2.8704827 -1.9545236
4.0926466 2.9693158 -1.9540188
3.7832861 3.3460252 -1.9518229
3.7003515 3.4352598 -1.9512315
3.2548046 3.8492174 -1.9480379
3.0632226 3.9988647 -1.9466578
2.1795654 4.391427 -1.8945931
1.8006738 4.401444 -1.8377748
1.218955 4.4437623 -1.7807288
0.89327145 4.5141993 -1.7783386
0.78378415 4.5323777 -1.7775337
0.56370115 4.5607457 -1.7759138
0.23222168 4.5832529 -1.7734691
0.12154785 4.5854015 -1.7726517
0.010913086 4.5848851 -1.7718337
-0.099628903 4.5816979 -1.7710159
-0.42999023 4.5561938 -1.7685678
-0.53957027 4.5424085 -1.7677544
-0.75730956 4.5069699 -1.7661366
-0.9728955 4.4611511 -1.7645321
-1.0797266 4.4343848 -1.7637361
-1.3017578 4.409122 -1.7766181
-1.5345898 4.4034986 -1.8021079
-1.6536523 4.4006262 -1.8167307
-1.8978125 4.3941712 -1.8497385
-2.0232811 4.3905702 -1.8682296
-2.1512597 4.3867087 -1.8881217
-2.4857421 4.2589831 -1.9057056
-2.9743359 3.9213438 -1.9020127
-3.0669239 3.8470433 -1.9013106
-3.1576855 3.7705822 -1.9006213
-3.3334863 3.6113708 -1.8992834
-3.4184473 3.5287182 -1.8986355
-3.5822997 3.357533 -1.8973833
-3.8843358 2.993139 -1.8950629
-4.0871873 2.7022111 -1.8934937
-4.2106104 2.5006926 -1.8925327
-4.2686815 2.3978283 -1.8920788
-4.377378 2.1881914 -1.891225
-4.4759669 1.9737213 -1.8904446
-4.5214062 1.8648328 -1.8900825
-4.5642333 1.7549212 -1.8897395
-4.6769137 1.4196349 -1.8888259
-4.7654538 1.0773358 -1.8880889
-4.789536 0.96197689 -1.8878833
-4.8108692 0.84609193 -1.8876977
-4.8452783 0.6130017 -1.8873872
-4.8782468 -0.20993774 -1.8869455
-4.8718066 -0.32754028 -1.8869647
-4.8625975 -0.44497129 -1.8870045
-4.8506002 -0.56214476 -1.8870649
-4.8358445 -0.67900574 -1.887146
-4.7750196 -1.0270703 -1.8875117
-4.7207909 -1.2563825 -1.8878573
-4.6896191 -1.370036 -1.8880602
-4.6557665 -1.4829229 -1.8882834
-4.6192284 -1.594992 -1.8885266
-4.5800538 -1.7061785 -1.8887893
-4.4468455 -2.0338364 -1.889695
-4.397285 -2.1408944 -1.8900356
-4.3451853 -2.2467613 -1.8903952
-4.047739 -2.7562661 -1.892471
-3.8409863 -3.0440996 -1.89393
-3.7673094 -3.1366854 -1.8944523
-3.613745 -3.316622 -1.8955441
-3.5337548 -3.4038463 -1.8961143
-3.4516895 -3.4891713 -1.8967004
-3.3675976 -3.572542 -1.8973018
-3.103579 -3.8104794 -1.899196
-2.918252 -3.9584963 -1.9005302
-2.8229492 -4.0291891 -1.9012176
-2.7259326 -4.0976176 -1.9019182
-2.6273046 -4.1637344 -1.9026313
-2.4253075 -4.288888 -1.9040942
-2.3220654 -4.347847 -1.9048431
-2.2174072 -4.4043469 -1.9056032
-2.0040429 -4.5098295 -1.9071548
-1.7857275 -4.6050682 -1.9087455
-1.5629003 -4.6898193 -1.9103723
-1.3360791 -4.763864 -1.9120309
-0.63671875 -4.9199252 -1.9171625
-0.39907715 -4.9494219 -1.9189121
-0.27970701 -4.9598823 -1.9197918
-0.16006836 -4.9674668 -1.9206744
0.079755858 -4.973989 -1.9224453
0.55960447 -4.9523034 -1.9259974
1.2714942 -4.8330569 -1.931288
1.3883301 -4.8031454 -1.9321588
1.6197948 -4.7348342 -1.9338861
1.7342821 -4.6964641 -1.9347415
1.8478662 -4.6553125 -1.9355911
1.960459 -4.6113968 -1.9364338
2.0720117 -4.5647388 -1.9372696
2.2916944 -4.463294 -1.9389178
2.3996875 -4.408566 -1.9397292
2.6116405 -4.2912345 -1.9413241
2.9185693 -4.0960522 -1.9436398
3.0176659 -4.0260191 -1.9443891
3.1150732 -3.9535611 -1.9451267
3.3964989 -3.7220693 -1.9472624
3.6605175 -3.4703267 -1.9492745
3.8260887 -3.2918973 -1.9505414
3.9828515 -3.1054704 -1.9517448
4.0577979 -3.009393 -1.9523219
4.2005858 -2.8117831 -1.9534249
4.3962989 -2.5026605 -1.9549459
4.5140038 -2.2888153 -1.9558674
4.6211329 -2.0693491 -1.9567121
4.6188378 2.0806627 -1.9576944
4.5664744 2.1910584 -1.9573338
4.511416 2.3001256 -1.956953
4.3933835 2.5139575 -1.9561322
4.2650781 2.7216535 -1.9552337
4.126821 2.9227135 -1.9542602
4.0540476 3.0206108 -1.953746
3.8218114 3.3030345 -1.9520974
3.739907 3.3932409 -1.9515136
3.6558642 3.4813855 -1.9509137
3.5696971 3.5674243 -1.9502975
3.4814794 3.6513097 -1.9496657
3.3912792 3.732976 -1.9490185
3.2991209 3.8123937 -1.9483566
2.8113768 4.1740918 -1.9448385
2.4993114 4.3613596 -1.9425769
2.3745704 4.3856287 -1.927308
1.9840137 4.3968101 -1.8641249
1.8590624 4.4000134 -1.8459277
1.7363818 4.4029722 -1.8290619
1.6157959 4.4056983 -1.8134731
1.4971044 4.4081993 -1.799111
1.3822021 4.4169993 -1.7885733
1.2699364 4.43047 -1.7811025
1.1621923 4.4578342 -1.7803128
1.0538526 4.4825706 -1.7795178
0.72601074 4.5408764 -1.7771087
0.61599606 4.5549927 -1.776299
0.50648439 4.5733619 -1.7781805
0.17397949 4.5847192 -1.7730389
-0.047270507 4.58354 -1.7714033
-0.26820311 4.5748377 -1.7709817
-1.1366309 4.4224024 -1.7645646
-1.3622851 4.40733 -1.7827203
-1.4787987 4.4047813 -1.7955992
-1.5970068 4.4020152 -1.8096509
-1.71708 4.3990197 -1.8249192
-1.8391992 4.3957872 -1.8414509
-1.9635302 4.3923097 -1.8592972
-2.0902879 4.3885727 -1.8785156
-2.3341894 4.3472424 -1.9068469
-2.5390673 4.2261915 -1.9053035
-2.7377586 4.0956016 -1.9038033
-3.114912 3.8070738 -1.9009461
-3.2046728 3.729497 -1.9002639
-3.3784423 3.568125 -1.8989407
-3.5442333 3.3987732 -1.8976746
-3.6240137 3.3112347 -1.8970637
-4.0565476 2.7490973 -1.8937314
-4.1205955 2.6497502 -1.893234
-4.1822605 2.5489459 -1.892754
-4.2414842 2.4467309 -1.8922915
-4.2982516 2.3431635 -1.891847
-4.3525391 2.2383044 -1.8914206
-4.4043064 2.1322136 -1.8910124
-4.4535251 2.0249469 -1.8906229
-4.5002003 1.9165533 -1.8902518
-4.5442677 1.8071172 -1.8898996
-4.6942039 1.3600519 -1.8886837
-4.7249999 1.2462659 -1.8884288
-4.8011084 0.90105468 -1.8877831
-4.820991 0.78492123 -1.8876082
-4.8525 0.55142945 -1.887319
-4.8640919 0.43420348 -1.8872051
-4.8789401 0.1990979 -1.8870388
-4.8821874 0.081360474 -1.8869864
-4.875205 -0.27184266 -1.8869531
-4.8566403 -0.50665587 -1.8870337
-4.8431835 -0.62368286 -1.8871051
-4.8079834 -0.85661316 -1.8873091
-4.7862692 -0.97239989 -1.8874416
-4.7618017 -1.0876453 -1.8875948
-4.7346191 -1.2022924 -1.8877681
-4.7047262 -1.3162756 -1.8879617
-4.6721287 -1.4295404 -1.8881754
-4.6368747 -1.5420038 -1.8884088
-4.5152049 -1.8740332 -1.8892282
-4.4694285 -1.9827218 -1.8895403
-4.4210887 -2.0903158 -1.8898718
-4.3167677 -2.3019774 -1.890592
-4.2608595 -2.4059203 -1.89098
-4.2024999 -2.5085323 -1.8913869
-4.0785203 -2.7095211 -1.8922547
-4.0129442 -2.8077886 -1.8927158
-3.9450586 -2.9044943 -1.8931944
-3.8748682 -2.999594 -1.8936903
-3.802407 -3.093019 -1.8942034
-3.4908299 -3.4489837 -1.8964206
-2.8683155 -3.9959743 -1.9008901
-2.7721093 -4.0654807 -1.9015847
-2.6742284 -4.1327009 -1.902292
-2.5747509 -4.1975856 -1.9030116
-2.4737108 -4.2601066 -1.9037434
-2.2671678 -4.3778892 -1.9052416
-2.161787 -4.4330769 -1.9060073
-1.9470702 -4.535893 -1.9075696
-1.8378711 -4.583446 -1.9083655
-1.3901367 -4.7473035 -1.9116354
-1.2757909 -4.7815456 -1.9124721
-1.044624 -4.8417926 -1.9141663
-0.92795897 -4.8677588 -1.9150225
-0.57436031 -4.9287925 -1.9176214
-0.45551267 -4.9434648 -1.9184964
-0.33630371 -4.9552813 -1.9193747
0.02290039 -4.9734893 -1.9220252
0.14291504 -4.9737854 -1.9229122
0.38295898 -4.9656873 -1.9246886
