# .PCD v0.7 - Point Cloud Data file format
VERSION 0.7
FIELDS x y z
SIZE 4 4 4
TYPE F F F
COUNT 1 1 1
WIDTH 1491
HEIGHT 1
VIEWPOINT 0 0 0 1 0 0 0
POINTS 1491
DATA ascii
-1.0305274 6.3993645 -0.34701368
-1.1896777 6.399899 -0.34849837
-1.3310156 6.3091693 -0.34520659
-1.4909766 6.3097053 -0.34710449
-1.6527929 6.310246 -0.34922507
-1.8188477 6.3182168 -0.35199317
-2.0092969 6.395225 -0.35887969
-2.354248 6.3963799 -0.36489868
-2.5313087 6.3969707 -0.36831024
-2.7118261 6.3975749 -0.37200499
-3.0844727 6.398819 -0.38029578
-3.678076 6.4008002 -0.39522469
-3.8868358 6.4014969 -0.40094215
-4.1018748 6.4022136 -0.40706801
-4.3237009 6.4029522 -0.4136287
-4.7902145 6.4045072 -0.4281739
-5.0362887 6.4053278 -0.43622649
-5.5580859 6.4070635 -0.45409414
-5.8356934 6.4079876 -0.46400458
-6.4297848 6.4099636 -0.48606545
-6.6561618 6.3229203 -0.491501
-8.2068453 6.4118619 -0.55756509
-9.0816402 6.4147673 -0.59525967
-11.7733 6.3455267 -0.71602958
-12.656054 6.4322443 -0.76005262
-16.435028 6.4447746 -0.94511229
-17.45788 6.3643765 -0.99481338
-24.993721 6.4639654 -1.3821114
-28.950312 4.5702519 -1.5691056
-28.54455 -6.6668248 -1.5693148
-28.042406 -8.7304554 -1.5723808
-20.968227 -20.923979 -1.5858865
-20.382471 -21.345263 -1.5800793
-18.545391 -22.472355 -1.5598816
-17.047285 -22.815212 -1.524758
-14.956016 -23.368416 -1.4853622
-14.284843 -23.552448 -1.4747223
-12.30457 -24.055277 -1.4465457
-11.654286 -24.207188 -1.4383514
-11.00831 -24.351614 -1.4307301
-10.360419 -24.474874 -1.4228749
-9.3113279 -23.56451 -1.3564919
-8.7313375 -23.758371 -1.3551255
-8.1512299 -23.949045 -1.3543875
-6.4347754 -22.39389 -1.2474145
-5.1130857 -21.68545 -1.1928085
-4.5584865 -21.660076 -1.185015
-3.4819434 -21.689674 -1.1760682
-1.886084 -21.675024 -1.1647997
-0.8359375 -21.676308 -1.1613454
0.26688477 -7.8854795 -0.42240608
2.8426268 -21.686323 -1.1709523
3.9156346 -21.691704 -1.1800766
4.4587011 -21.692701 -1.1856387
6.123652 -21.695768 -1.206899
7.2723827 -21.701626 -1.2253387
7.8604879 -21.704 -1.2358246
8.4590721 -21.706421 -1.2472191
10.325781 -21.708977 -1.2870055
10.976318 -21.71034 -1.3024081
11.642871 -21.711742 -1.3189604
12.328017 -21.714773 -1.3368289
15.274219 -21.721783 -1.4216205
16.076338 -21.728884 -1.4470743
16.905352 -21.732616 -1.4740618
20.56127 -21.736946 -1.6018759
8.7354193 -7.9891543 -0.63352525
24.966093 -7.9020982 -1.4019572
22.596533 6.3144464 -1.256094
19.036552 6.3242412 -1.0739273
12.647685 6.3531756 -0.75774288
11.92627 6.3556304 -0.72349983
11.266874 6.3578715 -0.69260281
10.102178 6.361834 -0.63914764
8.2085352 6.3511186 -0.55564034
7.8133688 6.3524604 -0.5391081
7.4407516 6.3537273 -0.5238263
7.0884862 6.3549237 -0.50967419
6.75458 6.3560562 -0.49654791
6.1349316 6.3581595 -0.47301665
5.570127 6.360076 -0.45262039
4.3414159 6.3642402 -0.41244566
4.1204982 6.3649883 -0.40593153
3.6498046 6.2827945 -0.38899598
3.4501953 6.2834697 -0.38377219
3.3079295 6.3847551 -0.38497055
3.1152344 6.3854055 -0.3803665
2.9269824 6.3860431 -0.37608817
2.7428124 6.3866644 -0.37211838
2.0405176 6.3890362 -0.35906783
1.8720897 6.3896036 -0.35645759
1.379873 6.391264 -0.35005036
1.060371 6.3923392 -0.34690025
0.90256834 6.3928704 -0.34564781
0.43471679 6.3944464 -0.34312713
0.12554687 6.395484 -0.34245858
-0.33776367 6.3970413 -0.34295264
-0.49279296 6.3975601 -0.3435179
-0.96226561 6.3991361 -0.34643996
-1.1208301 6.3996673 -0.34783217
-1.2625195 6.3089385 -0.34445655
-1.4217285 6.3094721 -0.34625801
-1.5827343 6.3100104 -0.34828177
-1.7477734 6.3179789 -0.35094711
-1.9363085 6.3949823 -0.35771629
-2.2788379 6.3961272 -0.36351258
-2.4545019 6.3967156 -0.36680555
-3.1935449 6.3991838 -0.38288382
-3.7960351 6.4011931 -0.3984265
-4.0082908 6.4019012 -0.40437332
-4.4530759 6.4033842 -0.41756371
-4.6868067 6.4041619 -0.42486587
-22.894033 -3.3936167 -1.7624986
-22.811392 -3.9459321 -1.7629528
-22.490194 -5.5911646 -1.7648368
-20.457207 -6.1473966 -1.6266942
-20.314116 -6.6427636 -1.6275897
-16.697279 -7.7929635 -1.4032179
-20.797377 -10.324704 -1.7682072
-19.905205 -11.747904 -1.7601559
-19.264116 -12.660618 -1.7554822
-18.930122 -13.105754 -1.7533538
-18.235966 -13.9729 -1.7495174
-17.876108 -14.394682 -1.7478083
-16.864771 -14.977118 -1.7176404
-14.730746 -16.661177 -1.6935921
-14.289023 -16.969521 -1.689394
-13.842666 -17.268335 -1.6853994
-12.936718 -17.837429 -1.6780163
-11.546767 -18.61952 -1.6684518
-11.075693 -18.861069 -1.6656659
-9.7240133 -19.696241 -1.6727636
-9.4248047 -20.310347 -1.7051095
-9.1054688 -20.930305 -1.7382003
-8.7421389 -21.498503 -1.7673581
-8.0956154 -21.372231 -1.7404058
-6.4602246 -21.671379 -1.7221093
-4.7848434 -21.668301 -1.6898587
-4.2375779 -21.659069 -1.6806749
-3.7017577 -21.684278 -1.6752114
-1.0510644 -21.676033 -1.6526306
-0.52741212 -21.676674 -1.6512316
-0.0043554688 -21.677315 -1.6507893
0.18736328 -7.8299646 -0.59644514
1.5678222 -21.68437 -1.6556396
2.0948143 -21.685087 -1.6590675
3.1569238 -21.686535 -1.6688955
3.694082 -21.69146 -1.6756526
5.3334179 -21.694479 -1.7012904
5.8921385 -21.695507 -1.7120215
6.4591308 -21.699318 -1.7241201
7.0340137 -21.701647 -1.7372894
7.6181054 -21.704016 -1.7516813
8.2123146 -21.706425 -1.7673564
8.8175879 -21.708883 -1.7843628
9.433301 -21.707607 -1.8024393
10.063251 -21.708935 -1.8221862
10.707539 -21.710295 -1.8434509
11.793164 -21.260302 -1.8514357
12.328154 -21.013149 -1.8552818
13.381816 -20.477438 -1.8628683
14.569472 -20.105568 -1.890838
15.319697 -20.101845 -1.9246938
16.097616 -20.097778 -1.9609244
16.905731 -20.093342 -1.9997109
18.307041 -19.741737 -2.0503159
18.811514 -19.328911 -2.0539854
19.306162 -18.902609 -2.0575881
8.6698732 -8.088336 -0.90294248
20.264091 -18.010395 -2.0645816
21.177588 -17.067152 -2.0712721
22.458036 -15.561496 -2.0806944
23.62204 -13.954278 -2.0893164
23.982578 -13.397537 -2.0920007
24.328836 -12.830935 -2.0945864
23.790556 -9.0825586 -1.9392602
24.02494 -8.5138655 -1.9410543
24.244463 -7.9387326 -1.9427447
24.637918 -6.770761 -1.9458071
24.837891 -6.1853399 -1.9492416
27.115908 -6.0618787 -2.1159225
27.270311 -5.409162 -2.1171703
27.52706 -4.0916429 -2.1193006
27.713877 -2.7612774 -2.1209383
27.869608 0.59436524 -2.1228361
27.672792 3.2757854 -2.1220782
27.579189 3.941474 -2.1215734
25.672451 4.303299 -1.982308
25.175028 4.8470173 -1.9523635
24.889872 6.0502934 -1.9506298
24.724707 6.6457524 -1.9496877
21.428846 6.3179703 -1.7013202
19.420126 6.2387309 -1.5533396
18.17622 6.3267813 -1.4656287
12.963584 6.3518071 -1.0993477
12.213935 6.3543706 -1.0484726
11.530244 6.3567109 -1.0026585
10.326064 6.3608255 -0.92357916
9.1490326 6.2639093 -0.84437251
8.3777151 6.3503313 -0.80055737
7.5908885 6.3530154 -0.75380677
7.2305369 6.3542461 -0.73303556
6.2571287 6.357564 -0.6792987
5.6819139 6.3595233 -0.64943492
5.1539645 6.36132 -0.623474
4.9052343 6.3621659 -0.61177909
4.6655173 6.3629813 -0.60085678
4.434082 6.3637686 -0.59065497
4.2102442 6.3645306 -0.58112586
3.9515917 6.2986393 -0.56623733
3.38833 6.3843365 -0.5504123
3.0036914 6.3856401 -0.53739452
2.8178906 6.3862686 -0.53156984
2.457617 6.3874893 -0.52118587
1.9408984 6.3892365 -0.50851113
1.7738769 6.3898001 -0.50500202
1.4461817 6.3909063 -0.49898896
1.125459 6.3919892 -0.4942539
0.81004882 6.3930521 -0.49073929
0.65383786 6.3935771 -0.48942724
0.49836913 6.3941007 -0.48840407
0.34345701 6.3946218 -0.48766837
0.03457031 6.3956594 -0.48705253
-0.27423829 6.396697 -0.48757216
-0.42908204 6.3972173 -0.48825797
-0.58443356 6.3977385 -0.48923317
-0.89748043 6.398787 -0.49205306
-1.0555567 6.3993168 -0.49390921
-1.516377 6.3096576 -0.4941777
-1.6804882 6.3176212 -0.49783492
-2.3819335 6.3963337 -0.51977539
-2.5595214 6.3969254 -0.52468985
-2.7405956 6.3975296 -0.53000921
-2.925498 6.3981452 -0.53575391
-3.5066698 6.4000812 -0.55574691
-3.7105663 6.4007587 -0.56341594
-4.8283496 6.4044719 -0.61079186
-5.0758786 6.4052935 -0.62237012
-5.600986 6.4070354 -0.64806342
-5.8804784 6.4079609 -0.66231859
-6.1726856 6.4089289 -0.67761695
-6.4394236 6.3708501 -0.68982238
-7.4920406 6.4092875 -0.75082654
-7.8701854 6.4105377 -0.77299744
-8.6989546 6.4132781 -0.82302082
-10.171191 6.418139 -0.9158805
-11.356611 6.4220538 -0.99354213
-14.488291 6.4379997 -1.2073487
-16.621607 6.4450321 -1.3576086
-17.87999 6.4412518 -1.4472713
-20.59124 5.774157 -1.6285708
-20.712149 5.2725935 -1.6275961
-20.82184 4.7687664 -1.6266999
-22.813324 4.0781107 -1.764841
-23.069496 1.8584961 -1.7625012
-23.102774 1.301159 -1.7621336
-23.123764 0.7433331 -1.7618527
-23.13245 0.1852539 -1.7616589
-23.08452 -1.4879724 -1.7616017
-22.991093 -2.6002767 -1.7619995
-22.758984 -4.2590971 -1.7632496
-22.417162 -5.900548 -1.7652806
-21.035259 -6.083046 -1.6675341
-20.227875 -6.9230366 -1.6281338
-19.896265 -7.900897 -1.6302499
-20.634848 -10.59921 -1.7665864
-20.341528 -11.076674 -1.7638429
-19.726685 -12.010297 -1.7587712
-19.075346 -12.914557 -1.7542555
-18.388666 -13.788423 -1.7502978
-18.032452 -14.21364 -1.7485288
-16.628769 -15.18047 -1.7146492
-15.784643 -15.871794 -1.7046487
-15.354775 -16.203217 -1.6999557
-12.214531 -18.257038 -1.6727901
-11.748916 -18.512299 -1.6697164
-11.279453 -18.758005 -1.6668434
-10.806298 -18.99415 -1.6641706
-9.5562305 -20.044304 -1.6910341
-9.2459564 -20.662388 -1.7238536
-8.4740725 -21.686964 -1.773129
-7.1697559 -21.33135 -1.7137491
-6.6795702 -21.583752 -1.7205772
-6.1697168 -21.783642 -1.7241393
-5.6172557 -21.8284 -1.7164532
-5.0240135 -21.677004 -1.6945237
-4.4717479 -21.656908 -1.6840286
-2.8609862 -21.673819 -1.6648431
-2.3306153 -21.674467 -1.6600897
-1.802959 -21.675112 -1.6563238
-1.2774121 -21.675756 -1.6535357
0.29299805 -21.682631 -1.651347
0.29708984 -7.8894701 -0.60123265
1.3410156 -21.684063 -1.6544595
3.4620116 -21.691031 -1.6727427
4.5449219 -21.693027 -1.687855
6.2129884 -21.6961 -1.7186325
7.3648338 -21.702988 -1.745317
9.1669626 -21.710302 -1.7946407
10.427647 -21.709702 -1.8340825
14.257607 -20.112661 -1.8774389
15.758379 -20.099579 -1.9449869
16.553104 -20.095303 -1.9826471
18.594921 -19.508745 -2.0524089
20.060995 -18.207312 -2.063097
21.428701 -16.790054 -2.0731158
21.860966 -16.29318 -2.0762939
22.2808 -15.784565 -2.0793869
23.462109 -14.191384 -2.0881276
24.18121 -13.07667 -2.093483
24.842461 -11.923254 -2.098438
25.150654 -11.33301 -2.1007595
25.443535 -10.734306 -2.1029751
23.684843 -9.3258667 -1.938454
23.925594 -8.7600851 -1.9402926
24.151571 -8.1877174 -1.9420282
24.36249 -7.6090918 -1.9436586
24.738525 -6.4348764 -1.9465991
27.350351 -5.0362229 -2.1178255
27.477627 -4.3771515 -2.1188827
27.67955 -3.0492294 -2.1206269
27.810682 -1.7115988 -2.1218724
27.8496 -1.040418 -2.1223071
27.873817 0.3041577 -2.1227973
27.826454 1.6482421 -2.1227803
27.776064 2.31883 -2.1225827
27.707783 2.9877598 -2.1222577
27.621786 3.6545 -2.1218069
25.100527 5.1906352 -1.9519174
18.798281 6.3246503 -1.510394
17.410917 6.329401 -1.4107869
16.19455 6.3335662 -1.3242222
11.817822 6.3557267 -1.0218573
10.56958 6.359993 -0.93938565
10.0175 6.3618803 -0.90369958
8.8864059 6.2648077 -0.827995
8.5605955 6.3497076 -0.81167126
8.1443062 6.3511271 -0.78650266
7.3835936 6.3537235 -0.74180311
6.7031932 6.3560443 -0.70346439
5.8017383 6.3591156 -0.65552658
5.527422 6.3600492 -0.64168638
5.011416 6.3618045 -0.61672723
4.5329785 6.3634329 -0.59497207
3.2771192 6.3847136 -0.54651856
3.0851464 6.3853631 -0.54004449
2.7140331 6.3866205 -0.52845079
2.5341699 6.3872309 -0.52328897
2.3577051 6.3878274 -0.5185262
2.1843066 6.3884134 -0.51414573
2.0137208 6.3889899 -0.51013297
1.8456836 6.3895588 -0.50647432
1.6799316 6.3901176 -0.50315887
1.3543946 6.3912177 -0.4975161
1.0353515 6.392293 -0.49313369
0.72115231 6.3933511 -0.48995695
0.25557616 6.3949175 -0.48737761
-0.053134765 6.3959551 -0.4870851
-0.36219725 6.3969927 -0.48792684
-0.67304689 6.398035 -0.48991477
-0.82962888 6.39856 -0.49134514
-1.4470019 6.3094254 -0.49295333
-1.6082813 6.3099651 -0.49588218
-1.7736914 6.317934 -0.49972868
-2.133203 6.3955035 -0.51341164
-2.4824708 6.3966694 -0.5225209
-2.6620018 6.3972673 -0.52766228
-3.0324218 6.3985014 -0.53921461
-3.2240136 6.3991399 -0.5456664
-3.4203711 6.3997931 -0.55259949
-3.6218748 6.4004645 -0.56004101
-3.8290234 6.4011526 -0.568021
-4.0422754 6.4018607 -0.57657081
-4.9679098 6.4049335 -0.61727571
-5.4840331 6.4066458 -0.64221555
-8.0953321 6.4112821 -0.78640133
-8.5111427 6.4126568 -0.81152433
-9.4293165 6.4156899 -0.8685199
-9.9391308 6.4173746 -0.90095365
-11.084072 6.421154 -0.97549385
-11.685264 6.3980069 -1.0145224
-12.275723 6.3412981 -1.0521858
-13.228056 6.4338431 -1.1201861
-15.045116 6.4398355 -1.246273
-17.080273 6.354826 -1.387823
-20.398764 6.4878607 -1.6301028
-20.775854 4.9864554 -1.6270771
-20.879091 4.4814692 -1.6262264
-22.77393 4.3162446 -1.7651763
-22.861738 3.7639861 -1.7644238
-23.116236 0.9841156 -1.7619631
-23.131865 -0.13198119 -1.761588
-23.062944 -1.8044934 -1.7616793
-22.955566 -2.9156189 -1.7621762
-22.79912 -4.0213861 -1.7630218
-22.593891 -5.1198502 -1.7642144
-22.473085 -5.6657495 -1.7649403
-21.841982 -6.070631 -1.7263796
-20.438457 -6.2153673 -1.6268107
-20.293676 -6.7103391 -1.6277184
-19.97146 -7.6910124 -1.6297671
-19.794014 -8.176301 -1.6309085
-20.469296 -10.871504 -1.7650095
-20.17058 -11.34495 -1.762345
-19.862518 -11.811305 -1.7598182
-19.21895 -12.721997 -1.7551821
-18.88373 -13.166064 -1.7530737
-18.539761 -13.602485 -1.7511046
-18.187202 -14.03109 -1.7492754
-17.456865 -14.864419 -1.746035
-16.391039 -15.380809 -1.7117234
-15.108164 -16.387381 -1.6973792
-14.670532 -16.70392 -1.6930059
-13.78124 -17.308517 -1.6848679
-13.329814 -17.596516 -1.6811033
-11.950322 -18.403315 -1.6710181
-11.4825 -18.653131 -1.668059
-11.010947 -18.893408 -1.6652997
-10.057041 -19.345217 -1.6603814
-9.6840334 -19.77951 -1.6771111
-9.3825588 -20.395351 -1.7096368
-9.0590525 -21.012978 -1.7425762
-7.9723043 -21.258345 -1.7289828
-6.8947754 -21.484478 -1.7182882
-5.2755175 -21.730896 -1.7029386
-4.7092481 -21.665552 -1.6884201
-4.1640525 -21.662527 -1.6798651
-3.6287107 -21.687714 -1.674541
-2.0303905 -21.674833 -1.6578279
-0.97935545 -21.676121 -1.6523833
-0.45581055 -21.676762 -1.6511145
0.21363281 -7.8445067 -0.59760344
1.1145117 -21.683752 -1.6534622
2.1671386 -21.685188 -1.6596158
3.2307324 -21.690603 -1.670025
5.9691601 -21.695652 -1.7135803
6.5373044 -21.699633 -1.7258532
7.1134081 -21.701967 -1.7391845
7.6987987 -21.704342 -1.7537495
10.150557 -21.709118 -1.8250033
11.327393 -21.462383 -1.8480902
11.866689 -21.227272 -1.8519639
12.400976 -20.978237 -1.8558056
13.453086 -20.438749 -1.8633821
16.206367 -20.097195 -1.9660759
17.018768 -20.092703 -2.0052307
17.863895 -20.087099 -2.0470965
18.37665 -19.686039 -2.0508218
18.879833 -19.271349 -2.0544825
19.373047 -18.843204 -2.0580759
20.328007 -17.947439 -2.0650489
21.675938 -16.509094 -2.0749328
22.101152 -16.005489 -2.0780625
22.913399 -14.963913 -2.08406
24.0308 -13.320559 -2.0923603
24.375116 -12.752637 -2.0949326
17.165058 -7.9507403 -1.4405862
25.318995 -10.993741 -2.1020319
24.475595 -7.2775841 -1.9445379
24.662588 -6.6900578 -1.9460009
27.138084 -5.972837 -2.1161003
27.290068 -5.3195124 -2.1173315
27.424805 -4.6620646 -2.1184411
27.542049 -4.0009971 -2.1194279
27.641846 -3.3367572 -2.1202919
27.724022 -2.6698816 -2.1210318
27.788427 -2.0008752 -2.1216464
27.867645 0.68637145 -2.122844
27.842743 1.3584313 -2.1228271
27.661055 3.3670471 -2.1220169
25.278427 4.3231206 -1.9529711
25.020731 5.5329862 -1.9514335
24.701279 6.7269974 -1.949582
19.211483 6.2417755 -1.5382733
17.986542 6.3274322 -1.4520102
15.567236 6.3357134 -1.279914
12.116738 6.3547039 -1.0419247
11.441308 6.3570132 -0.99674404
10.821679 6.3591313 -0.95585412
10.250576 6.361083 -0.91869843
9.7218943 6.3628912 -0.88482213
8.6572847 6.2827396 -0.81459087
7.9189157 6.3518972 -0.77307552
7.5403709 6.353189 -0.7508679
7.1827636 6.3544097 -0.73031431
6.8440332 6.3555646 -0.71126038
5.6443849 6.3596516 -0.64754045
5.1193652 6.3614383 -0.62182671
4.8719044 6.3622794 -0.61023962
4.4030175 6.363874 -0.58931255
4.1801562 6.3646317 -0.57987249
3.3614159 6.384428 -0.54946119
3.1674316 6.3850846 -0.54278189
2.6113672 6.3869681 -0.52546638
2.4334667 6.3875713 -0.52053356
1.7511914 6.3898773 -0.50454873
1.5866406 6.3904328 -0.50142282
1.2631445 6.3915253 -0.49614424
1.1037402 6.3920622 -0.49397543
0.94563472 6.3925958 -0.49210984
0.63251954 6.3936505 -0.48926979
0.47714841 6.3941727 -0.48828658
-0.1408789 6.3962502 -0.48720932
-0.29540038 6.396769 -0.48764914
-0.60574216 6.3978095 -0.48938841
-0.76193357 6.3983331 -0.49069235
-1.0772754 6.3993888 -0.49418685
-1.377959 6.309195 -0.49178725
-1.5384277 6.309732 -0.49457923
-1.7028515 6.3176956 -0.49827811
-1.8901953 6.3946929 -0.50780106
-2.2312403 6.3958316 -0.51584601
-2.5840917 6.3970075 -0.52539331
-2.951123 6.3982315 -0.53657317
-3.3350194 6.3995099 -0.54954612
-4.3903708 6.403017 -0.59122115
-4.6218944 6.4037871 -0.6014154
-4.8616896 6.4045815 -0.6123299
-5.3691306 6.4062653 -0.63653696
-5.9196873 6.4080887 -0.66434968
-6.4395504 6.3290253 -0.68759161
-6.7518163 6.32305 -0.70443863
-7.54249 6.4094534 -0.75376034
-9.7145014 6.4166327 -0.88659865
-11.445147 6.4223456 -0.99942487
-11.966504 6.3402786 -1.0312865
-12.8829 6.4327054 -1.0965719
-13.706025 6.4354205 -1.15308
-14.61913 6.4384308 -1.2164748
-16.787256 6.4455791 -1.3693916
-20.337372 6.7022805 -1.6306883
-20.608442 5.7056475 -1.6284329
-20.72784 5.2037601 -1.6274686
-23.125702 0.66696471 -1.7618209
-23.109638 -1.0069714 -1.7615379
-23.037411 -2.1207485 -1.7617853
-22.982861 -2.676275 -1.7620398
-22.916069 -3.230556 -1.7623812
-22.837036 -3.7833638 -1.7628098
-22.745781 -4.3343925 -1.7633252
-22.642275 -4.8835058 -1.7639279
-22.526693 -5.4304309 -1.7646165
-22.39897 -5.9748907 -1.7653917
-20.79081 -6.086802 -1.6497394
-19.688295 -8.4505005 -1.6315919
-19.683275 -12.073131 -1.7584443
-19.029457 -12.975353 -1.7539668
-18.689281 -13.4151 -1.751937
-17.61725 -14.687341 -1.7466878
-17.013563 -14.894241 -1.7219658
-15.726103 -15.91772 -1.7039943
-14.419658 -16.879625 -1.6906104
-13.525166 -17.473398 -1.682703
-12.151006 -18.29257 -1.6723571
-10.741279 -19.025709 -1.6638206
-9.8092279 -19.517956 -1.6635051
-9.2019339 -20.747402 -1.728404
-8.374424 -21.642422 -1.767218
-7.5776854 -21.080891 -1.7059381
-6.0995016 -21.810102 -1.7246302
-5.534502 -21.804787 -1.7131541
-3.8593359 -21.676865 -1.6767172
-3.3241014 -21.690813 -1.6711013
-2.788203 -21.673906 -1.6641325
-0.15846679 -21.677126 -1.6508191
0.36463866 -21.68273 -1.6514373
0.32375976 -7.9034824 -0.60237789
1.4129297 -21.684156 -1.6548138
1.9392968 -21.684875 -1.657958
2.9996092 -21.686321 -1.6672025
3.5355468 -21.691166 -1.6736436
4.0751657 -21.69216 -1.6808194
5.1700583 -21.694178 -1.6983422
5.7267575 -21.695202 -1.708732
6.2913575 -21.698639 -1.7204694
7.4449902 -21.703312 -1.7473074
8.0361128 -21.705709 -1.7626011
8.637949 -21.708155 -1.7792181
9.876152 -21.70854 -1.8162106
10.516084 -21.70989 -1.8370193
11.634473 -21.330404 -1.8502954
12.171025 -21.087429 -1.8541516
14.355322 -20.10944 -1.8815545
15.865332 -20.099012 -1.9499902
18.663877 -19.452036 -2.0529108
19.648808 -18.593906 -2.0600872
20.125595 -18.145105 -2.0635691
21.488564 -16.722729 -2.0735555
21.91917 -16.224253 -2.0767224
22.337265 -15.714046 -2.0798032
23.134619 -14.659788 -2.0856981
23.877773 -13.562631 -2.0912194
24.564325 -12.425568 -2.0963497
17.170019 -8.1711798 -1.448064
25.191591 -11.251533 -2.1010687
25.482382 -10.651707 -2.1032698
23.718719 -9.2488613 -1.9387122
23.957422 -8.682126 -1.9405365
24.181288 -8.1088314 -1.9422573
26.699736 -6.1685009 -2.0868196
27.762753 -2.2898409 -2.1213961
27.853506 -0.94848508 -2.1223564
27.872118 -0.27631712 -2.1226475
27.820644 1.7400787 -2.1227608
27.69705 3.0791337 -2.1222034
26.743544 4.287591 -2.0626051
24.93586 5.8740325 -1.9509137
24.774139 6.470541 -1.9499078
20.171534 6.3222771 -1.6098058
17.235098 6.3300042 -1.398224
16.03956 6.334096 -1.313252
14.98043 6.3377213 -1.2386975
13.198604 6.3510041 -1.1154208
12.427539 6.3536406 -1.062904
10.491446 6.3602605 -0.9343031
9.9451857 6.3621283 -0.89906478
8.5020704 6.3499064 -0.80810392
8.0893354 6.351315 -0.78321373
7.7010446 6.3526406 -0.76023877
7.3346581 6.3538909 -0.73899293
6.9880271 6.3550725 -0.7193079
6.6591892 6.3561945 -0.70104277
5.2291112 6.3610649 -0.62707847
4.9775681 6.3619208 -0.61514294
4.5014648 6.3635406 -0.59358925
3.5903223 6.2828484 -0.55106622
2.8722265 6.3860855 -0.53324044
2.5098243 6.3873124 -0.52261323
2.3337793 6.387908 -0.51790375
2.1607909 6.3884931 -0.5135746
1.4939843 6.3907452 -0.49979332
1.3323632 6.3912921 -0.49717644
0.69979489 6.3934221 -0.48978287
0.38906249 6.3944683 -0.48785606
0.23444335 6.3949881 -0.48732176
0.080068357 6.3955083 -0.48707214
-0.074257813 6.3960257 -0.48710555
-0.22868164 6.3965445 -0.48742422
-0.38338867 6.3970633 -0.48802641
-0.85111326 6.398632 -0.49156365
-1.008828 6.3991609 -0.49333128
-1.6305078 6.3100395 -0.49630859
-1.9860547 6.3950129 -0.5099417
-2.3302343 6.3961616 -0.51840234
-2.8705957 6.3979621 -0.53401542
-3.0583985 6.3985882 -0.54007012
-3.6499023 6.400557 -0.5611003
-4.0719724 6.4019608 -0.5777874
-4.2928224 6.4026933 -0.58703172
-4.5209961 6.4034514 -0.59693068
-5.2562499 6.4058905 -0.63102889
-6.085156 6.408637 -0.672993
-7.3846679 6.4089322 -0.74461544
-7.7564158 6.4101615 -0.76628172
-8.150713 6.4114652 -0.78971946
-9.0176754 6.4143291 -0.8427279
-10.011894 6.417614 -0.90562373
-10.5675 6.4194489 -0.94159234
-11.169414 6.4214349 -0.9811334
-12.552011 6.431613 -1.074049
-15.18455 6.4402957 -1.2560548
-16.274439 6.4438872 -1.3329601
-20.274658 6.9164495 -1.631343
-22.872744 3.6882646 -1.7643278
-22.946547 3.1342528 -1.7636741
-23.00807 2.5789447 -1.7631068
-23.057304 2.0226073 -1.7626264
-23.094267 1.4654577 -1.7622327
-23.118891 0.90775269 -1.7619262
-23.131123 -0.2083618 -1.7615751
-23.118774 -0.76630187 -1.7615303
-23.094154 -1.3238214 -1.7615724
-23.057154 -1.8806438 -1.7617024
-23.007944 -2.4366183 -1.7619189
-22.946405 -2.9914763 -1.7622231
-22.872612 -3.5449355 -1.7626144
-22.688452 -4.6467891 -1.7636571
-21.580126 -6.0746641 -1.7072607
-20.419155 -6.2832642 -1.6269313
-20.273006 -6.7778282 -1.6278487
-20.115948 -7.2693744 -1.6288443
-19.768877 -8.2424164 -1.6310706
-19.378418 -9.2006502 -1.6336079
-20.428968 -10.9367 -1.7646368
-20.128941 -11.409202 -1.7619909
-19.819649 -11.874573 -1.759483
-19.501108 -12.332609 -1.7571149
-17.776133 -14.508755 -1.7473651
-17.405668 -14.920263 -1.7458334
-8.624795 -7.7619114 -0.88361537
-16.333534 -15.428596 -1.7110287
-15.910302 -15.772285 -1.7060714
-14.610273 -16.746525 -1.6924227
-14.167285 -17.052284 -1.68828
-13.719727 -17.348509 -1.6843405
-12.350986 -18.179976 -1.6737344
-10.946152 -18.925554 -1.6649373
-9.9912786 -19.374743 -1.660074
-7.8528905 -21.152058 -1.7182187
-7.3095798 -21.245907 -1.7110162
-6.8272457 -21.517914 -1.7191533
-6.3205662 -21.725903 -1.7230852
-5.1940331 -21.707649 -1.6997639
-4.6338282 -21.662807 -1.6870058
-4.0905566 -21.665985 -1.6790777
-3.5554004 -21.689352 -1.6737537
-3.0205469 -21.692734 -1.6679026
0.24000975 -7.8591056 -0.59877318
1.7118945 -21.684566 -1.6564822
3.8417187 -21.69173 -1.6775957
4.9318457 -21.693737 -1.694194
6.0463181 -21.695793 -1.7151513
6.6156054 -21.699953 -1.7276044
7.1929393 -21.702291 -1.7411015
12.473691 -20.943085 -1.8563287
13.524228 -20.399872 -1.8638949
15.529795 -20.100769 -1.9343683
16.315702 -20.096603 -1.9712802
17.132509 -20.092054 -2.0108011
18.446074 -19.630096 -2.0513265
20.85121 -17.415442 -2.0688791
21.734892 -16.440861 -2.0753663
22.569227 -15.418913 -2.0815156
23.351435 -14.352175 -2.0873063
23.722187 -13.802901 -2.0900612
24.421143 -12.674164 -2.0952771
24.748701 -12.095487 -2.0977333
17.163496 -7.8812852 -1.4382625
23.611094 -9.4913197 -1.9378927
23.856211 -8.9275789 -1.9397616
24.086533 -8.3570852 -1.9415277
24.301933 -7.7802596 -1.9431891
25.530546 -6.1790857 -2.0003591
27.159834 -5.8836689 -2.1162758
27.733887 -2.5784302 -2.1211233
27.866308 -0.56647885 -2.1225376
27.874746 0.1059491 -2.1227567
27.865273 0.77839595 -2.122849
27.648916 3.4582653 -2.1219525
27.550428 4.12321 -2.121413
25.139755 5.0126481 -1.952153
25.000761 5.6152349 -1.9513117
19.138037 6.287858 -1.5340592
16.537207 6.3323932 -1.3485266
13.555517 6.349782 -1.1399328
12.751269 6.3525333 -1.0848778
11.353378 6.3573136 -0.99090755
10.74079 6.3594074 -0.95055979
8.655879 6.3254657 -0.8164224
8.2642965 6.350718 -0.79370815
6.7990332 6.3557172 -0.70876122
6.4795313 6.3568072 -0.69124448
5.8848729 6.3588324 -0.65979475
5.60707 6.3597784 -0.64566487
5.0849509 6.3615556 -0.62019366
4.8387499 6.3623919 -0.60871339
4.3720798 6.3639798 -0.587982
4.1502051 6.3647332 -0.57862949
3.8834765 6.2818537 -0.56241256
3.4771092 6.2832317 -0.54686505
2.2350976 6.3882413 -0.51539731
2.0637109 6.3888211 -0.51127702
1.8949413 6.3893924 -0.50751573
1.7285546 6.3899541 -0.50410116
1.5642773 6.3905082 -0.50102097
1.4019336 6.3910575 -0.4982672
1.2412403 6.3915982 -0.49582961
0.92408198 6.3926678 -0.49187812
0.61121094 6.3937201 -0.4891178
0.45591795 6.3942447 -0.48817405
-0.0076562497 6.3958025 -0.48705748
-0.3165625 6.3968401 -0.48773161
-0.78336912 6.3984036 -0.4908931
-1.0990332 6.3994622 -0.4944689
-1.2408105 6.3087358 -0.48963034
-1.3998241 6.309268 -0.49215078
-1.7252831 6.3177714 -0.49873245
-1.9132129 6.3947687 -0.50830621
-2.9768164 6.3983173 -0.53740215
-3.3619921 6.3995991 -0.55050504
-3.5619335 6.4002643 -0.5577929
-5.9591403 6.4082208 -0.66639751
-8.385849 6.4122429 -0.80390602
-8.8208685 6.4136796 -0.83053005
-9.2859669 6.4152179 -0.85949641
-9.7849703 6.4168658 -0.89109069
-10.322392 6.4186392 -0.92566001
-11.534775 6.4226422 -1.0053945
-12.063232 6.3405976 -1.0378189
-12.990801 6.4330606 -1.1039411
-13.825332 6.435812 -1.1613222
-18.260834 6.4425054 -1.4746213
-20.356874 6.6342692 -1.630483
-20.49645 6.1369047 -1.629328
-20.625448 5.6370854 -1.6282961
-20.849916 4.6304874 -1.6264684
-22.278915 4.3867302 -1.7291807
-22.837143 3.9269035 -1.7646365
-22.983036 2.8187408 -1.7633411
-23.109741 1.1484942 -1.762048
-23.127373 0.59063292 -1.761791
-23.106258 -1.0832336 -1.7615438
-23.074657 -1.6404135 -1.7616354
-23.030674 -2.1968076 -1.7618148
-22.974428 -2.7521584 -1.7620814
-22.905985 -3.3062701 -1.7624346
-22.825239 -3.8588433 -1.7628753
-22.732319 -4.4096789 -1.7634027
-20.551435 -6.090477 -1.632333
-20.185062 -7.057622 -1.6284051
-19.847485 -8.0336342 -1.6305636
-16.772875 -7.750598 -1.4070821
-20.259569 -11.206153 -1.763116
-19.954262 -11.674622 -1.7605484
-19.639687 -12.135844 -1.7581198
-19.316021 -12.589663 -1.7558306
-18.642036 -13.474679 -1.7516702
-17.933472 -14.328657 -1.7480685
-17.566557 -14.743684 -1.746478
-16.514486 -15.277336 -1.7132318
-15.667451 -15.963445 -1.7033441
-14.800044 -16.611595 -1.6942741
-12.550205 -18.065647 -1.6751486
-12.087481 -18.327879 -1.6719284
-11.620801 -18.580503 -1.6689099
-11.150303 -18.823589 -1.666092
-10.676162 -19.057116 -1.6634737
-10.198477 -19.281034 -1.6610563
-9.769824 -19.60055 -1.6677841
-9.1575975 -20.832846 -1.73299
-8.8142672 -21.441525 -1.7654186
-8.2430859 -21.513758 -1.7544769
-7.5135155 -21.121086 -1.7071738
-7.0397849 -21.411768 -1.7164353
-6.5406346 -21.63957 -1.7215475
-5.4520898 -21.781275 -1.7098821
-4.8722167 -21.671482 -1.691542
-3.7861717 -21.680307 -1.676005
-3.2509472 -21.691277 -1.6703012
-2.7155371 -21.673996 -1.6634409
-1.6589551 -21.675287 -1.6554638
-1.1338476 -21.675932 -1.6529413
0.15718749 -7.8132577 -0.59512228
0.35049805 -7.9175391 -0.60353428
1.4848144 -21.684258 -1.6551863
2.0114648 -21.684975 -1.6584636
3.0725975 -21.68642 -1.6679748
3.609082 -21.691301 -1.6745651
5.8034568 -21.695343 -1.7102466
6.3691502 -21.698956 -1.7221538
6.9426856 -21.701277 -1.7351254
7.5252633 -21.70364 -1.7493254
8.1177826 -21.706041 -1.7647932
8.7212496 -21.708492 -1.7815795
10.604815 -21.710075 -1.8399882
11.708232 -21.297987 -1.8508253
12.77461 -20.794294 -1.8584944
13.818438 -20.235504 -1.8660167
15.199512 -20.102459 -1.9191941
15.9729 -20.098446 -1.9550408
19.228779 -18.970774 -2.0570242
20.19001 -18.082672 -2.0640399
23.926571 -13.486173 -2.0915833
24.275087 -12.921093 -2.0941846
23.752207 -9.1717739 -1.9389676
23.988955 -8.6041479 -1.9407781
24.210772 -8.0299911 -1.9424847
27.089922 -6.1645427 -2.1157143
27.386894 -4.8562598 -2.1181269
27.701639 -2.8667138 -2.1208267
27.823154 -1.5280743 -2.1220043
27.871542 0.48816222 -2.1228247
27.851942 1.1603985 -2.1228452
27.814432 1.8318634 -2.1227388
27.686014 3.1704395 -2.1221471
25.194824 4.751369 -1.952481
24.914667 5.955894 -1.950783
21.730165 6.3169389 -1.7233148
18.399483 6.3260159 -1.4816763
13.088642 6.3513799 -1.1078937
12.327665 6.3539834 -1.0561502
11.634199 6.3563542 -1.009585
10.998936 6.3585272 -0.96749306
10.414199 6.3605242 -0.92928898
7.6496482 6.3528166 -0.75723344
7.2860937 6.3540559 -0.7362088
6.615459 6.3563433 -0.69864601
6.3048043 6.3574014 -0.68184179
6.0085936 6.3584113 -0.66620529
5.7254782 6.3593755 -0.65164089
5.4543357 6.3602982 -0.63806361
5.1941013 6.3611846 -0.62539655
4.7027831 6.3628545 -0.60253149
3.9850292 6.2985258 -0.56758749
3.7656348 6.2822528 -0.55777144
3.4139941 6.3739724 -0.55063313
2.1373339 6.3885713 -0.5130108
1.8000878 6.3897123 -0.50553292
1.6349218 6.3902702 -0.5023101
1.4717675 6.3908195 -0.49941581
0.83478516 6.3929682 -0.49097365
0.52285153 6.3940191 -0.48854598
0.36786133 6.3945403 -0.48776573
0.21328124 6.3950591 -0.4872711
-0.24984375 6.3966155 -0.48748946
-0.40460935 6.3971343 -0.48813155
-0.71581054 6.3981781 -0.49027663
-0.87262696 6.3987041 -0.49178794
-1.030498 6.3992329 -0.49359649
-1.3309863 6.3090386 -0.49102545
-1.6527538 6.3101139 -0.4967398
-2.1802928 6.3956594 -0.51457
-2.8960352 6.3980474 -0.53481793
-3.6779883 6.40065 -0.5621689
-4.3235936 6.4027958 -0.58834743
-4.5528221 6.4035578 -0.59833741
-4.7901073 6.4043436 -0.60903388
-5.0361719 6.4051614 -0.62048733
-6.6559668 6.3227334 -0.6991089
-7.4342966 6.4090948 -0.7474826
-8.2065821 6.4116497 -0.79307449
-8.6296482 6.4130473 -0.81876814
-9.5651855 6.4161396 -0.87711132
-10.08544 6.4178581 -0.91035169
-10.647001 6.4197111 -0.94678456
-11.772802 6.3452544 -1.0184603
-12.655488 6.4319549 -1.0810797
-13.454765 6.4345913 -1.1357621
-14.339766 6.4375091 -1.1970086
-17.456856 6.363997 -1.4149796
-20.29479 6.8485856 -1.6311337
-20.437328 6.3518033 -1.6297973
-20.571177 5.8531013 -1.6287316
-20.693842 5.3518963 -1.6277444
-20.805298 4.8484149 -1.6268359
-21.185244 4.4009953 -1.6477636
-22.799208 4.1652312 -1.7649615
-22.883602 3.6125238 -1.7642331
-23.063135 1.9463848 -1.762567
-23.098354 1.3891461 -1.7621856
-23.131905 0.2733264 -1.7616836
-23.13018 -0.28475282 -1.7615637
-23.051138 -1.9568539 -1.761727
-23.000229 -2.5126865 -1.7619555
-22.937016 -3.0673544 -1.7622716
-22.773916 -4.1722445 -1.7631645
-22.674051 -4.7219629 -1.7637411
-22.562016 -5.2695556 -1.7644045
-22.437845 -5.814774 -1.7651544
-21.323652 -6.0786114 -1.6885524
-20.399799 -6.3510852 -1.6270523
-20.252197 -6.8452582 -1.6279801
-20.093588 -7.3363571 -1.6289866
-19.924004 -7.8241625 -1.6300716
-19.74354 -8.308445 -1.6312344
-16.981768 -7.633534 -1.4178581
-19.350111 -9.2655821 -1.633793
-20.388515 -11.001762 -1.7642664
-19.45685 -12.394696 -1.7568014
-18.790453 -13.286269 -1.752521
-18.089224 -14.147014 -1.7487994
-17.285664 -14.916655 -1.7387173
-8.6029978 -7.7938409 -0.8840161
-16.275917 -15.476142 -1.7103393
-14.106308 -17.093325 -1.6877301
-12.748662 -17.949541 -1.6766003
-11.353808 -18.719877 -1.6672833
-10.881249 -18.957537 -1.6645787
-9.9254198 -19.404072 -1.6597705
-9.2964163 -20.564709 -1.7186483
-7.7426462 -21.068125 -1.7093158
-7.2445993 -21.285236 -1.7122492
-6.759531 -21.551161 -1.7200187
-5.1128516 -21.684484 -1.6966162
-4.5584865 -21.660065 -1.6856093
-4.0171485 -21.669437 -1.6783071
-2.9475877 -21.693195 -1.6671836
-2.4141212 -21.674364 -1.6607711
-1.8860742 -21.675013 -1.6568508
-0.8359375 -21.676296 -1.6519411
-0.31259766 -21.676937 -1.6509346
0.21043944 -21.68252 -1.6512643
2.8425975 -21.686108 -1.6655843
3.3773632 -21.690876 -1.6717262
3.915664 -21.691864 -1.6785941
5.0072556 -21.693878 -1.6954882
5.5620017 -21.694899 -1.7055579
6.1236911 -21.695934 -1.7167615
8.4594526 -21.707426 -1.7741754
9.6903315 -21.708147 -1.8103676
10.93288 -21.624348 -1.8452587
11.475439 -21.399424 -1.849153
12.013389 -21.160488 -1.8530183
13.595185 -20.360722 -1.8644067
14.145342 -20.116329 -1.8727397
18.005165 -19.978762 -2.0481224
19.01582 -19.155531 -2.0554726
19.50625 -18.723728 -2.059047
22.215361 -15.865648 -2.0789044
22.624434 -15.347363 -2.0819232
23.02038 -14.817907 -2.084852
23.771729 -13.726918 -2.09043
24.792383 -12.015631 -2.0980616
17.16293 -7.8125029 -1.4360474
27.181356 -5.794416 -2.1164491
27.328711 -5.1399255 -2.1176476
27.458652 -4.4814267 -2.1187236
27.57119 -3.8194335 -2.1196773
27.666132 -3.1544363 -2.1205072
27.743378 -2.486928 -2.121212
27.802958 -1.8174245 -2.1217926
27.844618 -1.1464288 -2.1222467
27.874481 0.19799988 -2.1227767
27.862597 0.87041259 -2.1228521
27.832821 1.5422747 -2.1228004
27.785166 2.2130699 -2.122622
27.719736 2.8822973 -2.1223176
27.636513 3.5494413 -2.1218863
27.535576 4.2140007 -2.1213293
25.246933 4.4895549 -1.9527878
25.121698 5.0953608 -1.9520446
24.980526 5.6974101 -1.951188
20.68001 6.3205352 -1.6467544
19.035341 6.3238382 -1.5274966
17.617567 6.3286929 -1.4255682
16.376493 6.3329425 -1.3371212
15.279834 6.3366971 -1.2596955
13.440615 6.3501749 -1.1320292
12.647109 6.35289 -1.0777942
11.925761 6.3553567 -1.0290909
11.266416 6.3576126 -0.98514616
8.9582815 6.2645612 -0.83245701
8.6287403 6.349473 -0.81583321
6.7543845 6.3558698 -0.70628834
6.4370508 6.3569522 -0.68894601
6.1347656 6.3579812 -0.6728183
5.8461523 6.3589654 -0.65780228
5.5699801 6.3599038 -0.64380789
5.3051658 6.360806 -0.63075751
5.0507126 6.3616714 -0.61857605
4.5695505 6.3633075 -0.59658444
3.8549316 6.28195 -0.56127882
3.4501171 6.2833233 -0.54587877
3.3078613 6.3846087 -0.5475837
2.7427537 6.3865228 -0.52930343
2.0404785 6.3889008 -0.51074219
1.872041 6.3894696 -0.50702888
1.7059569 6.3900309 -0.50365996
1.0603417 6.3922086 -0.49343467
0.90254879 6.3927407 -0.4916513
0.74582028 6.3932681 -0.49016556
0.58993161 6.3937922 -0.48897102
0.12553711 6.3953543 -0.4871169
-0.33775389 6.3969107 -0.48781919
-0.80484372 6.3984756 -0.49109945
-0.96224606 6.3990045 -0.49277931
-1.1208203 6.3995352 -0.49475867
-1.2624902 6.3088093 -0.48995695
-1.5826855 6.3098807 -0.49539831
-1.7477343 6.3178458 -0.49919021
-2.1061425 6.3954129 -0.51275808
-2.278789 6.3959904 -0.51706135
-2.454453 6.3965764 -0.52174604
-2.8160448 6.3977814 -0.53231573
-3.0026073 6.3984027 -0.53823972
-3.3890429 6.3996892 -0.55147141
-3.5897264 6.4003568 -0.55883068
-4.0081935 6.4017487 -0.57518291
-4.4529686 6.4032254 -0.59394342
-4.6866894 6.4040008 -0.60432953
-18.126186 -1.3580303 -1.7967361
-18.043407 -2.2312069 -1.7971151
-17.987261 -2.666276 -1.7974095
-17.845634 -3.5323274 -1.798207
-17.665064 -4.3915977 -1.7992816
-17.321703 -5.6642404 -1.8014109
-15.406177 -6.742692 -1.6623129
-15.248452 -7.1167808 -1.6633409
-15.082197 -7.4874477 -1.66443
-14.907466 -7.8545327 -1.6655802
-14.72435 -8.217844 -1.6667905
-14.532881 -8.5771894 -1.6680608
-14.125273 -9.2832909 -1.6707791
-14.495195 -11.106617 -1.805051
-14.212002 -11.444194 -1.80365
-13.528691 -12.014433 -1.7884768
-12.871582 -12.592455 -1.7799195
-12.194921 -13.140134 -1.7720289
-11.849609 -13.402483 -1.7683343
-11.499853 -13.657139 -1.7648067
-10.181797 -14.776313 -1.7737511
-9.9525194 -15.216475 -1.7972523
-9.6977148 -15.637893 -1.8188577
-9.4100485 -16.024626 -1.8368936
-8.7302046 -16.658363 -1.8590475
-8.340517 -16.893932 -1.8623335
-7.9423242 -17.115591 -1.8651
-6.2947264 -17.91077 -1.8765762
-5.8700585 -18.085939 -1.8795412
-5.0069141 -18.406933 -1.8855758
-4.5688281 -18.552504 -1.8886428
-3.680742 -18.81308 -1.8948686
-3.2312012 -18.927874 -1.898024
-2.7783301 -19.032166 -1.9012054
-0.47183594 -19.392469 -1.9174495
-0.0038867188 -19.43166 -1.920753
0.18706055 -7.8171821 -0.77292329
0.38093749 -7.9215355 -0.78392154
1.4086034 -19.481853 -1.9307412
1.8814257 -19.475908 -1.9340899
2.8284276 -19.429724 -1.9408054
3.3020411 -19.389357 -1.9441682
5.190547 -19.112167 -1.9576041
6.1271677 -18.903833 -1.9642843
6.5925584 -18.782261 -1.967608
7.0555859 -18.649065 -1.9709176
7.5159764 -18.504332 -1.9742113
7.9733591 -18.348017 -1.9774867
8.8781052 -18.000937 -1.9839742
10.63873 -17.170591 -1.9966357
11.489785 -16.688662 -2.0027752
11.906914 -16.431288 -2.0057893
13.12124 -15.595318 -2.0145845
13.896962 -14.986106 -2.020221
16.36294 -12.548118 -2.0382571
16.679991 -12.163672 -2.0405929
17.849892 -10.544485 -2.0492592
16.682617 -9.3195143 -1.8888818
17.144003 -8.5195599 -1.8923379
17.131416 -8.0039339 -1.8690861
17.564384 -7.6956048 -1.8955092
17.758701 -7.2753024 -1.8969847
17.942274 -6.8498468 -1.8983852
20.426386 -4.5664086 -2.0689173
20.539745 -4.0741291 -2.0698361
20.728027 -3.0810127 -2.0714047
20.913399 -1.575267 -2.0730739
20.949072 -1.0704821 -2.073446
20.971611 -0.56487912 -2.0737255
20.981014 -0.058806151 -2.0739119
20.977295 0.44737488 -2.0740056
20.93038 1.4585863 -2.0739133
20.830976 2.4658802 -2.0734482
20.7617 2.9671533 -2.0730765
19.77454 4.3044257 -2.0004227
18.621464 5.0052643 -1.9060035
18.487099 5.4506059 -1.9051579
18.184179 6.3295135 -1.9032217
18.017303 6.7630033 -1.9022812
15.713573 6.3348684 -1.6747044
14.513926 6.262393 -1.5624963
13.789501 6.3486724 -1.5005673
12.962969 6.3515167 -1.4268898
11.529756 6.3564434 -1.3013992
10.902998 6.3585978 -1.247611
9.791543 6.3624148 -1.1542412
9.1487007 6.2636847 -1.0959579
8.7170897 6.2823172 -1.0621101
7.9722071 6.3515081 -1.0075461
7.2303219 6.3540506 -0.95145214
6.5652146 6.3563285 -0.90326917
6.2569432 6.3573833 -0.88170612
5.1538281 6.3611541 -0.80925101
4.6654005 6.3628216 -0.77989346
4.4339747 6.3636112 -0.76665282
3.531328 6.2829022 -0.71241498
3.003623 6.3854961 -0.69752377
2.6359179 6.386745 -0.68295896
1.9408593 6.389101 -0.66003418
1.7738378 6.3896661 -0.65548038
1.6090235 6.3902249 -0.65136534
1.1254394 6.3918557 -0.64152968
0.81003904 6.3929205 -0.63696802
0.49835935 6.3939714 -0.63393593
-0.42907226 6.3970866 -0.63374913
-0.58442384 6.3976068 -0.63501221
-1.0555371 6.3991852 -0.64108229
-1.1975487 6.3084598 -0.63470274
-1.3561035 6.3089895 -0.6378637
-1.5163379 6.3095255 -0.64143002
-1.6804589 6.3174896 -0.64617443
-2.0360253 6.3950434 -0.66339016
-2.5594628 6.3967862 -0.68103421
-2.7405372 6.397388 -0.68793929
-2.9254198 6.3980021 -0.6953935
-3.1144824 6.3986297 -0.70342487
-3.3080859 6.3992729 -0.71206445
-3.7104785 6.4006071 -0.73129886
-3.9201856 6.4013028 -0.74197125
-4.1362205 6.4020195 -0.75340313
-4.5896091 6.4035187 -0.77875352
-4.8282228 6.4043083 -0.79278833
-5.0757422 6.4051261 -0.8078168
-5.6008396 6.4068608 -0.8411662
-6.1725192 6.4087467 -0.87952346
-6.4408689 6.3722906 -0.89559096
-7.8699317 6.4103298 -1.0033201
-9.6444235 6.4161649 -1.145009
-10.739375 6.4197612 -1.2367588
-11.870488 6.3396869 -1.3302138
-12.775918 6.4320621 -1.4138691
-13.587753 6.4347234 -1.4860997
-15.400269 6.8432217 -1.6657878
-15.689394 6.0835452 -1.6633478
-15.821796 5.6997662 -1.6623194
-15.945405 5.3133259 -1.6613528
-17.756714 4.0667691 -1.8006376
-17.985058 2.7690716 -1.7987133
-18.041592 2.3337493 -1.7982101
-18.125103 1.460174 -1.7974118
-18.1521 1.0223383 -1.7971168
-18.169174 0.58406675 -1.796892
-18.173769 -0.29294005 -1.7966517
-18.106674 -1.6065445 -1.7968153
-18.0646 -2.0430956 -1.7970097
-18.01269 -2.4786541 -1.7972741
-17.950981 -2.9130108 -1.797608
-17.879492 -3.3459537 -1.7980114
-17.707304 -4.2068281 -1.7990265
-17.496328 -5.0596452 -1.800318
-17.246914 -5.9027929 -1.8018838
-16.475145 -6.0864673 -1.7360892
-15.471601 -6.5802374 -1.6618882
-15.155 -7.3279171 -1.6639525
-14.983931 -7.6965799 -1.6650763
-14.616543 -8.4226093 -1.6675051
-14.420381 -8.7796249 -1.6688092
-14.215986 -9.1323872 -1.6701727
-14.003457 -9.480751 -1.6715949
-14.888242 -10.612402 -1.8072554
-14.615244 -10.958982 -1.8056908
-14.335088 -11.299287 -1.8042407
-13.343984 -12.181785 -1.7859771
-12.681201 -12.751208 -1.7776092
-10.942656 -14.040952 -1.7596109
-10.58208 -14.275687 -1.7565114
-9.8111029 -15.458971 -1.809832
-9.2323732 -16.227673 -1.8454831
-8.8912497 -16.544336 -1.8565533
-8.5105762 -16.795519 -1.8611529
-7.7134471 -17.237608 -1.8666916
-7.306416 -17.445089 -1.869524
-6.894043 -17.64333 -1.8723965
-6.0539255 -18.011545 -1.8782572
-5.6264453 -18.180944 -1.8812432
-4.7584081 -18.490919 -1.8873153
-4.3179784 -18.630718 -1.8904003
-3.8736522 -18.76034 -1.8935152
-3.4256639 -18.879622 -1.8966588
-2.5194628 -19.086699 -1.9030252
-2.0617969 -19.17433 -1.9062446
-1.6013379 -19.251152 -1.9094863
-0.20603515 -19.416079 -1.9193255
0.26284179 -19.448925 -1.9226373
0.29662108 -7.8773117 -0.77919853
2.1504591 -19.467424 -1.935997
2.6240039 -19.443556 -1.939355
4.5163965 -19.23271 -1.9528025
5.9256835 -18.952726 -1.9628463
6.8560543 -18.70796 -1.9694909
7.3176074 -18.568214 -1.9727919
8.2319527 -18.25403 -1.9793396
8.6841307 -18.079699 -1.9825822
9.1325388 -17.893955 -1.9858009
10.452333 -17.268827 -1.9952929
11.307979 -16.796343 -2.0014625
11.727588 -16.543688 -2.0044932
12.141386 -16.28023 -2.0074852
12.950205 -15.721402 -2.0133438
13.3446 -15.426326 -2.016206
13.732012 -15.120981 -2.019021
14.849179 -14.145203 -2.0271616
15.205595 -13.800573 -2.0297668
15.553584 -13.446587 -2.0323141
15.89289 -13.083458 -2.0348024
16.223204 -12.711387 -2.0372293
16.544296 -12.330606 -2.0395925
16.577793 -9.4887667 -1.8880997
16.817812 -9.0947142 -1.8898922
17.267714 -8.2877131 -1.8932687
18.041777 -6.6057873 -1.8991474
18.205557 -6.1719403 -1.9001586
19.702021 -6.1534944 -2.0402539
20.098183 -5.7489195 -2.066313
20.242109 -5.2652893 -2.0674467
20.373535 -4.7778549 -2.0684927
20.598427 -3.7929406 -2.0703182
20.691719 -3.2961648 -2.0710964
20.77212 -2.7969708 -2.0717843
20.935253 -1.2884533 -2.0732965
20.980478 0.22893798 -2.0739763
20.94496 1.2406292 -2.0739648
20.856836 2.2490156 -2.07358
20.524405 4.2443328 -2.0716994
18.793671 4.3616986 -1.9070703
18.675917 4.8119745 -1.9063433
18.405634 5.7020769 -1.9046408
16.193651 6.3332157 -1.7187489
15.11746 6.3369193 -1.6202824
13.97168 6.2570734 -1.513229
13.309502 6.3503242 -1.4576751
12.528203 6.3530107 -1.3884921
10.017118 6.36164 -1.1729589
9.5051756 6.363399 -1.1306645
8.144043 6.3509183 -1.0208485
7.7525682 6.3522601 -0.9907037
7.0341501 6.354722 -0.9370181
5.8015723 6.3589411 -0.8508513
5.2641602 6.3607769 -0.81613201
4.0433006 6.2981744 -0.73979676
3.6177537 6.282608 -0.71661526
3.4190233 6.2832828 -0.70707399
3.277041 6.3845673 -0.70936614
2.7139647 6.3864799 -0.68591613
2.534121 6.3870893 -0.67921525
2.3576465 6.3876886 -0.67303342
1.6798925 6.3899822 -0.65308732
1.5162109 6.3905377 -0.64921623
1.3543652 6.3910847 -0.64576352
1.1941406 6.3916254 -0.64271909
1.0353222 6.3921609 -0.64007509
0.72113281 6.3932209 -0.63595223
0.5653711 6.3937454 -0.63446301
0.25557616 6.3947868 -0.6326046
0.10117187 6.3953071 -0.63223064
-0.053134765 6.3958259 -0.63222492
-0.82959962 6.3984294 -0.63775414
-0.98716795 6.3989553 -0.63999474
-1.2874902 6.3087616 -0.63645023
-1.6082617 6.3098321 -0.64364254
-1.7736523 6.317801 -0.64863503
-1.9628711 6.3947978 -0.66120952
-2.1331542 6.3953667 -0.66639602
-2.3062596 6.3959441 -0.67205977
-3.0323632 6.3983574 -0.69988674
-3.6217871 6.4003143 -0.72691631
-4.0421872 6.4017057 -0.74837315
-4.2620802 6.4024343 -0.76026028
-4.4891992 6.4031878 -0.77298737
-4.967783 6.4047699 -0.80120504
-5.2207127 6.4056058 -0.81683058
-5.4838767 6.4064736 -0.83357376
-5.7582126 6.4073796 -0.85152406
-6.0447655 6.4083257 -0.8707794
-6.3447752 6.4093146 -0.89145964
-6.5680566 6.3222566 -0.90112942
-8.0950775 6.4110708 -1.0207162
-8.510849 6.4124384 -1.0533262
-8.9543457 6.413897 -1.0887401
-9.9387884 6.4171319 -1.169396
-11.083623 6.4208903 -1.2661408
-13.227441 6.4335427 -1.4539372
-14.08749 6.4363627 -1.5309565
-15.62955 6.248301 -1.6638105
-15.765727 5.8657217 -1.6627558
-15.893139 5.480413 -1.6617624
-16.522217 4.3896465 -1.6898215
-17.716606 4.252193 -1.8009655
-17.806738 3.8220024 -1.8002255
-17.887094 3.3900621 -1.7995542
-18.110424 1.6489489 -1.7975603
-18.176117 -0.103703 -1.79668
-18.149761 -0.98027158 -1.7966588
-18.08396 -1.854808 -1.7969174
-18.036303 -2.2908225 -1.7971513
-17.978798 -2.7257166 -1.7974554
-17.911568 -3.1593041 -1.7978287
-17.834536 -3.5913653 -1.7982717
-17.651283 -4.4501114 -1.7993654
-17.545147 -4.8763919 -1.8000158
-17.303959 -5.7217536 -1.801523
-16.991289 -6.0768633 -1.7837167
-15.835673 -6.0983191 -1.6773622
-15.385121 -6.7940955 -1.6624497
-15.226201 -7.1677227 -1.6634862
-15.058779 -7.5379162 -1.6645838
-14.305204 -8.9806919 -1.669577
-14.456865 -11.153204 -1.8048522
-14.172714 -11.489888 -1.803467
-8.6679878 -7.7491345 -1.1492742
-12.489277 -12.907516 -1.7753525
-12.14792 -13.176487 -1.7715136
-11.801991 -13.4378 -1.7678416
-11.45165 -13.691398 -1.7643368
-10.738194 -14.175339 -1.7578294
-10.375361 -14.405543 -1.7548254
-10.151513 -14.837011 -1.7770013
-9.919385 -15.275683 -1.8003689
-9.6599798 -15.692458 -1.821485
-9.0430269 -16.414577 -1.8524587
-7.4827437 -17.356684 -1.8682966
-6.6573048 -17.751858 -1.8740469
-6.236865 -17.935324 -1.8769799
-5.8115721 -18.109167 -1.8799498
-5.3816209 -18.273266 -1.8829547
-4.947197 -18.427458 -1.8859937
-4.5085545 -18.571621 -1.8890651
-4.0658789 -18.705656 -1.8921673
-3.6194627 -18.829416 -1.8952984
-2.7160938 -19.045614 -1.9016429
-1.3384668 -19.289986 -1.9113382
-0.4078711 -19.398462 -1.9179009
0.060283203 -19.436127 -1.9212064
1.4732813 -19.481686 -1.9311992
1.9462011 -19.474213 -1.9345489
3.3668456 -19.382927 -1.9446282
3.8400683 -19.329433 -1.9479913
6.6560841 -18.764734 -1.9680618
7.1187496 -18.629948 -1.9713693
8.0357323 -18.325727 -1.9779334
8.4893942 -18.156328 -1.9811856
9.385644 -17.783278 -1.9876189
9.8276272 -17.579765 -1.9907963
10.265049 -17.364965 -1.993944
11.125166 -16.902033 -2.0001431
11.547177 -16.654045 -2.0031896
11.963545 -16.395254 -2.0061986
12.373837 -16.125702 -2.0091674
13.175234 -15.554942 -2.0149765
13.948984 -14.942934 -2.0205994
8.6587887 -8.0246906 -1.1669289
15.747548 -13.241273 -2.033736
17.028711 -11.716396 -2.0431676
17.32498 -11.314322 -2.0453603
17.611153 -10.904402 -2.0474837
17.887011 -10.486887 -2.0495358
16.949823 -8.8678503 -1.8908807
17.591572 -7.6384254 -1.8957155
17.966572 -6.7912579 -1.898571
19.029989 -6.1618009 -1.9772018
20.318359 -4.9886746 -2.0680521
20.442627 -4.4992328 -2.0690479
20.554247 -4.0065336 -2.0699549
20.653057 -3.5109034 -2.0707719
20.739023 -3.0127065 -2.0714986
20.872061 -2.0100207 -2.0726781
20.919043 -1.5062524 -2.0731301
20.981298 0.010459594 -2.0739305
20.95706 1.0224835 -2.0739987
20.925224 1.5276721 -2.0738931
20.880293 2.0318298 -2.0736945
20.75123 3.0356066 -2.0730188
20.667196 3.534508 -2.072542
20.570272 4.0309477 -2.0719733
19.489052 4.3097367 -1.9729669
18.728184 4.6180425 -1.9066675
18.60376 5.0664349 -1.9058927
18.467802 5.5112724 -1.9050356
10.82124 6.35888 -1.2406518
9.0845509 6.2639055 -1.0907428
8.6569824 6.2825236 -1.0573007
8.3204975 6.3503132 -1.0346237
7.9186621 6.3516912 -1.0034227
6.5221386 6.3564763 -0.90022427
5.9236913 6.3585234 -0.85900295
5.6442285 6.3594794 -0.84048712
5.1192284 6.3612723 -0.80711055
4.6332517 6.3629313 -0.77802795
4.1800585 6.3644767 -0.75265837
3.9226367 6.2985859 -0.73345596
3.7052147 6.28231 -0.72094142
3.5041211 6.2829947 -0.7111122
2.9779394 6.3855839 -0.69645429
1.7511523 6.3897429 -0.65489072
1.4240136 6.3908486 -0.6472038
1.2631152 6.3913922 -0.64398372
1.1037109 6.3919306 -0.64116871
0.94562501 6.3924637 -0.6387468
0.013466797 6.3956013 -0.632182
-0.14086914 6.3961201 -0.63238567
-0.29539061 6.3966389 -0.6329574
-0.76191407 6.3982024 -0.63690645
-1.0772558 6.3992572 -0.64144254
-1.2191601 6.3085346 -0.63511288
-1.3779199 6.309063 -0.63832688
-1.7028222 6.317564 -0.64675552
-2.0593359 6.3951201 -0.66410023
-2.5840333 6.3968682 -0.6819464
-2.7656054 6.397471 -0.68892574
-3.5341797 6.4000225 -0.72266579
-3.7388279 6.4007025 -0.73271638
-3.9493651 6.4013996 -0.74348921
-4.166328 6.4021182 -0.75503063
-4.3902636 6.4028583 -0.76738816
-4.6217771 6.4036245 -0.78061956
-5.1103611 6.405241 -0.80995542
-5.3689942 6.4060955 -0.82620597
-7.9234276 6.4105058 -1.0074354
-8.3281736 6.4118376 -1.0389246
-10.245976 6.4181414 -1.195074
-11.444668 6.4220767 -1.2972037
