# .PCD v0.7 - Point Cloud Data file format
VERSION 0.7
FIELDS x y z
SIZE 4 4 4
TYPE F F F
COUNT 1 1 1
WIDTH 1562
HEIGHT 1
VIEWPOINT 0 0 0 1 0 0 0
POINTS 1562
DATA ascii
-18.518686 -8.3231134 5.4401946
-18.553671 -8.8828468 5.5118361
-10.444951 -7.768837 3.4879923
-2.9051659 -7.3500414 2.117697
-2.6967676 -7.9206018 2.2419579
-1.9911327 -6.9265842 1.9311343
-1.8474609 -7.0643187 1.9565371
-1.713125 -8.1355362 2.227715
-1.4452734 -7.791182 2.123256
-1.2017676 -7.4806042 2.0301206
-1.0983593 -8.0764256 2.183991
-0.70683593 -8.1118183 2.1817908
-0.47558594 -7.5638781 2.0307367
-0.28269529 -7.3076196 1.9595345
0.086923823 -9.0715647 2.4308307
1.7815233 -21.688644 5.8310285
2.3095703 -21.689613 5.8445663
3.3745701 -21.691566 5.8821473
3.9128222 -21.692551 5.9062982
4.4538574 -21.683859 5.9314661
7.2666698 -21.694767 6.1305184
8.4535933 -21.701654 6.2405472
9.0628901 -21.702868 6.3019428
9.6847363 -21.704102 6.36831
10.320136 -21.70536 6.4398685
6.8704004 -8.0061417 2.8268421
15.329678 -8.3691587 4.6798539
15.66623 -7.5961566 4.6651835
16.149609 -7.3547759 4.7548914
17.659882 7.8233109 5.1754847
17.258348 8.149003 5.1139479
16.718487 8.9043741 5.0754695
16.120888 9.0919514 4.9592075
15.380664 9.1703863 4.7981677
15.243818 9.5946846 4.8262992
15.647344 10.383918 5.0319209
15.282246 10.681396 4.9959383
15.729824 11.568918 5.2319922
13.403486 11.439721 4.7216926
12.327305 11.594248 4.534514
16.673115 16.457493 6.2773447
16.123857 16.70215 6.220459
12.6125 14.393869 5.1279831
12.106269 14.507756 5.0630116
11.471875 14.441948 4.941999
11.519765 15.243235 5.1195889
11.000049 16.11643 5.2283769
11.264414 19.378944 6.0060706
7.8370018 24.515162 6.8963041
6.5016794 24.326548 6.7470694
5.8576856 24.247402 6.6839714
5.2269626 24.177734 6.628067
4.6079297 24.117189 6.5790768
3.9989257 24.065399 6.5367227
3.3984082 24.022104 6.5007954
2.8051171 23.987074 6.4711161
2.2175879 23.960121 6.4475346
1.054541 23.92989 6.4182162
0.4765332 23.926447 6.4123416
-0.10075195 23.930719 6.4122691
-1.8408788 23.990221 6.4470568
-3.0204394 24.06971 6.5000372
-19.466816 -6.3463359 5.4863062
-17.977398 -7.3375731 5.2028089
-17.2265 -8.0210028 5.0916591
-17.675922 -9.2927217 5.3508902
-3.0684373 -7.0350633 2.0565386
-2.9564941 -7.2509103 2.0981712
-2.7758105 -7.8742819 2.237164
-2.5979881 -7.9787369 2.2483749
-2.0136425 -6.7315111 1.882673
-1.9615136 -7.1840739 1.9954281
-1.8379296 -7.4327054 2.0515716
-1.5612597 -7.9395838 2.1681447
-1.3075098 -7.6152029 2.0703454
-0.98477536 -8.0458717 2.1719713
-0.79518551 -8.1160955 2.1851125
-0.20463866 -8.0891953 2.1681876
1.0219433 -21.689192 5.8180542
2.0740137 -21.689182 5.8381076
2.6034667 -21.690153 5.8535757
3.1360936 -21.69113 5.8725486
4.2132521 -21.6931 5.9212646
5.8676658 -21.689362 6.0205569
7.0079393 -21.693771 6.1085968
7.5926461 -21.699936 6.1601291
8.1858206 -21.701122 6.2147312
8.7899408 -21.702326 6.2739902
12.011933 -21.705486 6.6471691
12.706191 -21.706963 6.7395506
14.304336 -9.4300671 4.5907807
15.226885 -8.526742 4.6761799
17.277391 7.9320278 5.0940356
17.235615 8.4220133 5.1401353
16.636309 8.6323605 5.0220594
15.902724 9.2514238 4.9297237
15.492793 11.717092 5.2048187
15.071582 11.98082 5.1589289
14.657803 12.24041 5.1169105
12.981396 11.383074 4.6262279
12.526123 11.530036 4.5617952
12.387343 11.967024 4.6150775
14.94292 15.899101 5.8464036
12.77541 14.267446 5.1315675
12.397588 14.536349 5.1192002
11.75126 14.471533 4.99506
11.318067 15.400283 5.1210332
10.690273 16.121515 5.1831737
11.032939 17.542828 5.5529294
11.565801 19.414091 6.0551496
6.7933593 24.364981 6.7775903
6.1428614 24.281467 6.711175
5.5064259 24.207632 6.6521082
3.6649902 24.040358 6.5160203
3.0686717 24.001682 6.4835844
2.4787304 23.971144 6.4572959
1.3126074 23.93392 6.4227104
0.73394531 23.927031 6.4142442
0.15645507 23.92787 6.4115911
-0.99968749 23.952763 6.4237089
-1.5808203 23.976913 6.4385405
-2.1656933 24.008997 6.4593072
-2.7556348 24.04917 6.4861202
-19.426893 -6.6221066 5.4995303
-18.857128 -7.9925666 5.4878726
-17.870522 -9.1512318 5.379714
-2.8924901 -7.3745842 2.1225715
-2.4987109 -8.0374269 2.2552929
-1.985459 -6.97579 1.9433935
-1.8803418 -8.0657129 2.2191532
-1.692627 -8.1441669 2.2288527
-1.417666 -7.7558875 2.1126151
-1.1765918 -7.44874 2.0206289
-0.87249023 -8.0160608 2.1605825
-0.68528318 -8.1107874 2.1810219
-0.45388672 -7.535037 2.0226667
-0.26251954 -7.280848 1.9521643
0.11083984 -9.0768909 2.4323282
0.78834957 -21.688868 5.8153582
2.3671875 -21.689722 5.846251
2.8983202 -21.690695 5.8636584
3.4329588 -21.691671 5.8846054
3.9716601 -21.692657 5.9091449
5.6178708 -21.688393 6.0031762
6.7509961 -21.69278 6.0875344
7.3301463 -21.695011 6.1360006
7.9202247 -21.70059 6.1898351
8.5193748 -21.701786 6.2469993
9.1300287 -21.703003 6.3089314
10.390185 -21.705498 6.4479871
14.755888 -21.981083 7.0938549
6.8977442 -7.9953713 2.8294322
14.550996 -9.3158541 4.6295314
15.74208 -7.1193132 4.6293831
17.645683 7.8725824 5.1773705
16.555859 8.3659916 4.9703398
16.103916 9.1382685 4.9613581
15.629863 10.431611 5.0351019
14.841298 12.125227 5.1351652
13.188505 11.31625 4.6564155
11.910498 11.818408 4.495923
16.263144 16.935322 6.2913632
12.572734 14.424748 5.1271954
11.404404 14.43465 4.929244
11.509755 16.108347 5.3048105
11.78371 19.304901 6.0602469
10.534443 19.293116 5.8900013
9.8990326 19.217564 5.7923245
7.0882616 24.405434 6.8096466
4.5411329 24.111122 6.5741444
3.9330859 24.060276 6.5325022
2.7408788 23.983751 6.4682536
2.1538379 23.957668 6.4453287
1.5711132 23.939499 6.428369
0.99154294 23.929142 6.4172959
-0.74158204 23.944527 6.4189916
-1.3215137 23.965185 6.4312077
-1.9046191 23.993727 6.4493237
-2.4920409 24.030258 6.4734178
-3.0853612 24.074972 6.5036221
-19.458984 -6.4004312 5.4888201
-19.468515 -6.9283495 5.5370536
-19.201626 -7.3598261 5.5100498
-18.030884 -7.928546 5.2778106
-18.685663 -8.7602186 5.529727
-18.067314 -9.0082121 5.4094901
-3.0564356 -7.0581546 2.0609329
-2.9440429 -7.2749486 2.1028836
-2.5785546 -7.9902081 2.2496932
-1.955459 -7.2367444 2.0086236
-1.8359473 -7.5092211 2.0713527
-0.54372066 -7.65449 2.0561819
-0.34609374 -7.3917966 1.9827942
0.55503905 -21.688547 5.813334
1.0791016 -21.68927 5.8188162
2.1315527 -21.689289 5.8396235
2.6613476 -21.69026 5.8554711
3.1942675 -21.691235 5.874826
4.8170214 -21.685278 5.9521818
6.4958496 -21.691793 6.0673161
7.0709958 -21.694014 6.1138783
7.6567869 -21.700064 6.1658607
8.2511225 -21.701252 6.2209616
9.4739351 -21.703686 6.3454022
10.104688 -21.704933 6.4151864
10.748047 -21.70278 6.4893064
12.782959 -21.707127 6.7500029
14.352451 -9.4077978 4.5982752
14.801542 -9.1994829 4.669672
15.291133 -8.5100393 4.6890335
15.062334 -7.9129667 4.5589914
15.659853 -7.7507334 4.6818724
18.533983 8.0311136 5.4123583
17.272686 7.9848647 5.0988116
16.656231 8.6983061 5.034955
16.173231 8.9491262 4.9527888
15.495273 9.0689945 4.8107877
15.701211 10.236968 5.0223398
15.875078 11.478195 5.2491169
15.446533 11.746028 5.1996317
13.541113 11.368354 4.7374878
12.477265 11.545811 4.5550418
16.797129 16.312765 6.2739568
14.907842 15.945524 5.8490558
12.735547 14.298381 5.1306348
12.325869 14.529404 5.1053314
11.190849 16.113361 5.2566948
6.7217188 24.355383 6.7699771
6.0729198 24.272963 6.7043896
4.20292 24.081877 6.5502567
3.5997069 24.035742 6.5121794
3.0040917 23.997959 6.4804196
2.4148242 23.968307 6.4548025
1.2494433 23.932791 6.4215021
0.093593746 23.928431 6.4116521
-3.4172657 24.103371 6.5230608
-4.0222559 24.161242 6.5630817
8.9177732 23.484098 6.1281638
8.2394924 23.382507 6.0480142
7.5806251 23.290478 5.9751563
6.9391403 23.207495 5.9091907
6.3131442 23.133093 5.8497577
5.7009277 23.066854 5.796535
3.359199 22.877207 5.6407971
2.7936132 22.847395 5.6151915
1.677539 22.80768 5.579021
0.57385743 22.793898 5.5623951
-1.6321484 22.84318 5.5868592
-2.1898534 22.871744 5.6051393
-3.3207617 22.949108 5.6568041
-3.8964062 22.998251 5.690434
-18.934145 -6.5704432 4.8892407
-18.853159 -7.5797024 4.9570608
-17.738808 -9.2071238 4.8756113
-2.9624317 -7.1576691 1.8897772
-2.8473144 -7.3783689 1.9293478
-2.7273536 -7.6090894 1.9718945
-2.6010449 -7.8477731 2.0168984
-2.4242089 -7.9516077 2.0279615
-1.9427637 -6.9710598 1.7654138
-1.7583398 -7.7342057 1.9349246
-1.0295117 -8.0599585 1.9822229
-0.83144528 -8.0499191 1.9742459
-0.40660155 -7.4297848 1.8152279
-0.057861328 -9.0102491 2.1981192
0.16039062 -9.0586433 2.2102263
0.90772456 -21.688803 5.2956791
1.4325 -21.688175 5.3024158
2.48791 -21.690115 5.3260541
3.0197949 -21.691088 5.3426304
3.5552733 -21.69207 5.3624411
4.095078 -21.693056 5.3855457
4.6380663 -21.685595 5.4099035
5.188623 -21.687746 5.4400897
6.3099999 -21.692108 5.5111866
7.4638085 -21.696577 5.5973692
8.0559177 -21.701385 5.6471143
8.657568 -21.702589 5.7001276
11.191591 -21.704662 5.9573689
11.86371 -21.706112 6.0345855
12.553877 -21.707598 6.1174326
14.010077 -21.734348 6.3082657
15.548467 -21.741507 6.5206585
16.358135 -21.745277 6.6382384
14.261279 -9.5095692 4.1816072
14.610039 -9.2409105 4.2172647
15.784141 -8.4515839 4.3678341
15.905771 -7.5533733 4.2955546
15.021328 -6.6942062 4.0119104
23.166483 -7.1308265 5.9132042
17.957266 8.6580343 4.8633237
16.579834 8.4927845 4.5444565
16.225721 8.8118267 4.5043612
15.831836 9.6145325 4.5186353
15.755088 10.096016 4.5649295
15.595038 10.532627 4.5908604
15.955302 11.345818 4.7761121
14.692089 12.13855 4.6492171
18.672314 16.200521 6.030673
17.341064 15.794587 5.7221408
16.603184 16.656799 5.7373753
16.231865 17.089628 5.7498832
12.468584 14.464966 4.6587977
10.745596 16.888388 4.8832321
8.5391502 23.426552 6.0827951
7.8719139 23.330336 6.0067453
7.2229199 23.243383 5.9377556
5.3668456 23.03352 5.7696009
4.7729001 22.979303 5.7255087
3.0448632 22.85984 5.6259708
2.4824512 22.833752 5.6031785
1.9247754 22.814264 5.5853729
0.26884764 22.7946 5.5611868
-0.28116211 22.800846 5.5627484
-0.83205074 22.813484 5.569108
-1.9408593 22.8582 5.5963821
-4.2191696 23.028618 5.7114019
-19.560766 -7.6209884 5.1212788
-18.798212 -7.8513036 4.9697843
-18.512831 -8.2620754 4.9456019
-17.945761 -9.071023 4.9054103
-3.0122752 -7.0622849 1.8730344
-2.7814257 -7.5049815 1.9525528
-1.9114355 -7.2312832 1.8246779
-1.7693067 -7.4130063 1.8592181
-1.4342577 -7.6200681 1.8915771
-1.3191308 -8.0754986 1.9961489
-0.91948241 -8.0542755 1.9776242
-0.49434569 -7.5457363 1.8447467
3.3162205 -21.691633 5.3532128
3.8540039 -21.692617 5.3748407
6.0576172 -21.69113 5.4940805
6.6263375 -21.693336 5.5335259
9.616601 -21.704504 5.7913218
10.250479 -21.705763 5.8559504
10.897578 -21.704025 5.9247026
11.562129 -21.705463 5.999505
12.944892 -21.708431 6.1659117
16.800537 -21.722385 6.6992612
14.410917 -9.3333197 4.1885014
13.988798 -8.5881691 4.0044184
15.283525 -7.9223399 4.1995978
15.930614 -7.7760983 4.3245902
15.995556 -7.3354301 4.292922
16.381542 -7.0392966 4.3496637
16.355137 -6.5652294 4.299335
27.121883 10.399348 7.0861602
18.659258 8.2074652 4.9728699
16.139648 9.0467043 4.5136585
15.983427 9.4729528 4.5325794
15.418476 10.71644 4.5806723
14.875351 12.023278 4.6660385
15.28667 14.302124 5.106914
11.176728 15.469714 4.655798
10.98163 16.856548 4.9078741
11.908115 19.280098 5.5282364
11.418213 19.525253 5.5179214
10.750146 19.444563 5.4202366
8.8428802 23.472553 6.1190672
8.1668158 23.37203 6.0397344
7.5099411 23.281013 5.9676461
5.6350193 23.060123 5.7911062
5.036211 23.002533 5.7444487
4.4479198 22.952423 5.7034745
3.8687205 22.909531 5.6679678
2.7323632 22.844553 5.6127086
1.6172167 22.806265 5.5776162
1.0646484 22.796869 5.5674157
-1.1382812 22.823269 5.5747142
-1.6926757 22.845976 5.5886126
-3.3830957 22.954115 5.6602092
-3.9595897 23.004036 5.6944175
-18.739614 -6.0548553 4.8042836
-18.994297 -6.6472936 4.909266
-18.687456 -8.1002808 4.9687071
-17.219975 -8.4730473 4.6818585
-11.41038 -25.974562 6.9210119
-2.5818651 -7.8589969 2.0180328
-1.9367676 -7.0208068 1.7767184
-1.7794628 -7.1159434 1.7894064
-1.8066796 -8.0446348 2.0113919
-1.2996875 -7.4522014 1.8454257
-1.007871 -8.0588303 1.9812872
-0.80997068 -8.0488873 1.9734634
-0.38556638 -7.4020038 1.8081857
-0.034208983 -9.0154839 2.1993673
1.4897559 -21.68828 5.3033776
2.5456934 -21.69022 5.327704
3.0779297 -21.691196 5.3446326
5.2489548 -21.687981 5.4435906
5.8067675 -21.690153 5.4777069
6.3719625 -21.69235 5.5154862
8.1208982 -21.701515 5.6526818
8.7238083 -21.702723 5.7061644
9.9663181 -21.7052 5.8265586
11.263984 -21.704819 5.9655156
13.342256 -21.709282 6.2162952
14.091318 -21.734726 6.3191047
14.85041 -21.738256 6.4224386
16.444317 -21.740705 6.6500134
14.309101 -9.4872446 4.1883101
15.781962 -8.3971682 4.3611131
15.923301 -7.510498 4.2949476
14.938212 -6.6101995 3.985065
16.366787 -6.7750602 4.32129
18.056669 8.7645245 4.8964658
16.208838 8.8578701 4.5061202
15.774755 9.6366749 4.5095534
15.343847 10.421782 4.5249577
15.335849 14.73771 5.1887298
16.191298 17.136868 5.7514439
16.094473 17.879404 5.868598
12.428916 14.495776 4.6581879
12.065087 14.77846 4.6541214
11.212831 15.173423 4.6026349
10.706631 16.054468 4.7075763
10.973603 17.347187 5.0075388
11.691982 19.509167 5.5485711
10.389541 19.400692 5.3687835
8.4655666 23.415615 6.0741639
6.5222263 23.157211 5.8690577
5.9055762 23.088266 5.8137779
5.3016405 23.02725 5.7645226
2.9833202 22.856676 5.6232438
1.8643066 22.812536 5.5837302
1.3105273 22.800259 5.5713615
0.75913084 22.794418 5.5638413
0.20892578 22.79497 5.5611258
-0.34110349 22.801916 5.5632105
-0.89213866 22.81525 5.5700936
-2.5623436 22.894375 5.6200137
-18.859844 -6.3735218 4.8565278
-19.423697 -7.0905962 5.0443144
-18.893608 -7.9495392 5.0005136
-18.470463 -8.3014488 4.9400973
-3.0001757 -7.0854344 1.8770773
-2.8865917 -7.3030243 1.915711
-2.7683008 -7.5302396 1.9572222
-1.9050293 -7.2844772 1.836831
-1.766709 -7.4892402 1.8771662
-1.4072851 -7.5863442 1.8822814
-1.2964746 -8.0700579 1.9939548
-1.0966015 -8.0634832 1.9852148
-0.70089841 -8.0437231 1.9697223
-0.28100586 -7.2639465 1.7733843
0.086640626 -9.0422716 2.205987
1.7815429 -21.688816 5.3088636
2.8403516 -21.69076 5.3366919
3.3745799 -21.691738 5.3554058
4.4540524 -21.684875 5.4005194
5.0026269 -21.687019 5.4295382
5.5573926 -21.689184 5.462059
6.1191502 -21.69137 5.4981933
6.6887889 -21.693579 5.5380511
7.8558688 -21.700983 5.6302252
8.4537983 -21.702183 5.6818042
9.6849804 -21.704641 5.7981286
10.3204 -21.705902 5.8632865
11.635537 -21.705622 6.0079784
12.319443 -21.707094 6.0888953
13.7608 -21.733189 6.2752872
14.50914 -21.736668 6.3755236
15.282294 -21.740265 6.4828525
16.082344 -21.743994 6.5977607
14.459326 -9.3108482 4.1954489
13.493759 -8.2355003 3.8564961
15.318984 -8.849515 4.3158631
15.961924 -7.7395301 4.3275537
15.692158 -7.1464458 4.20644
16.378622 -6.9870987 4.3439951
16.352324 -6.5142722 4.2940798
23.130459 -7.9447398 5.9663134
27.150927 10.492405 7.1009202
18.13707 8.0347128 4.8393116
15.966348 9.5195923 4.5348125
15.64912 10.385095 4.5817981
15.252773 10.660798 4.5397487
15.669687 11.524685 4.745224
15.246172 11.7903 4.7017503
14.830449 12.05152 4.6618629
18.719814 15.977139 6.0039177
18.780859 16.828974 6.1519394
16.727753 16.511427 5.7339044
16.35708 16.943747 5.7453027
12.227099 14.652551 4.6555939
11.863604 14.935115 4.6530581
11.498545 15.215149 4.652513
11.137148 15.500545 4.6562576
11.344287 19.516361 5.5069633
8.0943651 23.36166 6.0315342
7.4394727 23.271645 5.9602113
6.8015428 23.19058 5.8957062
6.1786618 23.117977 5.8376412
3.8061523 22.905281 5.664423
2.6711915 22.841787 5.6102867
1.5568848 22.804932 5.5762725
-0.095986329 22.798027 5.561687
-1.1985253 22.82543 5.5759954
-2.311914 22.878847 5.609776
-3.445498 22.959208 5.6636791
-4.022871 23.009909 5.6984687
-19.262787 -6.7981334 4.9832644
-19.51479 -7.4211206 5.0932941
-18.644556 -8.1399603 4.9629726
-18.094908 -8.9626942 4.9261227
-2.8216014 -7.4277267 1.9383475
-2.7382324 -7.7677364 2.0092511
-2.5626562 -7.8702464 2.0191848
-1.5777637 -8.0234995 1.9948373
-1.3910351 -8.1016369 2.0053346
-0.98622066 -8.0577078 1.9803665
-0.78850585 -8.0478621 1.9726974
-0.56255859 -7.6359296 1.867853
-0.20523436 -8.1130075 1.979823
0.49802732 -21.68824 5.292304
1.0219433 -21.688959 5.2969546
2.0740235 -21.689352 5.3153086
3.6724803 -21.692286 5.3671899
4.7574997 -21.686062 5.4161825
5.3093848 -21.688217 5.4471316
5.8679395 -21.690393 5.4816418
7.5928221 -21.700453 5.6085887
8.1860352 -21.701645 5.6583009
8.7901564 -21.702854 5.7122531
10.035527 -21.705339 5.8336573
12.706758 -21.707922 6.1362557
13.421083 -21.709454 6.2264214
14.172783 -21.735104 6.3300128
15.722402 -21.742313 6.5455956
16.519911 -21.721827 6.657486
14.262265 -9.4023409 4.167356
14.708437 -9.1952667 4.2316546
14.08872 -8.3420668 3.9942915
14.495869 -8.1173973 4.0530133
15.779834 -8.3428698 4.3544483
15.83416 -7.8888912 4.3156576
16.363916 -6.723577 4.315856
16.619257 8.6235104 4.5676179
16.191942 8.9039984 4.5079145
15.717861 9.6587601 4.5005326
15.559941 10.628391 4.5969043
15.861073 11.404799 4.7657838
15.433867 11.672524 4.7206702
14.666914 12.24802 4.6615548
17.260946 15.888339 5.7231712
15.342304 14.821721 5.2040892
16.150682 17.184155 5.7530427
12.025488 14.809245 4.6538491
12.038574 19.14183 5.5164428
9.0751753 23.508635 6.1474833
7.729043 23.310621 5.9911284
7.0837989 23.22563 5.9236307
6.4544044 23.149303 5.8627353
5.8392382 23.08124 5.808125
3.4888475 22.884949 5.6473498
2.9218848 22.853594 5.6205773
2.360625 22.828953 5.5988812
1.8038183 22.810886 5.5821476
0.69917965 22.794168 5.5633121
-0.40104491 22.803047 5.5637207
-0.95228511 22.817089 5.5711331
-1.5057031 22.837599 5.5833859
-2.0624609 22.86466 5.6005421
-2.6237793 22.898386 5.6226768
-3.1907227 22.938908 5.6498818
-17.847393 -9.1393776 4.8915863
-10.423486 -7.7954898 3.1753113
-2.9880273 -7.1086874 1.8811529
-1.9550586 -6.8689661 1.7422537
-1.7059375 -8.2082033 2.045202
-0.67952144 -8.0427246 1.9690335
-0.45107421 -7.488565 1.8301662
-0.10722656 -8.9994211 2.1955886
0.11048828 -9.0475616 2.2073402
2.3671777 -21.689892 5.3227253
3.4330077 -21.691845 5.3576403
5.6181445 -21.689419 5.4658146
6.1807809 -21.691608 5.5023499
6.751318 -21.693821 5.5426226
7.9204102 -21.701113 5.6356363
8.5195608 -21.702314 5.6876798
9.7534466 -21.704777 5.8049841
11.040937 -21.704338 5.940546
13.100254 -21.708767 6.1854815
14.59208 -21.737053 6.3868566
16.171112 -21.744406 6.6107416
6.8968358 -7.9943218 2.5757027
14.507939 -9.2882881 4.2024546
13.607295 -8.2557716 3.8827279
15.726924 -8.0475702 4.3097506
15.86913 -7.6431127 4.296937
15.198876 -6.8736529 4.0693564
18.122675 8.085391 4.8411226
16.539053 8.3574991 4.5206199
15.949238 9.566267 4.5370746
15.200498 11.818976 4.6972361
18.704493 16.049196 6.0125079
15.305165 14.470974 5.1384187
16.687481 16.558437 5.7349858
16.316572 16.99095 5.7467461
16.329453 17.84671 5.901217
12.551601 14.40051 4.6601787
11.824081 14.965847 4.6529512
11.428223 15.204966 4.6402016
11.823388 19.369898 5.536087
11.270625 19.507492 5.4960833
10.607695 19.427259 5.3998008
6.7330174 23.182272 5.8890772
6.1116891 23.110573 5.8317008
4.3210449 22.942474 5.6952825
3.1737792 22.86673 5.6318774
2.6100781 22.839111 5.6079283
2.0513866 22.818127 5.5889955
1.4965723 22.803671 5.5749826
0.94458008 22.795671 5.5658336
0.39407226 22.794071 5.5615025
-1.2587793 22.827665 5.5773301
-2.9373338 22.919996 5.6371222
-3.5080371 22.964386 5.667212
-4.0862498 23.015873 5.7025876
-18.786596 -6.1792693 4.8245845
-19.606991 -7.5151916 5.1224942
-19.014874 -7.819396 5.0156345
-18.697826 -8.7659121 5.0377793
-18.046513 -8.9978399 4.9193654
-17.608452 -9.3164282 4.8598228
-11.255957 -25.993177 6.9101138
-2.8086619 -7.4525771 1.9429016
-2.7191796 -7.7788305 2.0102661
-2.5434766 -7.8814969 2.0203519
-2.366035 -7.9859281 2.0318947
-1.924541 -7.1223068 1.799819
-1.3671191 -8.0899286 2.0015392
-0.96460932 -8.056592 1.9794629
-0.34400389 -7.3471055 1.79431
-0.18373047 -8.1059122 1.9779665
0.013183594 -9.0259809 2.2019155
0.55502927 -21.688318 5.2926598
1.0790918 -21.689039 5.2976475
2.6613672 -21.690432 5.3311191
3.1942968 -21.691408 5.3487473
3.7311523 -21.692392 5.3696246
5.369863 -21.688454 5.4507141
5.9292283 -21.690632 5.4856215
7.0713377 -21.695061 5.566608
7.6569529 -21.700586 5.6138043
10.104941 -21.705475 5.8408117
11.409316 -21.705133 5.9820013
12.783515 -21.708088 6.1457691
13.514072 -21.73204 6.2430615
15.019072 -21.73904 6.4458952
15.809843 -21.742723 6.5581927
16.61038 -21.722006 6.670907
17.679071 -21.998949 6.8849478
18.572998 -22.002419 7.0242443
14.2108 -8.363965 4.0226536
15.630752 -8.211587 4.3073416
15.958506 -7.4248657 4.2938638
16.361065 -6.6721768 4.3104615
18.670029 8.0900631 4.9638166
18.0487 8.3436041 4.8507423
16.460508 8.0969458 4.4751148
16.019112 9.3755941 4.5280271
15.542343 10.676404 4.5999813
15.814179 11.434167 4.7606921
14.969541 11.964065 4.6749024
14.618203 12.272622 4.6562991
18.864033 16.629274 6.1347418
17.220839 15.935256 5.7237458
16.852148 16.366198 5.7307944
16.286797 17.420456 5.8178077
12.71413 14.274341 4.6632972
12.349609 14.557375 4.6570683
10.586611 16.056688 4.6918502
11.996435 19.186487 5.5202103
11.573691 19.543926 5.5410857
10.900195 19.462751 5.4419117
8.9997168 23.496826 6.1381879
7.657959 23.300932 5.9834466
7.0144629 23.216892 5.916676
5.1715918 23.01498 5.7545657
3.999912 22.918678 5.6755848
3.4267969 22.881205 5.6441846
2.8604686 22.850578 5.6179638
2.2997851 22.82667 5.5968194
0.63925779 22.793993 5.5628409
0.089169919 22.795937 5.5611701
-0.46104491 22.80427 5.5642967
-2.1233885 22.868002 5.6027026
-2.6851659 22.902458 5.6253834
8.4803219 22.332138 5.2605972
7.8403416 22.249794 5.1951213
7.217617 22.175171 5.1355381
6.6103415 22.107851 5.0815296
5.4357128 21.99374 4.9891567
4.3047071 21.905119 4.9161744
3.7522655 21.869795 4.8865047
0.022763671 21.777168 4.7957339
-0.50288087 21.785208 4.7987833
-1.0297461 21.798532 4.8057914
-1.5588379 21.81719 4.8167953
-2.0911913 21.841255 4.831841
-2.6278319 21.870832 4.8510008
-3.1698143 21.906036 4.8743548
-3.7183104 21.947018 4.9020114
-4.2744336 21.993952 4.934094
-16.101543 21.166378 5.8566265
-16.338194 20.435036 5.7616796
-15.905673 18.938679 5.4464049
-17.075209 19.362892 5.6852379
-27.35684 -8.7597666 6.3257828
-19.275639 -7.2144628 4.5324244
-18.72291 -8.0572748 4.4887118
-18.369476 -8.4360189 4.4514852
-2.9440625 -7.1132727 1.6953393
-2.8292871 -7.3316503 1.7306122
-2.3919044 -7.8456316 1.8062609
-1.8544922 -7.3340616 1.6659292
-1.6193163 -8.0122061 1.8001086
-0.82458007 -7.9834814 1.7674624
-0.60384762 -7.6475163 1.6893651
-0.40416014 -7.3851061 1.6287695
-0.27300781 -8.9347925 1.9685245
-0.057675779 -8.9818153 1.9780002
0.90771484 -21.688576 4.7804093
1.4325 -21.688345 4.7865796
1.9590527 -21.689312 4.7958288
3.5553124 -21.692242 4.8407631
4.0951171 -21.69323 4.8616233
4.6382909 -21.686598 4.8837953
5.1888671 -21.688757 4.9110489
6.3103027 -21.693134 4.9752369
6.8827634 -21.69536 5.0123777
8.0561132 -21.701904 5.097826
9.8975191 -21.705595 5.2534661
10.536523 -21.704155 5.3131108
11.864219 -21.707048 5.44771
13.264257 -21.710075 5.6026835
14.009736 -21.733818 5.6943951
14.766152 -21.737329 5.786983
15.548076 -21.740959 5.8861113
14.220117 -9.4821196 3.7638834
14.567178 -9.2137947 3.795794
15.530302 -7.8396459 3.8311069
15.757753 -7.4830747 3.8415523
16.309511 -6.8016009 3.8914659
23.155878 -7.7438188 5.3769474
26.646952 9.0867701 6.1999607
26.313467 9.6876831 6.1749597
26.387987 10.444614 6.2497697
18.355556 8.85007 4.4875393
16.227499 8.8128023 4.0665779
16.071991 9.2371988 4.0822721
17.873857 13.370808 4.9156275
17.690762 14.616037 5.0534811
18.841055 16.346924 5.493145
15.322939 14.648088 4.6682105
16.657207 16.711 5.1960349
14.523193 15.290681 4.6440959
10.996455 15.570058 4.1977396
10.723428 15.98846 4.2395473
12.12292 19.053049 4.9731541
11.195723 19.625862 4.9757595
8.1232224 22.285501 5.2235441
7.4930563 22.207493 5.1613774
6.8790917 22.136967 5.1049228
6.2796679 22.073547 5.0538874
2.9071875 21.826241 4.8489904
2.3706348 21.805317 4.8302255
1.8383496 21.789829 4.8155665
0.78245115 21.774855 4.7983174
0.25682616 21.775282 4.7956519
-0.79479492 21.791935 4.802175
-2.3881347 21.856968 4.8419495
-2.9276073 21.88965 4.8634262
-3.4730468 21.928036 4.8891506
-4.0256248 21.9723 4.9192452
-16.348017 19.895756 5.6707754
-16.497036 19.117626 5.5608344
-19.339443 20.339567 6.1806965
-18.774981 -6.2899375 4.3604512
-19.213223 -7.4855819 4.5408878
-18.900948 -7.8942122 4.5107908
-18.602211 -8.3019676 4.4859996
-2.4699218 -7.8000159 1.8017672
-1.881582 -7.1183691 1.6214343
-1.7115136 -7.1708646 1.6235117
-1.5093066 -8.018857 1.7969067
-1.3080859 -8.0079432 1.7868695
-1.1090332 -7.9975033 1.7780514
-0.91186523 -7.9876108 1.7704431
-0.71634763 -7.9784579 1.764071
-0.49132812 -7.4996233 1.6550939
-0.29945311 -7.2476306 1.5974237
0.67426759 -21.688257 4.7784634
2.2519629 -21.68985 4.8021803
3.3162498 -21.691801 4.8324342
3.8540137 -21.692787 4.8519578
4.3965235 -21.693781 4.8744893
5.4968944 -21.68996 4.9275336
6.05791 -21.69215 4.9597931
6.6266503 -21.694365 4.9954038
7.791533 -21.701368 5.0777349
10.250732 -21.706301 5.286356
10.898027 -21.704947 5.3485117
12.24459 -21.707872 5.4885359
12.945458 -21.709389 5.5662742
14.426143 -21.735752 5.7449512
15.196406 -21.739326 5.8411093
15.993398 -21.743029 5.9440613
16.801161 -21.723192 6.0477128
17.656219 -21.724901 6.1650028
6.8532519 -8.0287495 2.324609
14.368916 -9.3061171 3.7699795
14.702959 -9.0266132 3.7993703
15.570292 -8.0709877 3.862149
15.625546 -7.6271863 3.8290901
15.254667 -6.995667 3.6957641
16.000244 -6.8754492 3.8350906
26.461962 9.4206371 6.1856875
25.951445 11.415005 6.2434149
18.176367 9.0652971 4.4729838
16.296425 8.6247025 4.0603809
15.985214 9.4740047 4.0920563
15.827587 9.9041348 4.1116877
15.66833 10.338637 4.1339169
18.017714 13.178786 4.9159474
16.853184 12.962409 4.6821818
18.603613 16.582251 5.4881067
15.539072 14.538279 4.6861777
14.707783 15.155415 4.6507568
12.246377 14.597531 4.1960826
11.520888 15.161701 4.1934566
11.683476 17.933867 4.7135334
9.066699 22.412373 5.3241849
7.150732 22.16749 5.1293898
6.5450583 22.100945 5.0759721
5.9530077 22.041307 5.0278206
5.3731055 21.988283 4.9847016
4.803916 21.941584 4.9463949
4.2441602 21.900988 4.9127259
3.6925585 21.866301 4.8835406
2.6091113 21.813959 4.8380752
1.5446875 21.783556 4.8091879
1.0169824 21.776354 4.8007784
0.49094725 21.774445 4.7963519
-0.034453124 21.777784 4.7958736
-0.56018555 21.786402 4.7993536
-3.7784863 21.951834 4.9052839
-16.178692 21.152214 5.8644524
-17.220888 19.424974 5.7167306
-18.647167 20.038456 6.0279369
-27.350067 -8.8369265 6.3295751
-18.709194 -8.1097078 4.490519
-18.315634 -8.4696445 4.4438167
-17.68288 -9.2371559 4.3933945
-2.931787 -7.1366124 1.6990607
-2.6963184 -7.5852094 1.7727996
-2.5475976 -7.7546859 1.7975186
-1.8476465 -7.3886237 1.6772128
-1.3974609 -8.0127449 1.791187
-1.1974609 -8.0020971 1.7818301
-0.99950194 -7.9919128 1.7736758
-0.80328125 -7.9824839 1.7667673
-0.2496582 -8.9398842 1.969494
-0.034091797 -8.9869738 1.9791107
0.96484375 -21.688656 4.7809701
1.4897559 -21.68845 4.7874436
2.0165234 -21.689419 4.7970076
3.0779588 -21.691366 4.8246851
3.613867 -21.692348 4.8428922
4.1541896 -21.693336 4.8640747
5.2491989 -21.688992 4.9142075
5.8070407 -21.691172 4.9450116
6.3722558 -21.693373 4.9791164
6.9456444 -21.695604 5.0166349
7.5290332 -21.70084 5.0583839
8.1210938 -21.702034 5.1028538
8.7240133 -21.703243 5.1511364
9.9665718 -21.705732 5.2598219
10.607148 -21.704309 5.3199492
11.264453 -21.705744 5.3853593
11.938486 -21.707209 5.4556046
16.440809 -21.736067 6.0017462
17.271172 -21.724133 6.1117444
19.054688 -21.72769 6.3641858
14.616045 -9.1910439 3.8022227
13.892197 -8.2750645 3.5609381
15.236259 -8.5846529 3.8512435
15.229365 -8.103138 3.79897
26.610596 9.1524954 6.1970763
26.074629 11.136265 6.2438974
18.320263 8.8924751 4.4846158
16.210625 8.8588476 4.0681691
16.054979 9.2836323 4.0841346
15.739491 10.144484 4.1236868
15.41248 10.468396 4.1029925
18.078388 12.927182 4.8943019
17.33078 13.702578 4.8653626
18.794315 16.393141 5.492064
16.616737 16.758247 5.1971269
14.492822 15.33919 4.6472473
13.316054 14.792858 4.3831
12.045097 14.753967 4.1943617
11.682412 15.03603 4.1931825
10.956923 15.600866 4.1982727
12.080878 19.097605 4.9764776
8.6999702 22.361668 5.2840209
8.0537891 22.276636 5.2164903
7.4254293 22.199457 5.1549602
5.6300683 22.011116 5.0033083
4.4924607 21.918331 4.9271641
3.9373827 21.881037 4.8959999
3.3897948 21.849541 4.8692322
2.3124804 21.803364 4.8284278
1.2518262 21.778906 4.804029
0.19958983 21.775644 4.7955952
-0.32584959 21.781912 4.7973142
-1.9115624 21.832544 4.8263197
-2.4466209 21.86026 4.8440895
-4.0862794 21.977468 4.9227848
-15.900058 19.247301 5.4978442
-16.635849 19.176334 5.5906119
-17.991167 19.755075 5.8841796
-19.514473 20.416 6.2194738
-27.318163 -7.0779409 6.2146058
-19.327593 -7.0555096 4.5310206
-19.173641 -7.5282559 4.5361938
-17.880487 -8.0362864 4.3170295
-17.877476 -9.0955868 4.4171982
-10.445107 -7.7689495 2.8667049
-2.8684375 -7.2571106 1.7184588
-2.6249511 -7.709671 1.7935214
-2.4508886 -7.8111463 1.8028439
-1.6842577 -7.9984922 1.8000426
-1.2862988 -8.0067835 1.785849
-0.89049804 -7.9865932 1.7696929
-0.69512695 -7.9774871 1.7634469
-0.4697656 -7.471293 1.6485645
0.086367182 -9.013483 1.9850253
1.7815624 -21.688986 4.7923989
2.8403809 -21.690929 4.8175201
3.9128807 -21.692896 4.8542662
4.4542675 -21.685877 4.8753247
5.5576563 -21.690199 4.9308858
6.6891112 -21.694609 4.9994912
7.2673731 -21.696852 5.0389509
7.8560643 -21.701498 5.0825782
8.4539843 -21.702702 5.1291442
9.6852245 -21.70517 5.234158
10.969589 -21.705099 5.3556333
11.636015 -21.706553 5.4236932
12.319981 -21.708035 5.4967422
13.760468 -21.732662 5.664629
15.281914 -21.739723 5.8519902
16.081953 -21.743439 5.9557109
16.892694 -21.723375 6.060092
17.751387 -21.725092 6.1782727
6.8686032 -8.0040522 2.3226802
15.081748 -8.7124672 3.8356347
15.598544 -7.563334 3.8175926
15.166288 -6.9069552 3.6699407
15.7383 -6.7139373 3.7680612
16.292694 -6.4905229 3.8621771
18.139442 12.678411 4.8736558
16.747881 12.951613 4.6623526
17.735243 14.412024 5.0325828
15.346601 14.433987 4.6395497
12.206836 14.628262 4.1956844
11.481386 15.192441 4.1936007
11.118691 15.474843 4.196279
11.837714 18.275393 4.7951088
11.424423 19.654209 5.0062995
8.3393745 22.313524 5.2458167
7.0840626 22.159895 5.1233082
5.3106251 21.982893 4.9802999
4.7425098 21.936872 4.9425087
4.183701 21.896921 4.9093294
3.6329198 21.862864 4.8806214
3.0889452 21.834517 4.8562379
0.95962888 21.77589 4.8001041
-0.09169922 21.778473 4.7960649
-0.61750972 21.787653 4.7999678
-1.1448047 21.802137 4.8078461
-1.6745019 21.821968 4.819726
-2.2076659 21.847225 4.8356628
-3.2887011 21.914467 4.8800092
-16.256006 21.137951 5.872323
-16.342089 20.221113 5.7254963
-16.078251 18.941189 5.4713459
-18.81288 20.110348 6.0644097
-19.242065 -7.3174076 4.5335112
-18.695488 -8.1621933 4.4923606
-18.262011 -8.5031576 4.4362087
-18.074297 -8.9524813 4.4417939
-2.9194434 -7.1600695 1.7028118
-2.8036523 -7.3804793 1.7386361
-2.68292 -7.6108203 1.7771313
-2.5286326 -7.7657375 1.7985333
-2.3536131 -7.8680539 1.808551
-1.9011328 -6.9629045 1.589487
-1.8407129 -7.4439287 1.6886636
-1.5830274 -8.0502834 1.80677
-1.3755664 -8.0115623 1.7901092
-0.97803706 -7.9908299 1.7728591
-0.36252928 -7.33043 1.6162673
-0.010498047 -8.9921389 1.9802358
0.49802732 -21.688013 4.7773671
1.0219336 -21.688734 4.7815614
2.074043 -21.689524 4.7982197
4.2133102 -21.693445 4.8665638
4.7577343 -21.687067 4.8894682
5.8682032 -21.69141 4.9485645
7.0086131 -21.695848 5.0209317
7.5930076 -21.70097 5.0630479
8.1862307 -21.702166 5.1079268
8.7903709 -21.703379 5.1566324
9.4065523 -21.704615 5.2093372
10.677949 -21.704464 5.3268452
11.33705 -21.705902 5.3927727
12.707314 -21.708874 5.5395007
13.421679 -21.710417 5.6209183
14.934209 -21.73811 5.8079991
17.364737 -21.724321 6.1246147
14.315713 -9.4375648 3.7760069
15.274258 -8.5532722 3.8551559
15.591152 -7.7678223 3.8359959
26.574247 9.218133 6.1942334
26.240889 9.8178864 6.1699543
25.83374 11.113718 6.1931767
18.610126 8.5438747 4.5095577
15.88081 9.7588882 4.1047916
18.063524 12.988452 4.8995066
16.311016 12.335908 4.5035815
18.747646 16.439352 5.4910245
16.187412 14.900168 4.8450437
15.33791 14.817472 4.6964364
16.576241 16.805483 5.1982579
16.203379 17.240227 5.2102733
13.30122 14.85465 4.3910408
12.368711 14.50249 4.1974978
12.005556 14.784707 4.1941142
11.816563 17.820026 4.708683
11.866015 19.918037 5.1057005
8.6286917 22.352011 5.2763638
7.3579979 22.191511 5.1486073
6.7473731 22.122561 5.0933561
5.5670605 22.005407 4.9986668
3.3305273 21.846453 4.8665762
2.7898924 21.821215 4.8445511
2.2543652 21.801487 4.8266878
1.7228613 21.787165 4.8129096
-1.9696192 21.835302 4.8280597
-3.5927637 21.937162 4.8953223
-15.901895 19.146797 5.4810405
-19.692148 20.493723 6.2589059
-18.822451 -6.416069 4.3792458
-18.482704 -8.3653755 4.4677167
-17.057051 -8.2215118 4.1698446
-17.829697 -9.1303253 4.4113064
-10.424492 -7.7962389 2.8666601
-2.85583 -7.2811141 1.7223593
-2.6060741 -7.720643 1.7944739
-1.6626855 -8.0001516 1.7994268
-1.264541 -8.0056286 1.7848437
-1.0659667 -7.9952917 1.7762896
-0.32178709 -8.9241629 1.9665424
-0.10688476 -8.9710531 1.9757309
0.11013672 -9.0187397 1.9862401
0.78833985 -21.688412 4.7793469
2.3672071 -21.69006 4.8049121
2.8983691 -21.691034 4.8192196
3.9717283 -21.693003 4.856606
4.5137305 -21.68611 4.8780265
6.1810837 -21.692631 4.9672565
9.1304779 -21.70406 5.1853495
9.7536716 -21.705307 5.2403483
12.395576 -21.7082 5.5050111
14.591738 -21.736519 5.765336
16.98461 -21.723558 6.0725727
6.8959374 -7.9932828 2.32481
14.465517 -9.2611294 3.7825046
14.822305 -8.0416403 3.7135952
15.561533 -7.9629369 3.8495398
15.721084 -7.5718055 3.8426995
15.081035 -6.8203564 3.6449664
16.31538 -6.9094834 3.9018636
26.389345 9.5513544 6.1803608
18.429462 8.7612114 4.493773
18.688583 9.4436989 4.6111827
16.262754 8.7166071 4.0633512
16.1075 9.1403036 4.0784817
15.951006 9.5673323 4.0961127
15.793036 9.9983864 4.1163044
17.681152 13.075781 4.8427997
17.720839 14.477778 5.0392704
18.938906 16.250322 5.495563
16.793682 15.128113 4.97756
15.299755 14.465855 4.636858
12.530771 14.376614 4.1998091
11.527588 13.88835 3.9747572
11.804492 14.941054 4.1933041
11.079121 15.505659 4.1967196
10.849472 15.985925 4.254612
11.783525 18.296913 4.7926154
11.350087 19.645002 4.9963408
8.269248 22.304365 5.2385397
6.4150195 22.087376 5.065043
5.8257127 22.029205 5.0180082
5.2482324 21.977575 4.9759531
1.9592187 21.792877 4.8185468
0.90231442 21.775488 4.7994752
0.37645507 21.774723 4.7959113
-0.67482418 21.788977 4.8006349
-2.8042772 21.88171 4.8581638
-16.325819 21.113712 5.8774838
-16.344023 20.115095 5.7076244
-17.51771 19.551828 5.7810779
-18.725834 -6.1592927 4.341114
-18.921879 -7.7811632 4.505518
-18.681776 -8.2147541 4.4942417
-18.208652 -8.536582 4.4286799
-17.588539 -9.3058844 4.3820486
-2.9070702 -7.1836033 1.706589
-2.7907617 -7.4050598 1.7426922
-2.6694629 -7.636579 1.7815012
-2.3344433 -7.8792934 1.8097186
-1.8948828 -7.0125432 1.5996747
-1.8336718 -7.4999528 1.7002749
-1.5554491 -8.02141 1.7993665
-1.3537011 -8.0103846 1.7890459
-1.1541895 -7.9998398 1.7799515
-0.53698242 -7.5596294 1.6689636
-0.34196287 -7.3034234 1.6101104
0.013134765 -8.9973125 1.9813769
1.079082 -21.688812 4.7821889
2.6613867 -21.690599 4.8124881
3.1943164 -21.69158 4.828403
4.8174806 -21.687302 4.8923535
5.3701172 -21.689465 4.9206419
5.9295115 -21.69165 4.9521565
6.4964743 -21.693859 4.9869962
7.0716696 -21.696093 5.0252695
7.6571579 -21.701097 5.0677557
8.8568459 -21.70351 5.1621733
10.105186 -21.706011 5.2726865
10.748955 -21.70462 5.3337955
12.087725 -21.707531 5.4715796
13.51376 -21.73152 5.6355381
14.254268 -21.734953 5.7239594
15.809463 -21.742172 5.9199958
17.458525 -21.724508 6.1375723
18.339882 -21.726265 6.261281
19.258038 -21.728092 6.3938675
14.13208 -8.317626 3.6111689
15.62167 -7.7318354 3.8384941
15.426104 -7.1771622 3.7467973
16.327148 -7.1224179 3.9227614
16.301182 -6.6477556 3.8768547
23.171904 -8.1699657 5.4107785
26.53793 9.2837057 6.1914234
25.689735 11.131825 6.1656456
18.574551 8.5866947 4.5063877
18.249804 8.9771013 4.4788547
16.331581 8.5287666 4.0574045
16.176817 8.9511099 4.0714345
15.704756 10.239277 4.1286244
15.743916 10.814871 4.2062998
17.680868 12.78384 4.8048053
17.225342 13.766963 4.8560133
18.878769 15.849541 5.4283533
17.276747 15.986989 5.1836553
16.906923 16.419394 5.1900616
16.535742 16.852736 5.1994214
16.945644 18.125174 5.4642444
13.286279 14.916711 4.3990455
11.966064 14.815417 4.193891
11.24084 15.379714 4.1950984
10.877764 15.662548 4.1994271
11.99667 19.186859 4.9832425
11.832715 19.981333 5.1139383
8.5575581 22.342447 5.2687769
6.6816993 22.115473 5.0876594
4.9326563 21.95167 4.9547024
4.3708301 21.90971 4.9199958
3.8175194 21.873692 4.8898001
2.7312987 21.818794 4.8423977
1.1369336 21.777531 4.8023434
0.61065429 21.774418 4.7970138
0.085185543 21.776564 4.7956367
-0.44041991 21.783978 4.7982121
-0.96702147 21.796667 4.8047485
-1.4958203 21.81469 4.8152781
-2.5637598 21.867023 4.8485022
-3.1051073 21.901558 4.871357
-3.6527929 21.941843 4.8984971
-4.2079687 21.988058 4.9300442
8.0875196 21.297729 4.4815617
7.481504 21.231449 4.4283419
5.1963573 21.025259 4.2605042
4.6527929 20.987158 4.2287989
3.0691795 20.902102 4.1559196
1.5341504 20.858303 4.1142945
1.0287499 20.852489 4.1070585
0.021806641 20.853823 4.1023326
-0.48155272 20.860956 4.1048265
-2.0018847 20.908518 4.1318979
-3.0333104 20.962658 4.166688
-4.0881934 21.035692 4.2155347
-16.037001 22.17177 5.3829441
-16.324013 21.458838 5.3039441
-16.342451 20.440382 5.148181
-16.359833 19.479431 5.0041218
-18.664238 18.306583 5.1429172
-19.081978 -7.1419878 4.0080862
-18.517031 -7.9686809 3.9656246
-18.032583 -8.2813101 3.9035292
-18.057289 -8.8261738 3.9538307
-16.731709 -9.2033958 3.7565069
-2.1863282 -7.8450484 1.6020764
-1.8254784 -7.2193327 1.4648743
-1.6068749 -7.9506283 1.5956579
-1.4076757 -7.9479027 1.5878314
-0.27060547 -8.856185 1.7429882
0.90770507 -21.688351 4.270237
2.4879589 -21.690451 4.2948861
3.0198436 -21.691427 4.3082528
3.5553319 -21.69241 4.3242288
4.0951462 -21.693398 4.3428593
4.6384959 -21.687595 4.3628364
5.1891208 -21.689758 4.3871837
5.7462106 -21.69194 4.4143848
6.310586 -21.694147 4.4445291
6.8830762 -21.696381 4.4777069
7.4645019 -21.698645 4.5140409
8.0562983 -21.702414 4.5539327
8.6579981 -21.70363 4.5966873
9.2714643 -21.704865 4.6429791
10.536963 -21.705059 4.746335
11.192529 -21.706501 4.8043089
11.864726 -21.707973 4.866581
14.7658 -21.736797 5.1693158
16.357313 -21.744171 5.3526659
18.048719 -21.726509 5.5563846
18.954493 -21.728329 5.6721716
14.577158 -8.2638206 3.296335
15.454668 -7.8014688 3.4056141
15.834678 -7.5196166 3.4483693
16.25041 -6.7769518 3.4636025
27.026621 9.2162409 5.6172619
26.686855 9.8251534 5.5942893
24.420956 11.056577 5.2734861
24.758623 12.682251 5.4722748
25.839315 14.032763 5.7842855
16.07375 9.2382097 3.6470468
15.916924 9.6661987 3.6633191
16.245665 10.972053 3.8564258
17.897089 13.38819 4.3967752
15.972118 13.196084 4.0756569
17.453438 15.896926 4.6441169
16.711044 16.765018 4.6565595
16.337538 17.200903 4.6667743
11.702704 14.980727 3.7395909
11.340722 15.262414 3.740515
10.978428 15.544534 3.7436419
11.972871 17.851374 4.2283993
11.710439 18.404779 4.2913046
8.9942474 21.405199 4.5674238
8.3629293 21.329346 4.5068693
7.1522264 21.197384 4.4008861
6.5694628 21.140577 4.3549123
5.9997168 21.089497 4.3133116
5.4416208 21.043877 4.2758789
3.8244727 20.937757 4.1869912
2.7826171 20.890978 4.145936
1.7600878 20.862288 4.1185737
1.2536817 20.854536 4.1098752
-0.25720704 20.857243 4.1033144
-1.2665136 20.880659 4.1151581
-1.7744921 20.898947 4.1260042
-3.3230565 20.980968 4.1787906
-3.8507519 21.017727 4.2033944
-15.846885 22.412378 5.3996701
-16.31543 21.932814 5.3774414
-16.334375 20.886662 5.2160611
-16.369043 18.969301 4.9288855
-18.025459 18.064272 5.0201168
-27.330976 -7.7118826 5.5864401
-17.845171 -9.0201674 3.9334505
-2.6095605 -7.5989671 1.5805441
-2.4377539 -7.6984429 1.5885382
-1.7892382 -7.4965191 1.5161242
-1.623955 -7.6128569 1.5312821
-1.4968359 -7.9526157 1.5918955
-0.68551755 -7.6351438 1.5080144
2.2519727 -21.690016 4.2897615
2.7824512 -21.69099 4.3019795
3.8540623 -21.692957 4.3342285
5.4971485 -21.690964 4.4019084
6.0581837 -21.693161 4.4307289
7.7917185 -21.70188 4.5359864
9.6170702 -21.705559 4.6702323
10.898486 -21.705854 4.7779622
11.563095 -21.707312 4.8382916
12.245127 -21.708805 4.9030499
13.680019 -21.731771 5.0515461
14.425781 -21.735224 5.1317692
15.196025 -21.738789 5.2176585
15.992998 -21.742483 5.3096251
6.8516016 -8.0268173 2.0760834
14.310449 -8.3171339 3.2560592
15.202343 -8.3515501 3.412142
15.333916 -7.4848361 3.3566394
15.089375 -6.9198618 3.2656078
16.261709 -6.9877982 3.4818208
27.178339 8.9430485 5.6284885
26.838125 9.5545521 5.6041441
25.036894 10.29929 5.3256645
23.812334 10.474099 5.1174569
15.986972 9.4750481 3.6557875
15.829316 9.9052315 3.6733239
15.670068 10.339787 3.6931899
18.623905 12.944328 4.4616776
17.500536 13.460324 4.3431997
18.796211 16.753908 4.9532094
15.523311 14.523527 4.18186
16.876894 16.571293 4.6528687
16.504189 17.006498 4.6618924
12.226308 14.573606 3.742167
11.502021 15.136872 3.7398305
11.139912 15.418762 3.7419746
10.777275 15.701257 3.7463303
11.716572 17.984682 4.2224746
7.4164548 21.224602 4.4228282
6.8274021 21.165157 4.3748374
4.060029 20.950722 4.1980662
2.497539 20.881239 4.1370029
1.4790039 20.85746 4.1133504
-0.03298828 20.854395 4.1024489
-0.53641599 20.861996 4.1052957
-1.0410644 20.873932 4.1113887
-1.5477831 20.890251 4.1207609
-2.0575781 20.911001 4.1334467
-2.5713573 20.936266 4.1494966
-3.6147754 21.000746 4.1919851
-16.116659 22.159054 5.3901248
-16.326084 21.344902 5.2863679
-16.36166 19.378027 4.9891
-17.418842 17.835676 4.9042773
-19.289028 -6.2323632 3.9876552
-18.835318 -6.5916576 3.9255989
-19.065361 -7.192945 4.0085511
-18.878578 -7.6476068 4.0069079
-18.164145 -7.873446 3.8944619
-17.871674 -8.2643566 3.8733847
-17.377871 -9.0778151 3.8568666
-2.9138477 -7.0929551 1.5084653
-2.514492 -7.6539378 1.584841
-2.3417871 -7.7542582 1.5934488
-1.6397754 -7.3014364 1.4721026
-1.3859472 -7.9467645 1.5868713
-1.1876659 -7.9365444 1.5786474
-0.99135739 -7.9268236 1.5714999
0.44098631 -21.687712 4.2672596
1.4897656 -21.688616 4.2766037
2.0165527 -21.689585 4.2851396
3.6139061 -21.692516 4.3261304
5.2494431 -21.689995 4.3900051
5.8073144 -21.692181 4.4175229
6.3725486 -21.694389 4.4479933
8.1212788 -21.702545 4.5584245
9.3390427 -21.705 4.648243
9.9668064 -21.706263 4.6986485
11.264921 -21.706657 4.8108749
11.938993 -21.708138 4.8736353
16.437334 -21.731466 5.3601508
19.055439 -21.728533 5.6852732
14.492138 -9.1131287 3.3676872
13.818017 -8.2308769 3.1639574
14.696836 -8.2807159 3.3184655
14.899463 -7.9276123 3.3200662
15.471933 -7.7592216 3.4049141
15.85207 -7.4769039 3.447865
16.273222 -7.2009416 3.5006554
26.722372 9.1909332 5.5590229
25.229033 10.062675 5.3432207
25.603447 13.200034 5.6666436
25.759052 14.076909 5.774581
16.056728 9.2846537 3.6487072
18.342646 13.116135 4.4359255
16.754423 12.602201 4.1241813
19.155605 15.145378 4.8037977
17.413115 15.944123 4.6445246
16.670458 16.812424 4.6575398
16.296747 17.248474 4.6680489
12.387949 14.448003 3.7438891
12.025371 14.729797 3.7406332
11.301289 15.29311 3.740747
10.938955 15.575288 3.7441182
11.929677 17.888411 4.229732
8.924551 21.396606 4.5605731
4.8347654 20.999424 4.2390442
3.2439647 20.909546 4.1625018
1.1986523 20.853968 4.1091323
0.6944043 20.851023 4.1040535
0.19112304 20.852398 4.1022258
-0.81599605 20.868078 4.1082721
-2.3418748 20.924446 4.1419253
-3.3801951 20.984728 4.1812916
-3.9086328 21.02202 4.2062912
-15.849092 22.291019 5.3804383
-16.317549 21.815779 5.3592329
-16.336376 20.776457 5.1992412
-16.354092 19.796862 5.0513825
-16.370819 18.87084 4.9144678
-16.841612 17.619659 4.7948165
-18.178598 18.122221 5.0494843
-27.317993 -7.7857723 5.5879498
-18.738197 -6.3324065 3.8909459
-19.133392 -6.9846201 4.0068369
-18.1952 -8.1777229 3.9242232
-17.118212 -8.1955976 3.7335119
-17.803759 -9.0580864 3.9295583
-16.971783 -9.1567106 3.7935891
-2.7331152 -7.4345322 1.5582052
-2.4189453 -7.7093701 1.5894754
-2.2452538 -7.810586 1.5987103
-1.8463378 -7.0600348 1.4355453
-1.6199023 -7.6928439 1.5465112
-1.4750097 -7.9514556 1.590881
-1.2757422 -7.9410453 1.5821798
-0.6630078 -7.6088543 1.5024741
-0.4638086 -7.3765397 1.4539672
-0.34164062 -8.8313856 1.7385962
1.2556933 -21.688833 4.2737436
2.8404002 -21.691097 4.3034678
3.3746386 -21.692078 4.3185587
3.9129002 -21.693066 4.3362899
5.0030856 -21.689026 4.3786721
5.55791 -21.691204 4.4049048
6.1197267 -21.693403 4.4340463
6.689414 -21.695627 4.4661937
7.2677341 -21.69788 4.5014482
8.4541893 -21.703217 4.5819087
9.0635548 -21.704445 4.6269913
12.320508 -21.708969 4.9103842
13.760137 -21.732143 5.0600233
15.281543 -21.739187 5.2273817
19.57959 -21.732784 5.754395
14.471386 -9.318614 3.3859453
14.715791 -8.9813328 3.3914351
15.637217 -8.0536165 3.4601388
15.25121 -7.3949237 3.3342743
16.258924 -6.9360328 3.4773083
27.14123 9.0099525 5.6256833
26.801142 9.6207867 5.6016788
24.990097 10.356904 5.3214793
23.861494 10.570615 5.1339722
25.515926 12.809663 5.616478
25.353418 14.298974 5.7260208
15.81206 9.952343 3.6753752
15.652617 10.387417 3.6954944
18.064482 13.285998 4.4112477
19.081347 15.505898 4.8367567
15.330712 14.41905 4.1401672
16.836376 16.618637 4.6537223
12.186826 14.604289 3.7418103
11.824551 14.885947 3.739779
11.709316 18.077183 4.2369528
8.573349 21.354116 4.5266666
7.9541407 21.282751 4.4695535
5.6282616 21.058636 4.2880216
5.0771775 21.016525 4.2532682
4.0023046 20.947466 4.1952929
3.4762793 20.920191 4.1718183
2.9563963 20.89756 4.1518674
2.4417186 20.87949 4.1353693
1.9312011 20.865875 4.122242
0.91890621 20.851791 4.1059103
0.4152832 20.851252 4.1026406
-0.087802731 20.855009 4.1025996
-2.1133106 20.913527 4.135026
-16.328125 21.23175 5.2689533
-16.346327 20.226362 5.1158442
-16.363485 19.277218 4.9741931
-16.291748 17.415342 4.6912913
-17.564365 17.890373 4.9319949
-18.989014 18.430376 5.2056546
-20.597885 19.048809 5.5190992
-19.289209 -6.2884388 3.9910934
-18.859335 -6.6557407 3.9342349
-19.048754 -7.2438998 4.0090456
-17.74308 -8.2615404 3.85021
-17.973652 -8.9026279 3.9457052
-2.4957714 -7.6647911 1.5857229
-2.322871 -7.7652836 1.5944549
-1.811543 -7.3259635 1.4845577
-1.6360155 -7.375288 1.4861218
-1.6605273 -8.4443855 1.6929791
-1.364248 -7.9456306 1.5859228
-1.1661913 -7.9354577 1.5778167
-0.97006834 -7.9258227 1.5707906
-0.75615233 -7.7176757 1.5254788
-0.55094725 -7.4780931 1.4750646
-0.35875976 -7.2542782 1.4287949
2.0740623 -21.689692 4.2862234
4.7579393 -21.688063 4.3678994
5.8684764 -21.692419 4.4206948
7.0089254 -21.696873 4.4853487
7.5931735 -21.701479 4.5228629
9.4067774 -21.705139 4.6535501
10.036035 -21.706402 4.7043729
10.678408 -21.70537 4.7586079
12.013486 -21.708298 4.8807387
12.707851 -21.709814 4.9485831
14.172099 -21.734051 5.1041498
14.933847 -21.737576 5.1880884
15.721601 -21.741224 5.2779646
16.521132 -21.723427 5.3688569
18.242889 -21.726898 5.5809302
19.156845 -21.728735 5.6984754
14.274726 -9.4105453 3.3634057
14.53582 -9.0873547 3.3722754
14.817636 -8.2975779 3.3408127
15.030048 -7.9464612 3.3445005
15.489306 -7.7170763 3.4042656
16.244999 -6.6747184 3.4549301
27.293135 8.7358341 5.6373792
26.612949 9.9570866 5.5896888
24.466484 9.8331032 5.1871777
23.662148 10.179494 5.067245
24.329023 11.169418 5.2662406
25.429979 12.426101 5.567832
26.080635 13.532893 5.7801085
16.039717 9.3311157 3.6503987
18.287733 13.14967 4.4309907
19.141113 15.21581 4.8101692
15.934111 13.306231 4.0837526
18.85207 16.530922 4.9323878
17.372812 15.991305 4.644958
15.333564 14.813276 4.1940799
12.348428 14.478713 3.7434306
11.623857 15.042065 3.7396054
11.261855 15.323809 3.7410057
10.899424 15.606081 3.7446182
11.886464 17.925446 4.2310929
8.8551073 21.388088 4.5537806
8.2278509 21.313723 4.4943709
7.0240917 21.184509 4.3904877
6.4443259 21.128971 4.3454843
5.8771973 21.079102 4.3048081
5.3214746 21.034651 4.2682676
4.7757521 20.995392 4.235683
4.2389255 20.961151 4.2069163
3.1873047 20.907074 4.1603251
2.1582031 20.871403 4.1276846
1.6495605 20.860231 4.1164026
-0.87100583 20.869432 4.1089783
-1.8855664 20.903513 4.1288009
-3.4374022 20.988564 4.1838441
-3.9666698 21.026384 4.2092361
-15.870996 22.198059 5.3680768
