# .PCD v0.7 - Point Cloud Data file format
VERSION 0.7
FIELDS x y z
SIZE 4 4 4
TYPE F F F
COUNT 1 1 1
WIDTH 1494
HEIGHT 1
VIEWPOINT 0 0 0 1 0 0 0
POINTS 1494
DATA ascii
-2.6149609 -4.5896015 -1.9057697
-2.504492 -4.6532278 -1.9065396
-2.3924999 -4.7142172 -1.9073209
-2.2790332 -4.7725425 -1.9081132
-2.0479295 -4.881043 -1.9097296
-1.6918261 -5.0229077 -1.9122262
-1.5708593 -5.0645084 -1.9130757
-1.448877 -5.1032128 -1.9139332
-1.3259375 -5.1389999 -1.9147983
-1.0775391 -5.2017241 -1.9165484
-0.82615232 -5.2524977 -1.9183224
-0.69951171 -5.2733593 -1.9192172
-0.57238281 -5.2911758 -1.9201162
-0.44479492 -5.3059387 -1.9210192
-0.31682616 -5.3176332 -1.9219258
-0.18853515 -5.3262472 -1.9228354
0.068642579 -5.3341999 -1.9246606
0.4548535 -5.3228593 -1.9274071
0.58338869 -5.31286 -1.928323
0.83974606 -5.2835441 -1.9301513
1.0946387 -5.2418346 -1.931972
1.2213476 -5.2163477 -1.9328784
1.4728711 -5.1561694 -1.9346799
1.844414 -5.0431085 -1.9373463
2.0873926 -4.952745 -1.9390941
2.2072363 -4.9031329 -1.9399573
2.6740234 -4.6757593 -1.9433275
2.7872069 -4.611836 -1.9441469
3.1172459 -4.4036279 -1.946541
3.2238476 -4.328876 -1.9473159
3.4315526 -4.171586 -1.9488291
3.5325098 -4.0891347 -1.9495659
3.6314745 -4.004221 -1.950289
3.8231347 -3.8271642 -1.9516928
4.0060253 -3.6408179 -1.9530362
4.1797166 -3.4456136 -1.9543164
4.3437304 -3.2420239 -1.9555297
4.4976659 -3.0305176 -1.9566735
4.7737598 -2.5857956 -1.9587405
4.8952146 -2.3536422 -1.9596581
4.9516697 -2.2353551 -1.9600872
5.0051856 -2.1157024 -1.9604958
5.0557714 -1.9947406 -1.9608839
5.1033592 -1.8725564 -1.9612509
5.1479492 -1.749208 -1.961597
5.1895213 -1.6247948 -1.9619217
5.2280078 -1.4993634 -1.9622248
5.3248534 -1.1178368 -1.963003
2.6593456 -0.16554809 -0.96130764
2.6792188 -0.10198608 -0.96732128
5.3558688 0.96951169 -1.963717
5.3019919 1.2265033 -1.963395
5.2355857 1.4804858 -1.9629834
5.1567578 1.7308398 -1.9624826
5.0657616 1.9769592 -1.961894
4.9069138 2.3368499 -1.9608506
4.8481641 2.4540527 -1.9604608
4.7865524 2.5697472 -1.9600505
4.7221189 2.6838806 -1.9596198
4.5124512 3.0161412 -1.9582086
4.3593946 3.2285681 -1.9571713
4.1962304 3.4331188 -1.9560604
4.0233107 3.6293199 -1.9548782
3.7466991 3.9069493 -1.9529786
3.4507713 4.1633019 -1.9509366
3.0849707 4.3238587 -1.9163355
2.9339647 4.3294406 -1.8868839
2.7873437 4.3346705 -1.8593093
2.6447265 4.3395667 -1.8335032
2.5058692 4.3441539 -1.8093654
2.2691209 4.4127097 -1.7901962
2.1611133 4.4642749 -1.7894409
2.0519042 4.513175 -1.7886746
1.8302538 4.6028919 -1.7871231
1.7179198 4.6436548 -1.7863345
1.6046972 4.6816578 -1.785539
1.4906347 4.7168884 -1.7847369
1.144082 4.8057423 -1.7822957
1.0273242 4.8297105 -1.7814718
0.91010737 4.8508286 -1.7806439
0.79244137 4.8690953 -1.7798123
0.67444336 4.8845053 -1.7789776
0.55615234 4.8970432 -1.7781401
0.31901366 4.9135218 -1.776459
0.20029296 4.9174523 -1.7756164
-0.15558593 4.9120555 -1.7730868
-0.27392578 4.904541 -1.7722441
-0.50966793 4.8809886 -1.7705636
-0.6269629 4.8649693 -1.7697264
-0.7437793 4.8461461 -1.768892
-1.3184766 4.7104445 -1.7647766
-1.6533691 4.5964966 -1.7623705
-1.8756738 4.517478 -1.7647436
-2.0848632 4.40801 -1.7592599
-2.5945215 4.3451233 -1.825863
-2.7359471 4.340548 -1.8511415
-2.8812988 4.3356504 -1.8781587
-3.0276463 4.3257165 -1.904946
-3.2302442 4.1714158 -1.9034699
-3.4251072 4.0077577 -1.9020468
-3.701992 3.7455957 -1.9000175
-3.7899902 3.653955 -1.8993707
-3.8757324 3.5602849 -1.8987392
-3.9592187 3.464627 -1.8981234
-4.3408594 2.9586034 -1.8952923
-4.4097853 2.8522606 -1.8947775
-4.4761133 2.7443297 -1.8942807
-4.600996 2.5239892 -1.8933412
-4.6594529 2.4117088 -1.8928994
-4.7682714 2.1832166 -1.8920721
-4.8185644 2.0671332 -1.8916873
-4.8660841 1.949923 -1.8913221
-4.9527149 1.7123394 -1.8906503
-4.9917774 1.592116 -1.8903441
-5.0279589 1.4710107 -1.8900585
-5.0612793 1.3491101 -1.889793
-5.1191893 1.1031524 -1.8893236
-5.1437402 0.97923213 -1.8891199
-5.1653614 0.85478759 -1.8889368
-5.2222557 0.3530139 -1.8884137
-5.2290235 0.22693236 -1.8883358
-5.2262888 -0.27792847 -1.888236
-5.2181444 -0.40393189 -1.8882638
-5.2070212 -0.52969909 -1.8883133
-5.1929197 -0.65518004 -1.8883837
-5.1328712 -1.0291687 -1.8887218
-5.1069531 -1.1527777 -1.8888769
-5.011797 -1.5195342 -1.8894662
-4.9743161 -1.6401886 -1.889704
-4.9339647 -1.7599523 -1.8899624
-4.7445407 -2.2286084 -1.8911974
-4.6903028 -2.3428607 -1.8915558
-4.5736914 -2.5674078 -1.8923312
-4.5114255 -2.6775725 -1.8927474
-4.4465528 -2.7862685 -1.8931826
-4.2366014 -3.1028268 -1.8945996
-4.0044627 -3.4039016 -1.8961776
-3.9223535 -3.5005493 -1.8967383
-3.8379393 -3.5952351 -1.8973156
-3.6623828 -3.7785547 -1.8985195
-3.5713475 -3.8670809 -1.8991455
-3.1865916 -4.1990552 -1.9018006
-3.0855076 -4.2762685 -1.9025005
-2.9825683 -4.3510914 -1.9032143
-2.7713768 -4.4933414 -1.9046811
-2.2150292 -4.8039484 -1.9085606
-2.0993848 -4.8580365 -1.9093695
-1.864248 -4.9579101 -1.9110165
-1.7448633 -5.0036321 -1.9118539
-1.380332 -5.1235666 -1.9144154
-1.1326464 -5.1889 -1.9161597
-0.88185543 -5.2423277 -1.9179291
-0.75549805 -5.2645197 -1.9188216
-0.62857419 -5.2836838 -1.9197187
-0.37334961 -5.312849 -1.9215252
-0.11678711 -5.329711 -1.923344
0.011806641 -5.3335094 -1.9242568
0.26932618 -5.3318005 -1.926087
0.65510738 -5.305922 -1.9288342
1.1654785 -5.2279797 -1.9324788
1.5426172 -5.1371875 -1.9351797
1.7902343 -5.0614462 -1.936957
2.034121 -4.9737144 -1.9387106
2.1544726 -4.9253964 -1.939577
2.2736621 -4.8741465 -1.940436
2.3916309 -4.819993 -1.9412869
2.960537 -4.5067077 -1.9454031
3.0696192 -4.4357958 -1.946195
3.2825975 -4.2859831 -1.9477437
3.588037 -4.0420108 -1.9499716
3.6858397 -3.95573 -1.9506866
3.7815721 -3.8670502 -1.9513879
3.8751073 -3.7760282 -1.9520739
3.9664354 -3.68273 -1.9527448
4.0554686 -3.5871747 -1.9534003
4.1421971 -3.4894409 -1.9540392
4.2265038 -3.389576 -1.9546621
4.3083787 -3.2876673 -1.9552679
4.3877344 -3.1837378 -1.9558563
4.46457 -3.0778618 -1.9564272
4.6104002 -2.860527 -1.9575146
4.6792674 -2.7492173 -1.9580303
4.8088279 -2.52157 -1.9590048
5.1286325 -1.8038116 -1.9614466
5.2481833 -1.4288927 -1.9623847
5.3123827 -1.1744262 -1.962901
5.3397655 -1.0460479 -1.9631261
-4.8889747 0.18771301 -1.8907428
-4.8895216 -0.1663031 -1.8906552
-4.8649511 -0.51946777 -1.8907461
-4.8346286 -0.75357234 -1.890906
-4.8153319 -0.87002927 -1.8910158
-4.7684569 -1.1014276 -1.891294
-4.6777344 -1.4437951 -1.8918575
-4.6420994 -1.5563983 -1.8920844
-4.6037989 -1.6681433 -1.8923299
-4.5628419 -1.7789614 -1.8925947
-4.5192966 -1.8887939 -1.8928781
-4.4243846 -2.1052637 -1.8935013
-4.3192773 -2.3170626 -1.8941979
-4.2629786 -2.4210629 -1.8945733
-4.1429977 -2.62497 -1.8953776
-4.0793943 -2.7247622 -1.895806
-3.5699217 -3.3778033 -1.8992714
-3.4048827 -3.5481722 -1.9004035
-3.0510743 -3.8646801 -1.9028426
-2.9579589 -3.9384866 -1.9034867
-2.8630762 -4.0100794 -1.9041439
-2.5683496 -4.2111378 -1.9061903
-2.3640234 -4.3333454 -1.9076132
-2.2596679 -4.3907895 -1.9083411
-2.1539159 -4.4457393 -1.9090794
-2.0468554 -4.4981685 -1.9098277
-1.7182909 -4.6399851 -1.9121286
-1.6065136 -4.6820073 -1.9129128
-1.4937207 -4.7213526 -1.9137048
-1.3799902 -4.757998 -1.9145044
-1.1498632 -4.8230968 -1.9161239
-0.91667968 -4.8771243 -1.9177679
-0.79910153 -4.8999376 -1.9185979
-0.44327149 -4.9513817 -1.9211142
0.15611328 -4.9797411 -1.9253658
0.27631834 -4.9767327 -1.9262207
0.51648438 -4.9620166 -1.9279306
0.63630855 -4.9503064 -1.9287846
0.87509763 -4.9181957 -1.9304888
0.99392575 -4.8978071 -1.9313378
1.2300683 -4.8484082 -1.9330273
1.3472558 -4.8194165 -1.9338669
1.694414 -4.7154431 -1.936358
1.8084375 -4.6751733 -1.9371777
1.9214844 -4.6321349 -1.937991
2.4699707 -4.376173 -1.9419485
2.6802733 -4.2552838 -1.9434713
3.1787598 -3.9091127 -1.947095
3.365957 -3.7538822 -1.9484618
3.4567089 -3.6728454 -1.9491256
3.5454881 -3.5895879 -1.9497763
3.6322362 -3.5041616 -1.9504125
3.7168846 -3.4166124 -1.9510348
3.7994139 -3.3269894 -1.9516424
3.8797362 -3.2353504 -1.9522347
3.9578319 -3.1417491 -1.9528118
4.178154 -2.8497109 -1.9544461
4.2467871 -2.7488124 -1.9549577
4.3765917 -2.5420439 -1.9559289
4.437695 -2.4363022 -1.9563879
4.6052146 -2.1103907 -1.9576553
4.5337892 2.2628119 -1.958182
4.4770312 2.3710656 -1.9578043
4.4176269 2.4778709 -1.9574075
4.3556347 2.5831676 -1.9569918
4.2911034 2.6868885 -1.956558
4.1545701 2.8893671 -1.9556359
4.0083399 3.0848143 -1.9546432
3.8528028 3.2727802 -1.9535824
3.7716503 3.3638115 -1.9530272
3.3343163 3.7873828 -1.9500204
3.1456738 3.9411559 -1.9487164
3.0486329 4.0145044 -1.9480442
2.949873 4.0854392 -1.9473593
2.8494334 4.1539221 -1.9466619
2.5251856 4.3210082 -1.9340888
2.3898144 4.3256226 -1.9097871
2.2576075 4.3299341 -1.8870918
2.1283495 4.3339634 -1.8659211
2.0018065 4.3377194 -1.8462045
1.8777636 4.341217 -1.827877
1.6376269 4.3508105 -1.7965279
1.5224707 4.3615122 -1.7852565
1.4160254 4.3941965 -1.7841306
1.3090625 4.42521 -1.783378
1.0932324 4.4793735 -1.7818573
0.98639649 4.5117674 -1.7847559
0.87508786 4.522975 -1.7803178
0.65533203 4.5559363 -1.778764
0.43447265 4.5782151 -1.7772001
0.10213867 4.591548 -1.7748421
-0.55975586 4.5461521 -1.7701286
-0.88582027 4.487854 -1.7677981
-1.100332 4.4360471 -1.7662616
-1.7759668 4.3465757 -1.8145372
-2.0227928 4.3401084 -1.8504574
-2.279834 4.3326097 -1.8919942
-2.4055665 4.3156114 -1.9093634
-3.1792481 3.7629614 -1.9037358
-3.2679882 3.6839147 -1.9030865
-3.354785 3.6028063 -1.9024507
-3.4395995 3.5196764 -1.9018284
-3.6030664 3.3475671 -1.9006262
-3.6816602 3.2586851 -1.9000468
-3.8322949 3.075515 -1.8989334
-3.9042773 2.9813378 -1.8983996
-3.9739647 2.8855047 -1.8978817
-4.041338 2.7880614 -1.89738
-4.1063571 2.6890759 -1.8968947
-4.229238 2.4866772 -1.8959738
-4.3422947 2.2787726 -1.8951212
-4.3950877 2.1729009 -1.8947214
-4.4930077 1.9576232 -1.8939745
-4.5380859 1.84833 -1.8936285
-4.69208 1.4015996 -1.8924285
-4.7238965 1.2878289 -1.8921759
-4.7529979 1.1733532 -1.8919418
-4.8239059 0.82632625 -1.8913559
-4.8574023 0.59260923 -1.8910627
-4.8699708 0.47523254 -1.8909457
-4.879756 0.35759825 -1.8908482
-4.8867869 0.23977172 -1.8907706
-4.8798828 -0.35000122 -1.8906801
-4.8701267 -0.46762452 -1.8907216
-4.8422656 -0.70202941 -1.890864
-4.8241892 -0.81867915 -1.8909649
-4.7797461 -1.0505493 -1.8912258
-4.753418 -1.1656414 -1.8913858
-4.7243652 -1.2800921 -1.8915648
-4.6925974 -1.3938342 -1.8917639
-4.658154 -1.506798 -1.8919817
-4.6210155 -1.6189278 -1.8922192
-4.5812497 -1.7301636 -1.8924755
-4.4938278 -1.9496981 -1.8930447
-4.4462109 -2.0578716 -1.8933574
-4.3960352 -2.1649082 -1.8936886
-4.2881446 -2.3753159 -1.8944055
-4.1703124 -2.5804515 -1.8951941
-3.9755566 -2.8772523 -1.8965076
-3.905957 -2.9730551 -1.8969795
-3.6052344 -3.3391712 -1.8990295
-3.5246484 -3.4261663 -1.8995816
-3.3573046 -3.5943511 -1.9007307
-3.18208 -3.7544839 -1.9019378
-3.0916016 -3.831408 -1.9025624
-2.9051757 -3.9787529 -1.9038522
-2.8093262 -4.049089 -1.9045166
-2.6126463 -4.1828723 -1.9058824
-2.5118945 -4.2462406 -1.9065832
-2.3059082 -4.3657384 -1.9080185
-2.2007616 -4.421793 -1.9087522
-1.8774706 -4.5747724 -1.9110129
-1.6559863 -4.6637845 -1.9125656
-1.5436327 -4.7043142 -1.9133543
-1.4303027 -4.7421546 -1.9141506
-0.85107422 -4.890214 -1.918231
-0.61476558 -4.9298596 -1.9199007
-0.49588865 -4.9454193 -1.9207416
-0.25699219 -4.9679523 -1.9224334
-0.13713866 -4.9749084 -1.9232833
0.22326171 -4.9784164 -1.9258434
0.46352538 -4.9662638 -1.9275534
0.5834375 -4.955832 -1.9284077
0.70313478 -4.9425035 -1.9292613
1.0600976 -4.8851676 -1.931811
1.1781542 -4.8602958 -1.9326557
1.2956152 -4.8325634 -1.9334968
1.412412 -4.8019834 -1.9343339
1.5285058 -4.7685637 -1.9351666
1.6438086 -4.7323303 -1.9359945
1.871709 -4.651475 -1.9376327
1.9842089 -4.6068954 -1.9384426
2.0956249 -4.559577 -1.9392456
2.3149805 -4.4568324 -1.9408283
2.634336 -4.2828517 -1.9431384
3.2317772 -3.8666928 -1.9474818
3.3252831 -3.7889361 -1.9481643
3.4168944 -3.7088931 -1.9488342
3.7632518 -3.3667998 -1.951376
3.8445604 -3.2760456 -1.9519751
3.9236424 -3.1833034 -1.952559
4.0004492 -3.0886269 -1.9531271
4.0749316 -2.9920731 -1.9536792
4.2840333 -2.6917152 -1.9552358
4.6337399 -2.0483661 -1.9578726
4.5579982 2.2145848 -1.9583427
4.3833299 2.5368774 -1.9571776
4.2539649 2.7441223 -1.9563076
4.1146774 2.9446831 -1.9553655
3.8879004 3.2319629 -1.9538223
3.807744 3.3238788 -1.9532744
3.5542479 3.587323 -1.9515356
3.4656055 3.6708703 -1.9509256
3.3749511 3.7522008 -1.9503008
3.2823827 3.8312683 -1.9496619
2.8939648 4.1240001 -1.9469713
2.6897364 4.2556748 -1.9455514
2.5853221 4.3177061 -1.9448242
1.8094726 4.3430591 -1.81822
1.3563671 4.4118433 -1.7837107
1.0324218 4.4926219 -1.7814283
0.70396483 4.5495825 -1.779108
0.37262693 4.5825243 -1.7767618
0.261875 4.5881495 -1.7759762
0.04024414 4.5913672 -1.7744023
-0.18110351 4.5838928 -1.7728279
-0.40162107 4.5657725 -1.7712568
-0.62082028 4.5370789 -1.7696927
-0.83826172 4.4979038 -1.7681384
-0.94602537 4.4744225 -1.7673672
-1.1596973 4.4197521 -1.7658361
-1.2654687 4.3886023 -1.7650771
-1.3736523 4.3642149 -1.7680786
-1.4863867 4.3538356 -1.7778897
-1.8439648 4.3448682 -1.8240335
-1.9675 4.3416233 -1.8420653
-2.0934863 4.3381214 -1.8614717
-2.3536718 4.3303175 -1.9046718
-2.4629588 4.2818751 -1.9089477
-2.5645409 4.2195826 -1.9082111
-2.7630076 4.0878868 -1.90677
-2.859746 4.0185642 -1.9060663
-2.9547656 3.9469774 -1.9053741
-3.2290623 3.7190635 -1.9033716
-3.4024022 3.556618 -1.9021014
-3.6472168 3.2981451 -1.9003009
-3.7998047 3.1165411 -1.8991737
-3.9434862 2.9280028 -1.8981085
-4.1416698 2.6331236 -1.8966305
-4.2029686 2.531837 -1.8961712
-4.318203 2.3251104 -1.8953035
-4.3720994 2.2197888 -1.8948956
-4.562119 1.7868316 -1.893443
-4.6771774 1.451571 -1.8925463
-4.7101855 1.3381383 -1.892285
-4.7404785 1.2239673 -1.8920428
-4.7929296 0.99367976 -1.8916155
-4.8343844 0.76120484 -1.8912661
-4.8509665 0.64431763 -1.8911206
-4.8647656 0.52707642 -1.8909948
-4.8757911 0.40954712 -1.8908888
-4.8840332 0.29179686 -1.8908023
-4.8894725 0.17389099 -1.8907359
-4.8919821 -0.062135007 -1.8906622
-4.8747849 -0.4157373 -1.8907008
-4.8325095 -0.76724422 -1.8909179
-4.8128905 -0.88364625 -1.89103
-4.7904978 -0.99955869 -1.8911616
-4.7653613 -1.1149182 -1.8913128
-4.5991111 -1.6811813 -1.8923601
-4.5578709 -1.7918868 -1.8926269
-4.4675488 -2.010263 -1.8932171
-4.4185157 -2.1178076 -1.89354
-4.3669238 -2.2241793 -1.8938814
-4.3128123 -2.3293166 -1.894241
-4.2562208 -2.4331615 -1.8946186
-4.1971483 -2.5356567 -1.895014
-4.1356835 -2.6367397 -1.8954269
-4.0717869 -2.7363558 -1.8958573
-3.8660839 -3.0258543 -1.8972503
-3.7929688 -3.1190548 -1.8977478
-3.717617 -3.210515 -1.8982614
-3.6401074 -3.3001785 -1.898791
-3.4787402 -3.4739285 -1.8998964
-3.3091698 -3.6398993 -1.901062
-3.221416 -3.7198508 -1.9016665
-3.0402441 -3.8734465 -1.9029174
-2.6566014 -4.1541486 -1.9055767
-2.4549608 -4.2805972 -1.9069797
-2.1414549 -4.452014 -1.9091666
-2.0342383 -4.5041428 -1.909916
-1.9257421 -4.5537143 -1.9106752
-1.8160644 -4.6006904 -1.9114432
-1.5933398 -4.6867557 -1.9130054
-1.480459 -4.7257872 -1.9137982
-1.1362792 -4.8265691 -1.9162196
-0.78529292 -4.9024267 -1.9186954
-0.42930663 -4.9528689 -1.921213
-0.30983397 -4.9639692 -1.9220592
-0.19006835 -4.9721923 -1.9229079
-0.070097655 -4.9775333 -1.9237591
0.17019531 -4.979538 -1.9254659
0.41052735 -4.9699445 -1.9271759
0.53053707 -4.9607935 -1.9280306
0.65034181 -4.9487424 -1.9288847
1.0078223 -4.8952298 -1.9314371
1.1261035 -4.8716269 -1.9322833
1.2438476 -4.8451562 -1.933126
1.3609473 -4.8158321 -1.9339648
1.4773632 -4.7836642 -1.9347998
1.5930078 -4.7486706 -1.9356297
1.8217285 -4.6702733 -1.9372733
1.9346777 -4.6269078 -1.9380859
2.0465722 -4.5807962 -1.9388919
2.4824317 -4.3693757 -1.9420389
2.5881445 -4.3099179 -1.9428039
3.1899219 -3.9002764 -1.9471765
3.3766894 -3.7445049 -1.9485401
3.4672167 -3.6632049 -1.9492027
3.808955 -3.3163557 -1.9517126
3.8890038 -3.2244873 -1.9523032
3.9668164 -3.1306522 -1.9528782
4.1863084 -2.8379712 -1.9545068
4.3838868 -2.5297363 -1.9559835
4.4446678 -2.42381 -1.9564403
4.5584083 -2.2075844 -1.9572997
4.611279 -2.0974154 -1.9577013
4.6614451 -1.9859527 -1.9580843
4.6334376 2.0552924 -1.9588408
4.5817089 2.1660936 -1.9584997
4.5272851 2.2755706 -1.9581388
4.4702048 2.3836541 -1.9577588
4.4104981 2.4902916 -1.9573599
4.3482227 2.595401 -1.9569421
4.2833691 2.6989398 -1.956506
4.1462693 2.901015 -1.9555798
3.9225879 3.1907556 -1.954059
3.6784472 3.4630919 -1.9523885
3.5927246 3.5497558 -1.9518002
3.5049803 3.6342578 -1.9511966
3.4152148 3.7165782 -1.9505785
3.1344042 3.9498706 -1.9486383
2.8375683 4.1617823 -1.9465796
2.6315918 4.2906408 -1.9451464
2.3741503 4.3261423 -1.9070474
2.2423046 4.330421 -1.8845321
1.7418749 4.3448291 -1.8089688
1.5098339 4.3646579 -1.78479
1.1888379 4.4567652 -1.7825311
1.0804785 4.4822168 -1.7817672
0.97320312 4.512506 -1.7839527
0.75250977 4.5427036 -1.7794514
0.64244139 4.5575376 -1.7786729
0.53208005 4.5697007 -1.7778915
0.42151368 4.5791883 -1.7771084
0.31079102 4.5860009 -1.7763232
0.19996093 4.590127 -1.7755368
0.089150392 4.5915747 -1.7747498
-0.021630859 4.5903549 -1.7739624
-0.24279296 4.5799012 -1.7723886
-0.68174803 4.5271864 -1.7692574
-0.79186523 4.5158567 -1.7717805
-1.0059375 4.4601793 -1.7669381
-1.112793 4.432693 -1.7661723
-1.3241699 4.3701048 -1.7646557
-1.4364941 4.3585205 -1.7734553
-1.7901562 4.3462229 -1.8164947
-2.165 4.3360534 -1.872933
-2.2952344 4.3321362 -1.8946142
-2.5199022 4.2473717 -1.9085348
-2.7197461 4.1177588 -1.9070843
-2.817246 4.0494447 -1.9063754
-2.9130371 3.9788537 -1.9056784
-3.1897557 3.7538049 -1.9036589
-3.4494042 3.5098076 -1.9017564
-3.5319335 3.4244823 -1.9011499
-3.6907225 3.2481482 -1.8999799
-3.9125586 2.9701848 -1.8983381
-4.0490818 2.7765367 -1.8973222
-4.1138477 2.6773772 -1.8968387
-4.2361326 2.4746435 -1.8959219
-4.293623 2.3711901 -1.8954889
-4.5431933 1.8354516 -1.8935891
-4.585371 1.7250317 -1.8932632
-4.6248927 1.6136523 -1.8929561
-4.6959472 1.3882983 -1.892398
-4.7274508 1.2744538 -1.8921472
-4.7562304 1.1598943 -1.8919157
-4.8056054 0.9289465 -1.8915101
-4.8261719 0.81268185 -1.8913367
-4.8439841 0.6959613 -1.8911825
-4.8712692 0.46145874 -1.8909332
-4.8807225 0.34379515 -1.8908381
-4.8912988 0.10798095 -1.8907073
-4.8862009 -0.24599059 -1.8906597
-4.855947 -0.59872377 -1.8907913
-4.8403025 -0.71572691 -1.8908749
-4.7501659 -1.1790924 -1.8914056
-4.7207713 -1.2934558 -1.8915874
-4.6539454 -1.5199767 -1.8920087
-4.3899999 -2.1773767 -1.8937286
-4.2814941 -2.3874893 -1.8944497
-4.2235155 -2.4905832 -1.8948373
-4.1630955 -2.5922995 -1.8952426
-4.1002731 -2.6925642 -1.8956653
-3.9675195 -2.8885596 -1.896562
-3.8255272 -3.0781307 -1.897526
-3.6745994 -3.2608283 -1.8985553
-3.5958886 -3.3494647 -1.8990936
-3.4321775 -3.5210805 -1.900216
-3.1715624 -3.7636054 -1.9020104
-2.8940332 -3.9871166 -1.9039294
-2.4999902 -4.253511 -1.906666
-2.3975585 -4.3141942 -1.9073794
-2.2936425 -4.372436 -1.9081039
-2.188369 -4.4281945 -1.9088387
-1.973789 -4.5321503 -1.9103389
-1.8646289 -4.580276 -1.911103
-1.642871 -4.6686754 -1.9126577
-1.5304004 -4.7088914 -1.9134473
-0.9546777 -4.8691244 -1.9174999
-0.71934569 -4.9137554 -1.9191613
-0.60083985 -4.9318304 -1.919999
-0.24296874 -4.9689169 -1.9225329
-0.12308594 -4.9755325 -1.9233831
-0.003017578 -4.9792619 -1.9242353
0.11714844 -4.9800911 -1.9250888
0.23734374 -4.9780259 -1.9259436
0.35750976 -4.9730597 -1.9267983
0.4775781 -4.965188 -1.9276533
0.5974707 -4.954421 -1.9285078
0.71712887 -4.9407535 -1.9293612
0.95545894 -4.9047337 -1.9310631
1.3093359 -4.8291254 -1.9335952
1.6572558 -4.7279005 -1.9360909
2.21875 -4.5035081 -1.9401336
2.3276954 -4.4504771 -1.9409201
2.5416503 -4.3364806 -1.9424673
2.6465623 -4.2755799 -1.9432271
2.8518748 -4.1461353 -1.9447165
2.952168 -4.0776606 -1.9454452
3.1476953 -3.933403 -1.9468685
3.2428417 -3.8576958 -1.9475626
3.336123 -3.7796712 -1.9482436
3.4274902 -3.6993625 -1.9489117
3.6043456 -3.5320916 -1.9502079
3.9327636 -3.1723068 -1.9526263
4.0093164 -3.0774124 -1.9531927
4.1553807 -2.8820491 -1.9542767
4.2917771 -2.6796701 -1.9552937
4.3562207 -2.575999 -1.955776
4.4774899 -2.3639965 -1.9566879
4.5882812 -2.1462088 -1.9575266
4.6396384 -2.0353045 -1.9579177
4.551631 2.2274194 -1.9583005
4.3760252 2.5491955 -1.9571289
4.2460837 2.7560577 -1.9562545
3.798203 3.3345134 -1.9532092
3.7155762 3.4241772 -1.9526433
3.5439649 3.5972278 -1.951465
3.4550586 3.6805174 -1.9508529
3.3642187 3.7615807 -1.9502267
3.1767578 3.9168627 -1.9489316
3.0802832 3.9909899 -1.9482635
2.98208 4.0627074 -1.9475828
2.8821776 4.1319909 -1.9468894
2.780664 4.1987891 -1.946184
2.6775877 4.2630763 -1.9454668
2.5697949 4.3194456 -1.9423274
2.4333301 4.3241611 -1.9174868
2.3001268 4.328568 -1.8942778
2.1699512 4.3326869 -1.8726224
2.0425489 4.3365307 -1.8524413
1.6751758 4.3471522 -1.8003727
1.5596484 4.3581386 -1.7888142
1.3438281 4.4154391 -1.7836225
0.58080077 4.5646629 -1.7782366
-0.19403321 4.5831237 -1.7727357
-0.85080075 4.4952855 -1.7680486
-0.95856446 4.4715014 -1.7672774
-1.1721679 4.4162302 -1.7657467
-1.2778125 4.3847861 -1.7649887
-1.6173437 4.3503308 -1.7936118
-2.6762011 4.1471739 -1.9074007
-2.7744141 4.0798841 -1.906687
-2.8709764 4.0102906 -1.9059844
-2.965791 3.9384434 -1.9052938
-3.2394335 3.7097669 -1.9032955
-3.3268554 3.6293297 -1.9026555
-3.4957616 3.4623809 -1.9014158
-3.8811717 3.012058 -1.8985711
-3.9516308 2.9167492 -1.8980479
-4.0197654 2.8198278 -1.8975408
-4.0855565 2.7213318 -1.8970501
-4.2685447 2.4170184 -1.8956779
-4.4778318 1.9928259 -1.8940905
-4.5670605 1.7738922 -1.8934048
-4.6077733 1.6629339 -1.8930895
-4.6811914 1.438324 -1.8925146
-4.7138867 1.3247949 -1.8922555
-4.7711134 1.0956305 -1.8917947
-4.8174415 0.86406004 -1.8914108
-4.8364744 0.74752927 -1.8912481
-4.8768945 0.39576292 -1.8908776
-4.8899317 0.16007018 -1.8907293
-4.8824415 -0.3118231 -1.8906709
-4.8619823 -0.54697508 -1.8907608
-4.8303514 -0.78091002 -1.8909302
-4.8104005 -0.89725035 -1.8910444
-4.7876954 -1.0131079 -1.8911783
-4.7622461 -1.1283935 -1.8913318
-4.7340817 -1.2430608 -1.8915048
-4.6333399 -1.58267 -1.8921402
-4.5944529 -1.6941992 -1.8923903
-4.4125876 -2.1303308 -1.893579
-4.360713 -2.2365661 -1.8939227
-4.3063183 -2.3415504 -1.8942844
-4.1283107 -2.6484902 -1.8954763
-3.9976268 -2.8458431 -1.8963583
-3.3849902 -3.5676258 -1.9005405
-3.2989745 -3.6493754 -1.9011321
-3.2110057 -3.7290878 -1.9017384
-3.1211329 -3.8066964 -1.9023585
-3.0294042 -3.8821776 -1.9029925
-2.8405859 -4.026535 -1.9042999
-2.7435937 -4.0953288 -1.9049727
-2.6449609 -4.1618223 -1.9056576
-2.3396873 -4.347034 -1.9077829
-2.2349999 -4.403892 -1.9085133
-2.0215819 -4.5100856 -1.9100045
-1.8031445 -4.6060247 -1.9115337
-1.6921874 -4.6500745 -1.9123118
-1.5801855 -4.6914692 -1.9130977
-1.3531933 -4.7661901 -1.9146928
-1.1226758 -4.8300042 -1.9163156
-1.006289 -4.857758 -1.9171358
-0.6532129 -4.9242053 -1.9196289
-0.53447264 -4.9406872 -1.9204684
-0.29581055 -4.9650822 -1.9221585
-0.17602539 -4.9729676 -1.9230076
-0.056044921 -4.9779716 -1.9238589
0.064091794 -4.980083 -1.9247121
0.3044824 -4.9756098 -1.9264212
0.42460936 -4.9690218 -1.9272763
0.54458982 -4.9595304 -1.9281307
0.66437501 -4.9471421 -1.9289848
0.90299803 -4.9136767 -1.9306881
1.2575977 -4.8418689 -1.9332246
1.6065234 -4.7443867 -1.9357265
1.7212304 -4.7062545 -1.9365507
1.9478418 -4.6216493 -1.9381808
2.0596192 -4.5752172 -1.9389861
2.1702831 -4.5260634 -1.9397839
2.8070996 -4.1755691 -1.9443913
2.9081151 -4.1081858 -1.9451251
3.105166 -3.9660647 -1.9465585
3.8184471 -3.3056939 -1.9517828
3.9757812 -3.1195307 -1.9529444
4.0510449 -3.0235784 -1.9535021
4.1239548 -2.925792 -1.9540429
4.1944432 -2.8262134 -1.9545676
4.3280954 -2.621959 -1.9555653
4.4516211 -2.411299 -1.9564929
4.5094919 -2.30373 -1.9569296
4.6173048 -2.0844119 -1.9577473
4.6275096 2.0683539 -1.9588019
4.5207324 2.2883124 -1.9580953
4.4633398 2.3962281 -1.957713
4.3407516 2.607619 -1.956892
4.0654197 3.01086 -1.955031
3.9905858 3.1072357 -1.9545223
3.6684959 3.473357 -1.9523205
3.4045508 3.7260778 -1.9505049
3.2187598 3.8833935 -1.9492221
3.123086 3.9585643 -1.94856
3.0256348 4.0313478 -1.9478848
2.9264648 4.1017137 -1.947197
2.4931445 4.3221164 -1.9282446
2.2270703 4.3309054 -1.8819956
2.0984571 4.334868 -1.861173
1.9725195 4.338562 -1.8417866
1.8490137 4.3420005 -1.8237731
1.4974316 4.3686938 -1.7847029
1.3910156 4.4017015 -1.7839546
1.2838476 4.4321008 -1.7832004
0.96000975 4.5132337 -1.7831595
0.84940428 4.5273914 -1.7801362
0.62952149 4.5591025 -1.7785814
0.4085156 4.5801244 -1.7770163
0.07615234 4.5915732 -1.7746576
-0.25573242 4.5789599 -1.7722964
-0.36592773 4.5694323 -1.7715111
-0.4758496 4.5572572 -1.7707274
-0.58541012 4.5424461 -1.7699454
-0.69448239 4.5250087 -1.7691664
-0.80491209 4.5151758 -1.7723989
-0.91123044 4.4823179 -1.7676163
-1.018496 4.4570923 -1.7668481
-1.3366601 4.3673973 -1.7650819
-1.4495996 4.3572936 -1.7746177
-1.5652343 4.3514929 -1.787117
-1.6838281 4.3487949 -1.8021712
-1.9271972 4.3427014 -1.8360713
-2.6323144 4.1761365 -1.9077194
-2.8285546 4.0412936 -1.9062932
-2.9241502 3.9704332 -1.9055972
-3.0180078 3.8973362 -1.9049129
-3.1100292 3.8220556 -1.9042413
-3.2885058 3.6650903 -1.9029363
-3.3748534 3.5835032 -1.9023035
-3.4591699 3.4999151 -1.9016845
-3.6997654 3.2375896 -1.8999133
-3.8493652 3.0535932 -1.8988067
-3.9208105 2.9590185 -1.8982768
-3.9899609 2.8628082 -1.8977627
-4.0567966 2.7649944 -1.8972647
-4.2429981 2.4625909 -1.8958703
-4.3549023 2.2540746 -1.8950258
-4.5037889 1.9321002 -1.8938918
-4.6997752 1.3749963 -1.8923677
-4.7309666 1.2610632 -1.8921191
-4.8081641 0.91534728 -1.8914889
-4.8284082 0.79902649 -1.8913177
-4.8458886 0.68225831 -1.8911657
-4.8605957 0.56512815 -1.8910335
-4.8725195 0.4476831 -1.890921
-4.8915625 0.094151609 -1.8907021
-4.8903027 -0.14188293 -1.8906552
-4.8778515 -0.37759092 -1.8906879
-4.854248 -0.61245424 -1.8908001
-4.8382812 -0.72940242 -1.8908858
-4.7980566 -0.96203613 -1.8911166
-4.7171583 -1.3068134 -1.89161
-4.6847653 -1.4203802 -1.8918133
-4.6496973 -1.5331519 -1.8920358
-4.6119432 -1.6450835 -1.8922775
-4.5715528 -1.7560912 -1.8925381
-4.4346876 -2.0830615 -1.8934333
-4.3839159 -2.1898272 -1.8937689
-4.2748337 -2.3996425 -1.8944943
-4.2165723 -2.5025721 -1.8948836
-4.155869 -2.6041255 -1.8952911
-4.0272655 -2.8028176 -1.8961577
-3.9594433 -2.8998477 -1.8966168
-3.8893261 -2.9952714 -1.8970922
-3.7423046 -3.1810558 -1.8980932
-3.4223437 -3.5308938 -1.9002835
-3.2500682 -3.694155 -1.9014691
-3.1610448 -3.7727029 -1.9020829
-2.9773729 -3.9233868 -1.9033523
-2.7866211 -4.0652428 -1.9046741
-2.5891602 -4.1979384 -1.9060457
-2.4880567 -4.2607493 -1.9067491
-2.3854492 -4.3211441 -1.9074639
-2.1759276 -4.4345689 -1.9089254
-2.0691309 -4.4875221 -1.9096719
-1.9610449 -4.5379224 -1.9104279
-1.6297656 -4.6735215 -1.9127496
-1.5171679 -4.7134247 -1.9135402
-1.2891406 -4.7851262 -1.9151434
-0.82350582 -4.8954444 -1.9184256
-0.5869531 -4.9337611 -1.9200974
-0.46794921 -4.9486542 -1.9209393
-0.34860352 -4.9606833 -1.9217843
-0.22892578 -4.969842 -1.9226325
-0.10902344 -4.976119 -1.9234829
0.011044921 -4.9795079 -1.9243352
0.13123046 -4.9800005 -1.9251889
0.25142577 -4.977592 -1.9260436
0.37158203 -4.9722881 -1.9268985
0.49165037 -4.9640799 -1.9277536
0.61152345 -4.9529691 -1.9286077
1.0878222 -4.8795958 -1.9320093
1.2057323 -4.854053 -1.9328531
1.4396875 -4.7944098 -1.9345295
1.7849121 -4.6837382 -1.9370085
2.0104003 -4.5960536 -1.9386314
2.1215723 -4.5480957 -1.9394326
2.2315819 -4.4974318 -1.9402261
2.3403809 -4.4440875 -1.9410119
2.4478514 -4.3881001 -1.9417886
3.0622461 -3.9982686 -1.946246
3.1589551 -3.9246533 -1.9469504
3.2538476 -3.8486836 -1.9476428
3.3469141 -3.7703836 -1.9483225
3.5272655 -3.6070051 -1.9496425
3.6144531 -3.5220218 -1.9502821
3.7824903 -3.3457186 -1.9515177
3.863291 -3.2544906 -1.9521133
3.9418359 -3.1612821 -1.9526935
4.0920701 -2.9691861 -1.9538062
4.1636033 -2.870388 -1.9543381
4.2994533 -2.6676028 -1.9553512
4.3636131 -2.5637565 -1.9558315
4.5406737 -2.2430146 -1.9571655
-4.2786427 -1.668153 -1.8946402
-4.1005468 -2.0739238 -1.8958095
-3.9420311 -2.3663344 -1.8968667
-3.8845897 -2.461241 -1.8972523
-3.6988964 -2.7375062 -1.8985063
-3.4938085 -3.0000191 -1.8999014
-3.3468261 -3.1667116 -1.9009063
-3.0295994 -3.4784372 -1.9030865
-2.945703 -3.5515859 -1.9036651
-2.8600585 -3.6227362 -1.9042568
-2.6837304 -3.7588735 -1.9054775
-2.5009668 -3.8865259 -1.9067459
-2.3121972 -4.005383 -1.908059
-2.1178124 -4.1151648 -1.9094141
-2.0186718 -4.1665645 -1.9101064
-1.8166894 -4.262229 -1.9115188
-1.6102344 -4.3481774 -1.9129653
-1.5054394 -4.3874421 -1.9137007
-1.3997265 -4.4241977 -1.914443
-1.2930957 -4.4584184 -1.9151925
-1.1856445 -4.4900861 -1.9159486
-1.0774024 -4.519176 -1.9167107
-0.96844727 -4.5456738 -1.9174786
-0.52682614 -4.6253481 -1.9205974
-0.30337891 -4.6492028 -1.9221792
-0.19123046 -4.6570921 -1.9229745
-0.078847654 -4.6622839 -1.9237715
0.033652343 -4.664763 -1.9245703
0.59595704 -4.6364408 -1.9285722
0.70792967 -4.6226306 -1.929371
0.93083006 -4.5868878 -1.930963
1.1519238 -4.54037 -1.9325449
1.2616308 -4.5130954 -1.9333309
1.5865819 -4.4153705 -1.935663
1.7991112 -4.337131 -1.9371914
1.9039745 -4.2941418 -1.9379466
2.0077734 -4.2486033 -1.9386947
2.1104686 -4.2005386 -1.9394358
2.2120214 -4.1499753 -1.9401693
2.3123436 -4.0969362 -1.9408947
2.5091209 -3.9835622 -1.9423196
2.700254 -3.8606665 -1.9437066
2.7935643 -3.7957299 -1.9443851
3.063828 -3.5874095 -1.9463546
3.2353809 -3.4376781 -1.9476087
3.3995214 -3.2796555 -1.9488122
3.6309471 -3.0278845 -1.950516
3.909951 -2.66678 -1.9525839
4.0359473 -2.4762857 -1.9535241
4.095449 -2.3787484 -1.95397
4.1525583 -2.2797637 -1.9543991
4.2072363 -2.1793883 -1.9548113
4.2422266 2.1172955 -1.956076
4.1336522 2.3185844 -1.9553524
4.0153708 2.5142369 -1.954558
3.8204784 2.7961235 -1.9532402
3.7510059 2.8867731 -1.9527678
3.6793554 2.9756749 -1.9522799
3.605576 3.0627759 -1.9517764
3.5297167 3.148026 -1.9512572
3.4517968 3.2313707 -1.9507235
3.2900586 3.3921618 -1.9496124
3.2063086 3.4695117 -1.9490356
2.9443066 3.6888561 -1.947226
2.853545 3.7575939 -1.9465975
2.5717578 3.9501257 -1.9446408
2.4748535 4.0096264 -1.9439663
2.3765721 4.0667272 -1.9432818
2.2769725 4.1213999 -1.9425869
2.0740333 4.2233396 -1.9411691
1.7475293 4.3235092 -1.9239258
1.5114453 4.3296213 -1.8919648
1.2823144 4.3348022 -1.864998
1.0589355 4.3391123 -1.8427055
0.94905269 4.3409581 -1.8332303
0.84020507 4.3426013 -1.8248318
0.62505859 4.345304 -1.8111738
-0.21821289 4.3487134 -1.7963852
-0.42914063 4.3477526 -1.8024493
-0.53522462 4.3469968 -1.8069665
-0.85739255 4.3436131 -1.8266032
-1.0766113 4.3403797 -1.8449572
-1.1879199 4.3384604 -1.8557854
-1.3005761 4.3363304 -1.8677542
-1.4146875 4.3339853 -1.880899
-1.754707 4.2945738 -1.9139827
-1.9582909 4.2017164 -1.9125143
-2.1570702 4.0992908 -1.9110779
-2.2544823 4.0445714 -1.9103727
-2.3505371 3.9875572 -1.9096768
-2.4451756 3.9282811 -1.9089904
-2.5383203 3.8667846 -1.908314
-2.6299317 3.8030994 -1.9076481
-2.7199805 3.7372656 -1.9069928
-2.8083887 3.6693296 -1.9063486
-2.9801269 3.527282 -1.9050949
-3.224375 3.2994432 -1.9033053
-3.3020411 3.2197392 -1.9027348
-3.3777537 3.1382251 -1.9021777
-3.5231934 2.9699817 -1.9011043
-3.5928416 2.8833497 -1.9005891
-3.7890234 2.6139886 -1.8991315
-3.9088573 2.427052 -1.898236
-3.9653709 2.3315294 -1.8978119
-4.0714941 2.136657 -1.8970116
-4.1210446 2.0374138 -1.8966364
-4.2129493 1.8356036 -1.8959357
-4.2552829 1.7331445 -1.8956105
-4.2951465 1.6297283 -1.8953027
-4.295908 -1.6224008 -1.8945283
-4.1691599 -1.9296445 -1.8953561
-4.0726271 -2.1292 -1.8959948
-4.0208106 -2.2272289 -1.89634
-3.9666698 -2.3240228 -1.8967016
-3.8515332 -2.5136609 -1.8974749
-3.7905858 -2.6064017 -1.897886
-3.7274413 -2.6976874 -1.8983129
-3.5946972 -2.8756938 -1.8992141
-3.5251563 -2.9623082 -1.8996876
-3.3799412 -3.1305206 -1.9006796
-3.147373 -3.369565 -1.9022753
-3.0660546 -3.4455199 -1.9028354
-2.8980761 -3.5915806 -1.9039941
-2.7232225 -3.729543 -1.9052039
-2.6333203 -3.7953901 -1.9058269
-1.7594628 -4.2872205 -1.9119195
-1.2331738 -4.4764252 -1.9156141
-1.1252637 -4.5066562 -1.9163736
-0.57594723 -4.6186404 -1.9202499
-0.35280272 -4.6448617 -1.9218292
-0.24076171 -4.6539435 -1.9226233
-0.1284668 -4.660327 -1.9234195
-0.016015625 -4.6640038 -1.9242176
0.20911132 -4.6632228 -1.9258173
0.32168946 -4.6587586 -1.9266181
0.43416014 -4.6515732 -1.9274191
0.54646486 -4.6416731 -1.9282194
0.6585449 -4.6290593 -1.9290185
1.2132909 -4.5254645 -1.9329846
1.3226367 -4.4967017 -1.9337683
1.5392187 -4.4312353 -1.9353225
1.6463085 -4.3945618 -1.9360921
1.8578027 -4.3134341 -1.937614
2.1673534 -4.1726012 -1.9398466
2.2682323 -4.1206532 -1.9405755
2.3678417 -4.0662456 -1.9412962
2.4661424 -4.0094142 -1.9420081
2.6585741 -3.8885915 -1.9434038
2.9358592 -3.6899941 -1.945421
3.0250194 -3.6193075 -1.9460711
3.1124902 -3.5464458 -1.9467099
3.2819922 -3.3943613 -1.9479501
3.4439745 -3.2340918 -1.949139
3.5220506 -3.1509948 -1.9497133
3.5980468 -3.0659959 -1.9502734
3.7438183 -2.8904858 -1.9513507
3.8808789 -2.7079647 -1.9523675
4.1276464 -2.323627 -1.9542117
4.2366896 -2.1227343 -1.9550341
4.2648926 2.0721593 -1.9562265
4.2129002 2.1740539 -1.955881
4.1015821 2.3738153 -1.9551376
3.980664 2.5678155 -1.9543241
3.8504198 2.7555726 -1.9534433
3.7819433 2.8469756 -1.9529784
3.5634472 3.1106279 -1.9514883
3.4864354 3.1948175 -1.950961
3.2435057 3.4356267 -1.9492919
3.1587403 3.5118163 -1.9487078
2.9838183 3.6578112 -1.9474994
2.7088671 3.8602171 -1.9455937
2.5178027 3.9836547 -1.9442654
2.4201269 4.0418177 -1.9435852
2.2207811 4.1508727 -1.9421946
2.1192186 4.2016993 -1.941485
1.8007226 4.3220263 -1.9316888
1.107793 4.3382325 -1.8472375
0.99742186 4.340167 -1.8372788
0.888125 4.3419003 -1.8284067
0.77978516 4.3434324 -1.8205993
0.35352537 4.3476624 -1.799615
0.24816406 4.3482542 -1.7968593
-0.17181641 4.3488245 -1.7955747
-0.59473634 4.346499 -1.8099247
-0.70176756 4.3454552 -1.8160129
-0.80955076 4.3442173 -1.8231299
-0.91821289 4.3427906 -1.8312951
-1.0278516 4.3411622 -1.8405327
-1.1386425 4.3393345 -1.8508669
-1.3641211 4.3350463 -1.8749496
-1.4791309 4.3325744 -1.888768
-1.8120313 4.2696142 -1.9135696
-1.9137695 4.223042 -1.9128358
-2.0143065 4.1740623 -1.9121097
-2.1136425 4.1227064 -1.9113919
-2.3083105 4.0130014 -1.9099829
-2.5896776 3.8314745 -1.907941
-2.6804395 3.7665856 -1.9072807
-2.7695508 3.6995764 -1.9066315
-2.9428124 3.5593262 -1.9053674
-3.2679882 3.2551439 -1.9029852
-3.3445702 3.1744275 -1.9024218
-3.491787 3.0076964 -1.9013364
-3.5623631 2.9217877 -1.9008148
-3.6971679 2.7451286 -1.899815
-3.7613866 2.6544757 -1.8993374
-3.8233788 2.562345 -1.8988752
-3.8831639 2.468786 -1.8984283
-3.9406836 2.3738556 -1.8979971
-3.9959471 2.2776055 -1.8975817
-4.099453 2.0813673 -1.8967999
-4.0439453 -2.1841109 -1.8961855
-3.9354198 -2.3775256 -1.896911
-3.8177538 -2.5656374 -1.8977025
-3.7555859 -2.6575789 -1.8981225
-3.556123 -2.9242814 -1.8994765
-3.4854295 -3.0099754 -1.8999587
-3.337949 -3.1762624 -1.900967
-3.2612598 -3.2567651 -1.9014931
-3.1021776 -3.4122267 -1.9025863
-3.0198534 -3.4871087 -1.9031537
-2.8499024 -3.6309433 -1.904327
-2.6731737 -3.7665889 -1.9055506
-2.5823925 -3.8312438 -1.9061804
-2.4900682 -3.8937345 -1.9068217
-2.3962207 -3.9540219 -1.907474
-2.3009472 -4.0120683 -1.9081374
-1.701875 -4.3114533 -1.912323
-1.4931152 -4.3918805 -1.9137872
-1.1729981 -4.493628 -1.9160376
-1.0646679 -4.5224175 -1.9168005
-0.95565426 -4.5486083 -1.9175688
-0.73573238 -4.5931206 -1.9191208
-0.62499022 -4.6114135 -1.9199032
-0.51377928 -4.6270413 -1.9206897
-0.40217772 -4.6399984 -1.9214795
-0.29026365 -4.6502662 -1.9222723
-0.1780664 -4.6578412 -1.9230677
-0.065673828 -4.662715 -1.923865
0.046835937 -4.6648784 -1.9246639
0.4969238 -4.6463809 -1.9278662
0.60911131 -4.6349635 -1.928666
0.7210449 -4.620832 -1.9294647
1.0545801 -4.5622277 -1.9318484
1.1648145 -4.5373106 -1.9326373
1.2744434 -4.5097265 -1.9334228
1.4916699 -4.4465895 -1.934981
1.5991503 -4.4110713 -1.9357531
1.7057519 -4.3729453 -1.9365196
1.811455 -4.3322239 -1.9372802
2.0198631 -4.2431006 -1.938782
2.2238672 -4.1438861 -1.9402549
2.4229393 -4.0347977 -1.9416952
2.5204785 -3.9766214 -1.942402
2.6166112 -3.9160671 -1.9430994
2.895957 -3.720489 -1.9451302
2.9858594 -3.6507792 -1.9457855
3.2452049 -3.4286439 -1.9476806
3.3280175 -3.3504083 -1.9482876
3.4878125 -3.1879137 -1.9494613
3.5647557 -3.1037483 -1.9500281
3.9814842 -2.5611465 -1.953117
4.043047 -2.4649324 -1.9535773
4.1022654 -2.3672266 -1.9540211
4.1590915 -2.2680712 -1.9544483
4.2361522 2.1292396 -1.9560357
4.1269922 2.3302104 -1.9553077
4.0687499 2.4285967 -1.9549173
4.0081544 2.525517 -1.9545095
3.8799706 2.7146916 -1.9536436
3.7427342 2.8972833 -1.9527117
3.362412 3.3221765 -1.9501098
3.2803416 3.4013312 -1.9495455
3.196367 3.4784429 -1.9489672
2.9337499 3.6970263 -1.947153
2.7502246 3.8317151 -1.945881
2.6560936 3.8956347 -1.945227
2.2652147 4.1276426 -1.9425049
2.1642187 4.1795678 -1.9417994
2.0619824 4.2289991 -1.9410849
1.6147265 4.3270421 -1.9054354
1.269082 4.3350782 -1.8635665
1.0459961 4.3393397 -1.8415393
0.50608397 4.3464832 -1.8053219
0.29464844 4.3480148 -1.7979547
-0.23052734 4.3486767 -1.7966323
-0.54768556 4.3469005 -1.8075606
-0.65444332 4.3459373 -1.8131994
-0.87012696 4.3434458 -1.8275601
-0.97931641 4.341908 -1.8363217
-1.2010547 4.3382225 -1.8571289
-1.6618164 4.3282652 -1.9127886
-1.7667675 4.2894044 -1.9138958
-1.8689941 4.2438965 -1.9131588
-2.0699217 4.145669 -1.911708
-2.168535 4.0929956 -1.9109949
-2.2658007 4.0380092 -1.9102908
-2.3616991 3.9807239 -1.9095958
-2.4561522 3.9211912 -1.9089108
-2.5491211 3.8594322 -1.9082355
-2.6405761 3.7954943 -1.9075707
-2.7304199 3.7294152 -1.9069167
-2.8186328 3.6612256 -1.9062737
-2.99 3.5187073 -1.9050227
-3.0730078 3.4444604 -1.9044152
-3.6681738 2.784652 -1.9000306
-3.7962987 2.603189 -1.8990773
-3.8570702 2.5102575 -1.8986236
-3.9718554 2.3202515 -1.897763
-4.0258102 2.2232842 -1.8973569
-4.0774217 2.1250916 -1.8969668
-4.1266894 2.0257115 -1.8965933
-4.1735644 1.9252167 -1.8962365
-4.2180371 1.823648 -1.8958966
-4.2087107 -1.8401691 -1.8950964
-4.1637692 -1.9414581 -1.8953915
-4.0666699 -2.1407509 -1.8960345
-3.9601855 -2.3352776 -1.896745
-3.8444922 -2.5245976 -1.8975222
-3.7832909 -2.6171744 -1.8979352
-3.5866601 -2.8859317 -1.8992686
-3.5168848 -2.9723547 -1.8997439
-3.3711913 -3.1401627 -1.9007394
-3.2953515 -3.2214551 -1.9012591
-3.2175975 -3.3009307 -1.9017929
-3.1379297 -3.3785658 -1.9023403
-2.9730859 -3.5280867 -1.9034762
-2.8880174 -3.5998857 -1.9040637
-2.8012109 -3.6696641 -1.9046639
-2.6226757 -3.8029697 -1.9059008
-2.3431835 -3.9867237 -1.9078432
-2.247129 -4.0435057 -1.9085122
-2.1496875 -4.0979962 -1.9091917
-2.0509472 -4.1501551 -1.909881
-1.8497558 -4.2473712 -1.9112875
-1.5395215 -4.3749847 -1.9134614
-1.4340918 -4.4125566 -1.9142016
-1.3277539 -4.4475999 -1.9149488
-1.2205566 -4.4801021 -1.9157028
-1.1125782 -4.5100303 -1.916463
-1.0038476 -4.5373693 -1.9172289
-0.89447266 -4.562099 -1.9180003
-0.78447264 -4.5842023 -1.9187765
-0.67394531 -4.6036658 -1.9195573
-0.56291991 -4.6204705 -1.9203421
-0.45146483 -4.6346097 -1.9211307
-0.3396875 -4.6460648 -1.9219221
-0.22761719 -4.6548314 -1.9227164
-0.11529297 -4.6608963 -1.9235128
-0.0028417967 -4.6642566 -1.9243112
0.22232421 -4.6628413 -1.9259112
0.33487305 -4.6580582 -1.9267122
0.44733396 -4.6505551 -1.9275128
0.55959958 -4.640337 -1.9283129
0.67166013 -4.6274042 -1.9291122
0.78340816 -4.6117616 -1.9299099
1.1162305 -4.5486383 -1.9322894
1.3353906 -4.493156 -1.9338598
1.5517968 -4.4270735 -1.9354129
1.6588086 -4.3900938 -1.9361819
1.7649024 -4.3505182 -1.9369452
1.8700781 -4.3083606 -1.9377023
1.9742285 -4.2636456 -1.9384531
2.1792481 -4.1666379 -1.9399325
2.4776073 -4.0025954 -1.9420912
2.5743456 -3.9430864 -1.9427927
2.669668 -3.8812244 -1.9434844
2.7634766 -3.8170326 -1.9441662
2.946367 -3.681823 -1.9454978
3.1225977 -3.5377645 -1.9467837
3.5310352 -3.1411307 -1.9497796
3.680537 -2.9688458 -1.9508826
3.75208 -2.8799841 -1.9514117
3.8886425 -2.6970587 -1.9524252
4.0161524 -2.5075853 -1.9533762
4.0764256 -2.4105346 -1.9538271
4.1897755 -2.2120831 -1.9546795
4.2427831 -2.1107965 -1.9550803
4.0947657 2.3853467 -1.9550917
4.0352049 2.4829271 -1.9546918
3.9732811 2.5789862 -1.9542743
3.7737792 2.8575757 -1.9529228
3.702832 2.9470439 -1.9524398
3.6297362 3.0347369 -1.9519414
3.5545311 3.1205902 -1.9514272
3.3980174 3.2865949 -1.9503546
3.3167968 3.3666437 -1.9497964
3.2336621 3.4446623 -1.9492242
3.1486719 3.5206037 -1.9486383
2.8831346 3.7355542 -1.9468025
2.6978416 3.8677087 -1.9455171
2.6028709 3.9303257 -1.9448571
2.5064256 3.9905968 -1.9441862
2.4085839 4.0484815 -1.9435049
2.3094139 4.1039405 -1.9428134
2.2089355 4.1569567 -1.942112
1.7865527 4.3224244 -1.929602
1.5491894 4.3286948 -1.8967966
1.3190331 4.3340244 -1.8690438
1.2062597 4.3363547 -1.8569565
1.0948046 4.3384705 -1.8460138
0.98456055 4.3403821 -1.836183
0.8753711 4.3420897 -1.8274381
0.76712888 4.3435998 -1.8197525
0.44685546 4.3469849 -1.8028653
0.34118164 4.3477402 -1.7992413
0.025800781 4.348917 -1.7942442
-0.079111323 4.3489451 -1.7945222
-0.18412109 4.3487988 -1.7957711
-0.71435547 4.3453183 -1.8167926
-0.93098629 4.3426108 -1.832322
-1.0407813 4.3409619 -1.8416858
-1.1516894 4.3391075 -1.8521523
-1.2638965 4.3370457 -1.8637468
-1.6096191 4.3295445 -1.9056705
-1.8240136 4.2642784 -1.9134833
-1.9256054 4.2174268 -1.9127504
-2.1251855 4.1165342 -1.9113085
-2.223037 4.0625634 -1.9106005
-2.508291 3.8869617 -1.9085323
-2.6003907 3.823983 -1.9078628
-2.7799022 3.6915855 -1.906556
-2.8671973 3.6222425 -1.9059194
-2.952744 3.5508568 -1.9052948
-3.0366015 3.4774742 -1.9046817
-3.1186132 3.4021399 -1.9040811
-3.1987889 3.3248925 -1.9034933
-3.2770703 3.2457757 -1.9029183
-3.5001659 2.9977198 -1.9012747
-3.6387012 2.8238885 -1.9002492
-3.76875 2.643759 -1.8992825
-3.8305175 2.5514531 -1.8988219
-3.947295 2.3626416 -1.8979477
-4.0549121 2.1685808 -1.8971369
-4.1052341 2.069715 -1.8967563
-4.1531739 1.96971 -1.896392
-4.1987009 1.8686035 -1.8960446
-4.2278223 -1.7951214 -1.8949713
-4.1839061 -1.896878 -1.895259
-3.9287694 -2.3887007 -1.8969555
-3.870791 -2.4832883 -1.8973451
-3.8105762 -2.5764933 -1.8977509
-3.7481444 -2.6682525 -1.8981727
-3.6835546 -2.7585299 -1.8986104
-3.5479295 -2.934407 -1.8995324
-3.4769921 -3.0199063 -1.9000163
-3.404043 -3.1037219 -1.9005148
-3.329082 -3.1857872 -1.9010278
-3.1733203 -3.3445303 -1.902097
-2.7520118 -3.7077425 -1.9050045
-2.6626368 -3.7742789 -1.9056238
-2.2896874 -4.0187254 -1.9082158
-1.8945605 -4.2267423 -1.9109739
-1.5857714 -4.3576026 -1.913137
-1.3747948 -4.4324479 -1.9146181
-1.2679688 -4.4660678 -1.9153693
-1.0519238 -4.5256205 -1.9168903
-0.94283199 -4.5515056 -1.9176593
-0.83309567 -4.5747728 -1.9184335
-0.72279292 -4.5954013 -1.9192123
-0.50072265 -4.6286993 -1.9207821
-0.052499998 -4.6631079 -1.9239585
0.28520507 -4.6605034 -1.9263586
0.51005858 -4.6451831 -1.9279598
0.84568357 -4.6018443 -1.9303546
1.0675293 -4.5594444 -1.9319409
1.1776855 -4.5342178 -1.9327295
1.2872461 -4.5063181 -1.9335147
1.3961426 -4.4757633 -1.9342957
1.6116797 -4.4067383 -1.9358431
1.9283886 -4.2836976 -1.9381225
2.0319531 -4.2375641 -1.9388692
2.1343846 -4.1889129 -1.9396086
2.2356641 -4.1377635 -1.9403403
2.4344335 -4.0281034 -1.9417784
2.6277733 -3.9088199 -1.9431802
2.7222655 -3.8456476 -1.9438667
2.9065721 -3.712435 -1.9452075
3.496953 -3.1781509 -1.9495285
3.5736327 -3.0937622 -1.9500934
3.7207615 -2.9194255 -1.9511799
3.7911229 -2.8295751 -1.951701
3.9251854 -2.6447823 -1.9526973
3.9888084 -2.5499501 -1.9531716
4.2196774 -2.1556723 -1.9549054
4.2713084 -2.0536611 -1.9552963
4.2300196 2.1411633 -1.9559948
4.1763673 2.2421656 -1.9556378
4.1202731 2.3418145 -1.9552627
4.0617771 2.4400311 -1.9548702
4.0008984 2.5367749 -1.9544605
3.8043945 2.8175287 -1.9531307
3.7344043 2.9077678 -1.952655
3.5879979 3.0829229 -1.9516561
3.3528905 3.3315587 -1.9500445
3.2705956 3.4104736 -1.9494784
3.1004295 3.5621033 -1.9483054
3.0126562 3.6347325 -1.9476988
2.9231737 3.7051709 -1.9470798
2.8320312 3.7733788 -1.9464483
2.5491796 3.9642847 -1.9444836
2.2534571 4.1338563 -1.9424227
2.0499413 4.2346301 -1.9410006
1.7194629 4.324275 -1.9199094
1.1438378 4.3375621 -1.8507049
0.92343748 4.3413596 -1.831166
0.70704103 4.3443589 -1.8159145
0.60002929 4.345571 -1.8098413
0.49363279 4.3465929 -1.8047802
0.28232422 4.3480811 -1.7976453
0.1771289 4.3485532 -1.7955503
-0.13776366 4.3488865 -1.7951001
-0.24287109 4.348639 -1.7968928
-0.34822264 4.3482041 -1.7996633
-0.45396483 4.3475938 -1.8034186
-0.56018555 4.3467979 -1.8081686
-0.9921875 4.3417139 -1.837419
-1.102578 4.3399501 -1.8473938
-1.2141992 4.3379798 -1.8584869
-1.4416504 4.3334007 -1.884154
-1.9818554 4.1902013 -1.9123442
-2.0815527 4.1396179 -1.9116238
-2.1800194 4.0866747 -1.9109118
-2.2771289 4.0314145 -1.9102087
-2.3728516 3.9738634 -1.909515
-2.4671288 3.9140673 -1.9088311
-2.6511719 3.7878637 -1.9074936
-2.7408397 3.7215331 -1.9068408
-2.9151952 3.5826147 -1.9055691
-3.0826268 3.4356291 -1.9043448
-3.2427342 3.2809284 -1.9031706
-3.3199511 3.2007928 -1.9026031
-3.395205 3.1188703 -1.9020491
-3.4684668 3.0351965 -1.9015087
-3.5396972 2.9498291 -1.9009825
-3.6088476 2.8628051 -1.9004705
-3.6759081 2.7741883 -1.8999732
-3.7408104 2.6840324 -1.8994906
-3.8640332 2.4992747 -1.8985714
-3.9223046 2.404779 -1.8981351
-3.9783008 2.3089533 -1.8977146
-4.178906 1.9133697 -1.8961957
-4.2230859 1.8116772 -1.8958578
-4.2648435 1.7089934 -1.8955369
-4.2464356 -1.749891 -1.8948497
-4.2035837 -1.8520862 -1.8951299
-4.15834 -1.9532608 -1.8954275
-3.9536328 -2.3465185 -1.896789
-3.8966601 -2.4417038 -1.8971711
-3.7759764 -2.627929 -1.8979847
-3.7123241 -2.7188632 -1.8984152
-3.578584 -2.8961391 -1.8993237
-3.4364941 -3.0669413 -1.9002928
-3.3624022 -3.1497793 -1.9007995
-3.2083495 -3.3101265 -1.9018562
-3.1284668 -3.3875399 -1.9024055
-3.0467381 -3.463042 -1.9029684
-2.8779492 -3.6081696 -1.9041332
-2.7022851 -3.7451653 -1.9053491
-2.5201561 -3.8737135 -1.9066125
-2.4268165 -3.9347167 -1.9072613
-2.1381934 -4.1042314 -1.909272
-1.7353418 -4.2974815 -1.9120886
-1.6318164 -4.3397336 -1.912814
-1.0998828 -4.5133653 -1.9165524
-0.9910742 -4.5404005 -1.9173189
-0.77156246 -4.5866218 -1.9188677
-0.66097653 -4.6057715 -1.919649
-0.4384082 -4.6360888 -1.921223
-0.32657227 -4.6472306 -1.9220151
0.010341797 -4.664475 -1.9244047
0.34804687 -4.6573181 -1.9268059
0.46048826 -4.649498 -1.9276065
0.68477535 -4.6257105 -1.9292058
1.0187402 -4.5697289 -1.9315917
1.3481348 -4.4895802 -1.933951
1.4566504 -4.4575458 -1.9347297
1.9863573 -4.2582426 -1.9385405
2.1911035 -4.1606464 -1.9400183
2.3910058 -4.0531464 -1.9414638
2.5855956 -3.9359589 -1.9428743
2.774375 -3.8093657 -1.9442455
2.8664649 -3.7426183 -1.9449154
2.9569042 -3.6736233 -1.9455744
3.0456738 -3.6024334 -1.9462218
3.1326952 -3.5290625 -1.9468576
3.3013573 -3.3759947 -1.948092
3.3828807 -3.2963846 -1.9486902
3.7603221 -2.8694613 -1.9514728
3.9610155 -2.5920041 -1.9529644
4.0233493 -2.49629 -1.9534298
4.0833302 -2.3990729 -1.953879
4.1409278 -2.300379 -1.9543116
4.2488184 -2.0988424 -1.9551258
-3.7584569 -2.1345291 -1.8982257
-3.7065527 -2.2249813 -1.8985733
-3.6524999 -2.314187 -1.8989362
-3.5963182 -2.4021039 -1.8993145
-3.4777539 -2.5738482 -1.9001162
-3.41541 -2.657584 -1.9005394
-3.3510644 -2.7398314 -1.9009771
-3.284785 -2.8205426 -1.9014289
-2.8480566 -3.2700109 -1.9044256
-2.7691405 -3.338717 -1.90497
-2.4375196 -3.594317 -1.9072658
-2.2627637 -3.710058 -1.9084802
-2.1733203 -3.7647936 -1.9091026
-2.0825489 -3.8173871 -1.9097351
-1.8972753 -3.9160402 -1.9110281
-1.8029003 -3.9620366 -1.9116879
-1.5132715 -4.0863662 -1.9137162
-1.4147656 -4.1231699 -1.9144073
-1.315371 -4.1576133 -1.9151053
-1.2151562 -4.1896753 -1.9158099
-1.1141504 -4.2193332 -1.9165205
-0.91001952 -4.2713623 -1.9179585
-0.70347655 -4.3135595 -1.9194162
-0.49500975 -4.3458028 -1.9208895
-0.28502929 -4.3679981 -1.9223762
-0.1796582 -4.3753033 -1.9231231
-0.074082032 -4.3800678 -1.9238722
0.031601563 -4.3822894 -1.9246227
0.13736328 -4.3819623 -1.9253742
0.24312499 -4.3790836 -1.9261262
0.34882811 -4.3736525 -1.9268783
0.45440429 -4.3656688 -1.9276304
0.6649707 -4.3420486 -1.929132
0.76980466 -4.3264232 -1.9298806
1.0818945 -4.2643595 -1.9321127
1.1849023 -4.2386374 -1.9328507
1.4899902 -4.1465497 -1.9350402
1.8853515 -3.9895566 -1.9378864
