# .PCD v0.7 - Point Cloud Data file format
VERSION 0.7
FIELDS x y z
SIZE 4 4 4
TYPE F F F
COUNT 1 1 1
WIDTH 1501
HEIGHT 1
VIEWPOINT 0 0 0 1 0 0 0
POINTS 1501
DATA ascii
7.6174803 -11.354214 -1.9765598
8.1727734 -10.995872 -1.9805692
8.2624607 -9.5827398 -1.8291342
9.3978415 -8.557374 -1.8374014
9.8159275 -8.1076307 -1.8404629
10.21166 -7.636806 -1.8433714
10.583867 -7.1460381 -1.8461183
10.931436 -6.6364932 -1.8486955
11.095674 -6.3750906 -1.8499181
12.541484 -6.0446854 -2.0126183
12.690762 -5.7436199 -2.0137446
12.832441 -5.438693 -2.0148184
12.966475 -5.1301713 -2.0158386
13.092724 -4.818224 -2.0168047
13.321533 -4.1848001 -2.0185721
13.518193 -3.5401182 -2.0201149
13.604277 -3.2140648 -2.0208006
13.68209 -2.8858652 -2.0214283
13.865449 -1.8903784 -2.0229602
13.945478 -1.2198639 -2.0236847
14.001592 -0.20832764 -2.0243208
13.996181 0.46726194 -2.0244429
13.980635 0.80475646 -2.0244131
13.923886 1.4779497 -2.0241716
13.882734 1.8131976 -2.0239601
13.775029 2.4799297 -2.0233569
13.708525 2.8109417 -2.0229654
13.633691 3.1401274 -2.0225143
12.096621 4.3744831 -1.8595402
11.982802 4.6631489 -1.8588041
11.861826 4.9487662 -1.858017
11.733682 5.2310896 -1.8571781
11.456435 5.7852349 -1.85535
11.307519 6.0567021 -1.8543619
11.151884 6.3241544 -1.8533252
10.990029 6.5876822 -1.8523021
9.0235548 6.3386698 -1.5941381
8.4653225 6.256845 -1.521745
7.7769432 6.3502274 -1.4514325
7.4064159 6.3515277 -1.4104716
7.0560055 6.3527555 -1.3725332
6.7237988 6.3539176 -1.3373448
6.1070895 6.3560758 -1.2742445
5.5447168 6.3580399 -1.2195425
5.2809472 6.3589592 -1.1949295
4.3205271 6.3623066 -1.1117698
3.8868065 6.3638153 -1.0779805
3.6212108 6.263804 -1.0459334
3.0489452 6.2829385 -1.0095681
2.8944433 6.3501053 -1.0088431
2.7116504 6.3507366 -0.99825686
2.3568652 6.3519611 -0.97941971
2.1842675 6.3525567 -0.97110182
1.6822265 6.3542862 -0.95022839
1.3582715 6.3553987 -0.93949217
1.04083 6.3564887 -0.93113858
0.41901365 6.3586149 -0.92120266
-0.34908202 6.3612323 -0.92097038
-0.50328124 6.3617544 -0.92253613
-0.65809572 6.3622808 -0.9246465
-0.81371093 6.3628092 -0.92730629
-1.1281152 6.363874 -0.93431127
-1.2872949 6.3644109 -0.93867743
-1.5936816 6.2986808 -0.93923813
-1.916455 6.2827544 -0.94955742
-2.0835838 6.2833171 -0.95696098
-2.4652343 6.385396 -0.98948652
-2.6441698 6.3859963 -0.99917501
-2.8267674 6.3866096 -1.0096492
-3.3999121 6.3885283 -1.0461762
-3.6006835 6.3892007 -1.060205
-3.8070312 6.3898892 -1.0752506
-4.0194139 6.3905988 -1.0913718
-4.2384181 6.3913288 -1.1086397
-4.6985741 6.3928604 -1.146924
-5.1928611 6.3945074 -1.1908168
-5.4547949 6.3953767 -1.21514
-6.0129294 6.3972282 -1.2691801
-6.6244726 6.3992572 -1.3314911
-6.8542967 6.3088174 -1.3466946
-7.1964355 6.3099504 -1.3835992
-7.6588473 6.3952627 -1.4424129
-8.4601851 6.397912 -1.5333635
-9.587842 6.8935137 -1.707101
-9.7438965 6.6551566 -1.7057966
-9.8946676 6.4136591 -1.7046013
-10.313525 5.6709256 -1.701465
-10.441416 5.417398 -1.7005011
-10.908037 4.3834662 -1.6994462
-11.642841 4.3555756 -1.7970332
-12.290977 3.2891796 -1.8393289
-12.536894 2.0873375 -1.8373059
-12.618056 1.4796594 -1.8365883
-12.671132 0.86910152 -1.8360684
-12.687119 0.56314272 -1.8358828
-12.696094 0.25690123 -1.8357469
-12.661455 -0.96755368 -1.8357016
-12.635224 -1.2727606 -1.8358145
-12.601963 -1.5773159 -1.8359774
-12.561708 -1.8810806 -1.83619
-12.514453 -2.1838558 -1.8364521
-12.460244 -2.4855382 -1.8367637
-11.990302 -4.2635632 -1.8396636
-11.888184 -4.5531845 -1.8403168
-11.779385 -4.8404679 -1.8410174
-11.663916 -5.1253071 -1.841766
-11.541884 -5.4075046 -1.8425616
-11.278222 -5.9634919 -1.8442931
-10.898555 -6.10358 -1.8057646
-10.330058 -6.1171427 -1.7355207
-9.977129 -6.2380109 -1.7010198
-9.676074 -6.7198977 -1.7030332
-9.3526564 -7.1879425 -1.7052081
-8.8267574 -7.8617859 -1.7087653
-8.4499512 -8.2907677 -1.7113266
-8.2539158 -8.4988289 -1.7126626
-7.6365232 -9.0957956 -1.7168844
-7.4212694 -9.2853432 -1.7183609
-7.5769238 -10.47903 -1.8693818
-5.3673339 -7.8133812 -1.3703445
-7.0757518 -10.852292 -1.8728354
-6.5566111 -11.202344 -1.8764212
-6.2906346 -11.368384 -1.8782617
-6.0205564 -11.528296 -1.8801326
-5.4686327 -11.829309 -1.8839619
-4.9019532 -12.104558 -1.8879015
-4.6134763 -12.23228 -1.8899101
-4.3216991 -12.353278 -1.8919436
-4.0268064 -12.467483 -1.8940006
-3.7289941 -12.574782 -1.89608
-3.4283593 -12.675108 -1.8981811
-2.2010937 -13.005089 -1.9067764
-1.5749023 -13.126306 -1.9111733
-1.259248 -13.175748 -1.9133923
-0.62375975 -13.252055 -1.9178655
0.65904295 -13.313037 -1.9269172
1.3034766 -13.297151 -1.9314755
1.6257812 -13.277501 -1.933758
1.9478906 -13.250052 -1.9360409
2.269619 -13.214759 -1.938323
2.9111621 -13.120701 -1.9428794
3.5488768 -12.995283 -1.9474162
4.4948239 -12.748639 -1.9541601
3.0387108 -7.9980054 -1.2368438
5.1160154 -12.545444 -1.9585986
6.0299315 -12.183223 -1.9651432
6.91749 -11.753294 -1.971518
7.7735152 -11.257433 -1.9776855
8.0509472 -11.077842 -1.9796889
8.3946381 -9.4760103 -1.8300936
8.628828 -9.2793703 -1.8317953
9.0826855 -8.8683662 -1.8351004
9.5162697 -8.4345016 -1.8382677
9.7250195 -8.2093134 -1.8397963
10.317529 -7.5023184 -1.8441514
10.856455 -6.7511497 -1.8481383
11.023564 -6.491672 -1.8493807
11.718974 -6.1601357 -1.9139135
12.62542 -5.8777661 -2.0132511
13.037626 -4.957129 -2.0163827
13.273477 -4.3264265 -2.0181987
13.477344 -3.6841056 -2.0197921
13.648564 -3.0318313 -2.0211568
13.843096 -2.0385756 -2.0227671
13.891113 -1.7044162 -2.0231855
13.930654 -1.3690569 -2.0235443
13.984179 -0.69575012 -2.0240822
13.998144 -0.35826293 -2.0242612
14.003535 -0.020473633 -2.0243793
13.988584 0.654953 -2.0244336
13.96829 0.99219114 -2.02437
13.939414 1.3287585 -2.024246
13.801855 2.3324382 -2.0235114
13.588506 3.3222606 -2.0222385
13.30081 4.2923322 -2.0204351
11.916406 4.8223648 -1.8583726
11.791416 5.1061587 -1.8575567
11.659413 5.3865924 -1.85669
11.520381 5.6634941 -1.855773
11.374492 5.936646 -1.8548068
11.062422 6.4710441 -1.8527154
9.2311811 6.3379397 -1.6187308
7.9484763 6.349627 -1.4706695
7.5683007 6.3509612 -1.4282658
7.209209 6.3522186 -1.3890213
6.8691697 6.3534088 -1.352646
6.2389355 6.3556147 -1.2874761
5.9457321 6.3566399 -1.2582549
5.3967285 6.3585563 -1.2056453
5.1387892 6.3594546 -1.1819606
4.1972361 6.3627348 -1.1019065
3.7707908 6.3642168 -1.0693847
3.5101757 6.2641897 -1.0380419
3.1323924 6.2826495 -1.0148532
2.9768651 6.3498197 -1.013805
2.7923338 6.3504581 -1.002858
2.6116405 6.3510818 -0.992715
2.4344921 6.3516936 -0.98334378
2.2605274 6.352294 -0.9747079
1.2694433 6.3557038 -0.93693519
0.48744139 6.3583817 -0.92187226
0.026308592 6.3599539 -0.91940933
-0.1271289 6.3604765 -0.91966218
-0.28077146 6.3609991 -0.92044783
-0.58927733 6.3620477 -0.92364126
-0.74451172 6.3625736 -0.92605579
-0.90065426 6.3631034 -0.92902648
-1.3764551 6.3647122 -0.94136143
-2.7452343 6.3863358 -1.0048991
-3.1189549 6.3875885 -1.0275983
-3.3124413 6.3882356 -1.0402567
-3.9243457 6.3902802 -1.0840766
-5.3371778 6.3949857 -1.2041323
-5.8847461 6.3968034 -1.2565171
-6.1771483 6.3977728 -1.2856117
-6.8054786 6.3998542 -1.3504922
-7.4037108 6.3180509 -1.4070312
-7.871943 6.3959684 -1.4662585
-9.675312 6.7614069 -1.7063713
-9.8282423 6.5211577 -1.7050962
-9.9762497 6.2781205 -1.7039926
-10.118447 6.0318789 -1.7029291
-10.509941 5.2752509 -1.699983
-12.175049 3.7171049 -1.8402494
-12.399815 2.8242161 -1.8384494
-12.562275 1.9187603 -1.8370866
-12.602461 1.6148314 -1.8367306
-12.635634 1.3101544 -1.8364239
-12.661797 1.004815 -1.8361666
-12.698008 0.086569823 -1.835693
-12.695996 -0.21973816 -1.8356346
-12.686953 -0.5259515 -1.8356259
-12.670859 -0.8318463 -1.8356673
-12.647724 -1.1373321 -1.8357583
-12.58042 -1.7463406 -1.8360896
-12.536289 -2.0495639 -1.8363296
-12.485175 -2.3517342 -1.8366193
-12.427099 -2.6527264 -1.8369584
-12.290205 -3.2504714 -1.8377842
-12.12585 -3.8415973 -1.8388057
-11.934365 -4.4248729 -1.8400207
-11.828496 -4.7132177 -1.8407005
-11.715996 -4.9991479 -1.8414279
-11.596894 -5.2825522 -1.8422024
-11.165908 -6.097146 -1.8391372
-10.04085 -6.1292663 -1.7005954
-9.8956928 -6.373313 -1.7015632
-9.7448435 -6.6140909 -1.7025723
-9.5883884 -6.8514514 -1.7036217
-9.4263477 -7.0852952 -1.7047116
-9.0858688 -7.5418496 -1.7070098
-8.9075975 -7.7643127 -1.7082168
-8.724062 -7.9827285 -1.7094623
-8.5353518 -8.1970148 -1.7107451
-7.5174217 -9.2017937 -1.7177012
-7.2996192 -9.3886156 -1.7191961
-7.0772071 -9.5704699 -1.7207249
-5.4564843 -7.7636356 -1.3717953
-5.2559276 -7.8755188 -1.3687537
-6.9331641 -10.951978 -1.8738192
-6.140986 -11.458064 -1.8792981
-5.5925097 -11.764683 -1.8831018
-5.0289841 -12.04572 -1.8870177
-4.7419629 -12.176406 -1.8890153
-4.4516602 -12.300388 -1.8910376
-4.1581149 -12.417626 -1.8930845
-3.5622168 -12.631415 -1.8972453
-3.2600584 -12.727827 -1.8993579
-2.9554002 -12.817143 -1.9014899
-2.3391016 -12.974162 -1.9058083
-2.0277441 -13.041748 -1.9079927
-1.7144922 -13.101951 -1.9101925
-1.3996191 -13.154731 -1.9124054
-1.0831445 -13.199995 -1.9146312
-0.76529294 -13.237729 -1.9168686
1.482705 -13.287192 -1.9327444
1.8049316 -13.263201 -1.9350275
2.1268065 -13.231391 -1.9373099
2.4482617 -13.191773 -1.9395911
3.4076953 -13.025842 -1.9464113
3.7252831 -12.954865 -1.9486724
4.0413575 -12.876099 -1.950925
4.355752 -12.789566 -1.9531673
4.9788771 -12.593219 -1.9576179
5.5929685 -12.366126 -1.9620119
5.8961911 -12.241139 -1.9641845
6.1965623 -12.108603 -1.9663388
7.3657713 -11.5042 -1.9747454
7.648994 -11.334898 -1.9767871
8.2033987 -10.974966 -1.9807906
8.4741011 -10.784556 -1.982749
8.7402639 -10.587263 -1.9846767
8.2892084 -9.5613728 -1.8293283
8.5254393 -9.3673983 -1.8310438
8.7569532 -9.1674757 -1.8327274
8.9836426 -8.9616108 -1.8343784
9.2053022 -8.7499971 -1.8359951
10.038809 -7.8483515 -1.8420995
10.233134 -7.6098428 -1.8435295
10.780214 -6.8649845 -1.8475724
10.950166 -6.6074347 -1.8488345
11.429814 -6.1652656 -1.8773626
12.097314 -6.1533732 -1.9620495
12.847832 -5.4043531 -2.0149353
12.980986 -5.0954056 -2.0159495
13.106367 -4.783052 -2.0169098
13.223877 -4.4674926 -2.0178149
13.333408 -4.1489825 -2.0186646
13.613408 -3.1773894 -2.0208738
13.819072 -2.1864984 -2.022562
13.870839 -1.852901 -2.0230069
13.91415 -1.5180877 -2.0233927
13.975254 -0.84544128 -2.0239837
13.919697 1.5155743 -2.0241508
13.877598 1.8506683 -2.0239327
13.827002 2.1846123 -2.0236542
13.624784 3.1768627 -2.0224602
13.348007 4.1502204 -2.0207348
12.761104 4.3079925 -1.9470553
11.847802 4.9805474 -1.8579252
11.29042 6.0868473 -1.854248
10.971523 6.6170158 -1.852196
8.8642483 6.2626286 -1.5689778
8.1246777 6.349009 -1.4906011
7.7343554 6.3503776 -1.4466814
7.0179391 6.3528886 -1.3684628
5.2520313 6.3590608 -1.1922725
4.5221386 6.3616047 -1.1283171
4.2954884 6.3623929 -1.1097496
4.0760741 6.3631573 -1.0924128
3.8632715 6.3638959 -1.0762213
3.2079589 6.2652373 -1.0175341
3.0280371 6.2830119 -1.0082612
2.8737402 6.3501763 -1.0076159
2.6914258 6.3508062 -0.99712211
2.5127246 6.3514237 -0.98741186
2.337373 6.3520293 -0.97845256
1.828584 6.3537836 -0.9557929
1.6638573 6.3543496 -0.94956017
-0.62333006 6.3620305 -1.0715803
-0.77874023 6.3625579 -1.0745209
-1.0926074 6.3636189 -1.0823497
-1.2514551 6.3641558 -1.0872605
-1.4118359 6.3646979 -1.0928543
-1.5739648 6.3652434 -1.0991501
-1.8793066 6.2824931 -1.09925
-2.7854493 6.3863263 -1.1679455
-2.9711132 6.3869462 -1.1808259
-3.3555565 6.3882303 -1.2096107
-3.5551171 6.3888955 -1.2256229
-3.7601757 6.3895807 -1.2427976
-3.9711621 6.3902812 -1.2612048
-4.1886325 6.391005 -1.2809241
-4.4131446 6.3917499 -1.3020374
-5.1354489 6.3941445 -1.3747612
-6.5527539 6.3988285 -1.5353045
-7.1179099 6.3094926 -1.5944797
-7.8367772 6.6160479 -1.7192445
-7.9886422 6.4207048 -1.7180737
-8.5493746 5.6075358 -1.713918
-8.9181147 4.9666276 -1.7111601
-9.1504297 4.5322895 -1.7117538
-10.240068 4.1794791 -1.8540344
-10.333877 3.9297197 -1.8533121
-10.421816 3.6779449 -1.8526312
-10.580019 3.1688898 -1.8513923
-10.714346 2.6533825 -1.8503207
-10.944306 1.3434112 -1.8483851
-11.008965 0.54830259 -1.8477397
-11.021328 0.0166864 -1.8475263
-11.018251 -0.24917358 -1.8474849
-11.009062 -0.51489133 -1.8474871
-10.972217 -1.045346 -1.8476217
-10.825058 -2.0985589 -1.8484122
-10.773067 -2.3594623 -1.8487176
-10.505 -3.3894916 -1.850368
-10.423096 -3.6429327 -1.8508869
-10.335293 -3.8944829 -1.8514477
-10.241699 -4.1440129 -1.8520502
-10.142275 -4.3913875 -1.852694
-10.0371 -4.6364813 -1.8533795
-9.92624 -4.8791666 -1.8541055
-9.8096972 -5.1193061 -1.8548721
-9.4267092 -5.8232298 -1.8574121
-8.4702053 -6.1205683 -1.75178
-8.1407032 -6.1867795 -1.7140107
-7.685791 -6.7713885 -1.7170874
-7.5249996 -6.9592385 -1.7181792
-7.1901269 -7.3237858 -1.7204595
-7.016201 -7.5002747 -1.7216468
-6.8380661 -7.67276 -1.7228647
-6.469502 -8.0053616 -1.7253909
-6.085166 -8.3207884 -1.7280324
-5.2043552 -7.888535 -1.5842272
-5.0603223 -9.0293951 -1.7351074
-4.8451953 -9.1566963 -1.7365975
-4.6269336 -9.2789888 -1.7381113
-4.2943749 -10.441541 -1.8925899
-3.5379198 -10.754613 -1.8978617
-3.2805469 -10.847089 -1.8996588
-1.1481055 -11.363641 -1.9146074
-0.87452149 -11.399485 -1.9165324
-0.59990233 -11.428782 -1.9184663
-0.048076171 -11.467622 -1.922357
0.22880858 -11.477101 -1.9243116
0.50610352 -11.47992 -1.9262707
1.0613574 -11.465482 -1.9301987
1.616416 -11.424178 -1.934131
1.8934473 -11.39343 -1.9360962
2.1699317 -11.35594 -1.9380592
2.4457128 -11.311708 -1.9400188
2.7205956 -11.260753 -1.9419736
2.9944432 -11.203087 -1.9439225
3.2670898 -11.138711 -1.9458648
3.5383399 -11.067646 -1.9477986
3.8080468 -10.989923 -1.9497231
4.6062303 -10.717048 -1.9554291
4.8680563 -10.612995 -1.957304
5.6523829 -9.205204 -1.8107771
5.8780856 -9.074316 -1.8124033
6.3199997 -8.7957039 -1.8155926
6.5359473 -8.6481237 -1.8171536
6.7483692 -8.4951296 -1.8186913
6.957119 -8.336791 -1.8202041
7.7525487 -7.6519237 -1.8259882
8.3038769 -7.0869007 -1.8300185
8.4783201 -6.8893418 -1.8312982
9.7717285 -6.1501288 -1.9354839
10.378603 -5.8530297 -1.9973778
10.522431 -5.6039972 -1.9984534
10.660069 -5.3512998 -1.9994859
11.350185 -3.7675602 -2.0047388
11.441846 -3.4939067 -2.0054512
11.526621 -3.2179492 -2.0061159
11.845332 -1.80987 -2.008702
11.922919 -1.2368701 -2.0093863
11.950859 -0.94902217 -2.0096519
11.991094 -0.082377315 -2.0101416
11.98998 0.2069165 -2.0102024
11.965849 0.78494871 -2.010169
11.875166 1.6478113 -2.0097327
11.830507 1.9335492 -2.0094845
11.778671 2.2180388 -2.0091856
11.719716 2.5010962 -2.008836
11.653632 2.782522 -2.0084357
11.50042 3.3397667 -2.0074849
11.319472 3.8883281 -2.0063362
11.218769 4.1589055 -2.0056887
10.815029 4.3087382 -1.9515262
10.161435 4.3352103 -1.8519247
9.7755566 5.0350714 -1.8432926
9.5122852 5.4954715 -1.8415411
8.919219 6.372592 -1.8375574
8.7579489 6.5821733 -1.8365195
8.5919333 6.7878265 -1.8355197
7.6513476 6.3504629 -1.6668303
7.287744 6.3517437 -1.6205386
6.6170311 6.3541021 -1.5378277
6.3063474 6.3551931 -1.5008264
5.1955857 6.3590899 -1.3765405
4.7042379 6.3608074 -1.3261945
4.4715528 6.3616204 -1.3034885
4.2465625 6.3624063 -1.2822808
3.5546582 6.2638874 -1.2073163
2.4738476 6.3514166 -1.1426055
2.1275487 6.3526139 -1.1230308
1.9586133 6.3531976 -1.1144543
1.6279004 6.3543363 -1.0995848
1.4656445 6.3548956 -1.0932429
0.83220702 6.3570695 -1.0747356
0.52203125 6.3581314 -1.0694069
-0.092734374 6.3602276 -1.0662848
-0.24629882 6.3607502 -1.0670582
-0.4001953 6.3612723 -1.0684551
-0.55458009 6.3617973 -1.0704792
-1.1807519 6.3639178 -1.0849969
-1.501748 6.3650002 -1.0962673
-2.3474901 6.3848591 -1.1403495
-2.8881738 6.3866706 -1.1749873
-3.6684277 6.3892741 -1.2350258
-3.8767285 6.3899674 -1.2528776
-4.3125682 6.3914175 -1.2924858
-5.0234571 6.393775 -1.3630354
-5.2784762 6.3946185 -1.3899634
-5.5439649 6.3954988 -1.4188199
-5.8208494 6.3964128 -1.4497607
-6.7316895 6.3994184 -1.5569744
-6.9656053 6.3089924 -1.5754035
-7.7679687 6.7017789 -1.7198031
-7.9215918 6.5077043 -1.7185534
-8.2159176 6.1103778 -1.7163939
-8.3558979 5.906846 -1.7153563
-8.4909668 5.7002277 -1.7143527
-8.9814157 4.8452044 -1.7106838
-9.694931 4.3568316 -1.781745
-10.196533 4.2896929 -1.8543682
-10.292939 4.0408611 -1.8536279
-10.546963 3.2824872 -1.851653
-10.619775 3.0261681 -1.8510776
-10.686591 2.7683263 -1.8505442
-10.747393 2.509063 -1.8500531
-10.960449 1.1963842 -1.8482362
-10.984726 0.93152404 -1.8480017
-11.002881 0.66621518 -1.8478106
-11.014883 0.40056762 -1.8476629
-11.020693 0.13473266 -1.8475589
-11.013906 -0.39695066 -1.8474808
-11.001279 -0.66252744 -1.847507
-10.9825 -0.92775142 -1.8475769
-10.741552 -2.5040152 -1.8489062
-10.539473 -3.2763944 -1.8501512
-10.460176 -3.5306349 -1.8506515
-10.187129 -4.2818327 -1.8524032
-10.084521 -4.5279589 -1.85307
-9.9761524 -4.7717309 -1.853778
-9.8621387 -5.0130091 -1.8545266
-9.7424803 -5.2516875 -1.8553158
-9.6172552 -5.4876304 -1.856145
-9.3503218 -5.9507804 -1.8579217
-8.0595608 -6.2974319 -1.7145579
-7.7557321 -6.686831 -1.7166128
-7.0939255 -7.4224033 -1.7211159
-6.9176855 -7.596674 -1.7223202
-6.7372165 -7.7669058 -1.7235552
-6.5527244 -7.9329844 -1.7248199
-6.3642087 -8.0948095 -1.7261138
-5.4936523 -7.7273879 -1.5893487
-5.572207 -8.6977358 -1.7315682
-4.7241993 -9.2253084 -1.7374365
-3.395117 -10.806781 -1.8988585
-2.6122851 -11.055768 -1.9043323
-2.3471191 -11.126409 -1.9061896
-2.0800781 -11.190774 -1.9080616
-1.2691699 -11.345643 -1.913756
-0.44678709 -11.442227 -1.9195453
0.10581055 -11.473711 -1.9234432
0.93808591 -11.471008 -1.9293258
1.7705176 -11.407907 -1.9352239
2.3233788 -11.33217 -1.9391494
2.5986719 -11.284208 -1.9411062
2.8729882 -11.229514 -1.9430578
3.1462011 -11.168118 -1.9450036
3.9572852 -10.94383 -1.9507889
4.4892383 -10.76117 -1.9545916
4.7520895 -10.660002 -1.9564734
5.0126462 -10.55232 -1.9583404
6.2230272 -8.8594751 -1.8148921
6.6545019 -8.5637121 -1.8180116
7.0715427 -8.2464743 -1.8210342
7.6675487 -7.7319016 -1.8253684
8.2248831 -7.1731625 -1.8294396
8.4014645 -6.9775987 -1.8307343
8.5732422 -6.7775712 -1.8319955
8.740097 -6.5731955 -1.8332232
8.9019136 -6.3645983 -1.8344162
10.059375 -6.1443419 -1.9759539
10.459326 -5.7150149 -1.997981
10.599736 -5.4639196 -1.9990329
10.733857 -5.2092724 -2.0000412
10.982949 -4.6899133 -2.0019245
11.097734 -4.425539 -2.0027983
11.307334 -3.8882599 -2.0044074
11.401992 -3.6156869 -2.005141
11.489843 -3.3407321 -2.0058267
11.570762 -3.0635815 -2.0064645
11.644716 -2.7843859 -2.0070534
11.711631 -2.5033453 -2.0075927
11.771484 -2.2206402 -2.0080829
11.824219 -1.9364624 -2.008523
11.869795 -1.6509854 -2.0089126
11.939345 -1.0769147 -2.0095403
11.963262 -0.78868347 -2.0097778
11.979912 -0.49991331 -2.0099638
11.989286 -0.21079895 -2.0100985
11.991386 0.078485109 -2.0101819
11.973701 0.65675843 -2.0101941
11.953975 0.94537228 -2.010123
11.926953 1.2333722 -2.0100002
11.892685 1.5205926 -2.0098264
11.851231 1.8068322 -2.0096011
11.683838 2.6577923 -2.0086195
11.613867 2.9382372 -2.0081916
11.362031 3.7673771 -2.0066082
10.43375 4.3198967 -1.8930151
10.065722 4.4549079 -1.8452059
9.704648 5.1644254 -1.8428222
9.5726852 5.3944535 -1.8419442
9.4350681 5.6210027 -1.8410252
9.2918749 5.8439188 -1.8400661
9.1432514 6.0630646 -1.8390675
8.9892673 6.2783222 -1.8380302
8.6662598 6.6970425 -1.8359684
7.8195701 6.3498712 -1.6885632
7.094121 6.3524246 -1.5962873
6.7599607 6.3535991 -1.555142
6.4424024 6.3547158 -1.5169218
5.5747948 6.3577604 -1.4174478
5.309834 6.3586893 -1.3886855
4.1245508 6.3628325 -1.2711011
3.910332 6.3635783 -1.2520373
3.6437109 6.263576 -1.2147077
3.2506738 6.2649446 -1.1831551
3.0698633 6.2827225 -1.1721801
2.9150975 6.3498883 -1.1712483
2.552412 6.3511453 -1.1474097
2.0333006 6.3529401 -1.118166
1.2166015 6.355751 -1.084765
0.74565428 6.3573661 -1.0729964
0.43625975 6.3584247 -1.0683748
-0.024599608 6.3599954 -1.0661415
-0.33182615 6.3610415 -1.0677569
-0.48596677 6.3615642 -1.0695024
-0.79621094 6.3626165 -1.0748904
-0.95269531 6.3631449 -1.0785495
-1.1103418 6.3636799 -1.082866
-1.4299121 6.364759 -1.0935254
-1.5853808 6.3378668 -1.0951562
-1.8978418 6.2825556 -1.1001538
-2.0646679 6.2831159 -1.108654
-2.6238964 6.3857856 -1.1573004
-2.8060546 6.3863959 -1.1693414
-3.1825781 6.3876543 -1.1963165
-3.3776758 6.3883047 -1.2113509
-3.5778222 6.3889713 -1.2274895
-3.7835057 6.3896575 -1.2447987
-3.9952049 6.3903618 -1.2633493
-4.2134376 6.3910871 -1.2832185
-4.4387693 6.3918338 -1.3044947
-4.6718454 6.3926091 -1.3272728
-4.9133496 6.3934097 -1.3516597
-7.8539844 6.5942936 -1.7191044
-8.9309759 4.9422183 -1.7110634
-9.0431347 4.7230144 -1.7102188
-9.1501169 4.5013604 -1.7094101
-9.4386911 4.363781 -1.7431457
-10.032266 4.3476238 -1.8328592
-10.431318 3.6496062 -1.8525573
-10.588174 3.1401672 -1.8513278
-10.778604 2.3643427 -1.8497981
-10.914579 1.5777471 -1.8486508
-10.947715 1.3137976 -1.8483539
-10.974716 1.0491809 -1.8481004
-11.018867 0.25276428 -1.8475997
-11.021279 -0.013112793 -1.8475195
-11.017529 -0.27896485 -1.847483
-11.007656 -0.54464662 -1.8474898
-10.991601 -0.81004757 -1.8475404
-10.941113 -1.3394116 -1.8477718
-10.906679 -1.6031121 -1.8479525
-10.866162 -1.8659676 -1.8481767
-10.766874 -2.388633 -1.8487545
-10.572744 -3.1629763 -1.8499429
-10.496094 -3.4179821 -1.8504243
-10.413554 -3.6712244 -1.8509475
-10.230859 -4.1718454 -1.85212
-10.024961 -4.6637988 -1.8534585
-9.7962885 -5.1460557 -1.8549606
-9.6735249 -5.3832264 -1.8557719
-9.5451946 -5.6175852 -1.8566232
-9.4114552 -5.8490143 -1.8575137
-9.2722559 -6.077384 -1.8584433
-8.4237795 -6.1217504 -1.7455941
-8.1244822 -6.2091632 -1.7141201
-7.6679978 -6.7926235 -1.7172079
-7.5066891 -6.9800682 -1.7183037
-7.3409472 -7.1638141 -1.7194314
-7.1708298 -7.3437552 -1.7205911
-6.6351171 -7.8597708 -1.7242551
-6.2576952 -8.1829185 -1.7268456
-4.6022654 -9.2923756 -1.7382823
-4.3806543 -9.4090147 -1.7398208
-4.1562986 -9.5204725 -1.7413801
-4.2665524 -10.454185 -1.8927835
-4.0168357 -10.563762 -1.8945223
-3.7643359 -10.66748 -1.8962823
-3.5091894 -10.765281 -1.8980623
-3.2515428 -10.857078 -1.8998615
-2.7293749 -11.022412 -1.9035127
-2.1988671 -11.162976 -1.9072287
-1.1174999 -11.367985 -1.9148227
-0.29344726 -11.45364 -1.9206262
0.25985351 -11.477748 -1.9245309
0.81481445 -11.475193 -1.9284537
1.0924902 -11.463876 -1.9304188
1.9244434 -11.389554 -1.9363164
2.2008789 -11.351306 -1.9382789
2.7513573 -11.254631 -1.9421923
3.0250683 -11.196208 -1.9441406
3.8381641 -10.980795 -1.9499383
4.3718553 -10.803988 -1.9537519
4.8972754 -10.600928 -1.9575133
4.9845996 -9.5509729 -1.8059758
5.2183886 -9.4367199 -1.807655
5.4495311 -9.3166523 -1.8093171
6.1253905 -8.9221497 -1.8141872
6.3443747 -8.7794333 -1.8157687
6.7719336 -8.4776525 -1.818862
7.1847363 -8.1545658 -1.8218559
7.3852735 -7.9852562 -1.8233132
7.5816989 -7.8109074 -1.824743
7.7738671 -7.6315904 -1.8261436
8.1449709 -7.2585397 -1.8288548
8.3236322 -7.0649819 -1.8301634
8.4975586 -6.8669372 -1.8314395
8.9896679 -6.2468181 -1.8350643
9.3357325 -6.1587839 -1.8748302
9.8287306 -6.1489868 -1.9434732
10.245762 -6.0709968 -1.9963872
10.39502 -5.8253312 -1.9975003
10.538174 -5.5758562 -1.9985712
10.675088 -5.3227668 -1.9995986
10.805693 -5.066186 -2.0005829
11.158701 -4.2772856 -2.0032644
11.263115 -4.0084801 -2.0040662
11.360829 -3.7370155 -2.0048211
11.451689 -3.4631047 -2.0055282
11.535693 -3.1868875 -2.0061874
11.612754 -2.9085829 -2.0067978
11.926406 -1.2046503 -2.0094185
11.973417 -0.6281665 -2.0098875
11.991347 -0.049975585 -2.0101514
11.989385 0.23932678 -2.010206
11.980156 0.52846128 -2.0102091
11.963633 0.8172937 -2.0101612
11.939843 1.1055834 -2.010061
11.870527 1.6798767 -2.0097072
11.645771 2.8139458 -2.0083878
11.571904 3.0933385 -2.0079317
11.491015 3.3707445 -2.0074258
11.403222 3.6459417 -2.0068707
11.308535 3.9187858 -2.0062661
11.20705 4.1890583 -2.0056131
10.114619 4.3475919 -1.8455261
10.002822 4.5884819 -1.8447931
9.761426 5.0612187 -1.843199
9.6319923 5.2927604 -1.8423392
9.4968748 5.5208573 -1.8414383
9.2099123 5.9662466 -1.8395157
8.7395992 6.6054239 -1.8364094
7.60958 6.3506098 -1.6614648
6.2724609 6.3553119 -1.4968454
5.9777536 6.356348 -1.4626917
4.2218165 6.3624921 -1.2799954
3.5323339 6.2639642 -1.2054836
3.3361621 6.2646475 -1.189778
3.1535156 6.2824311 -1.1783636
2.9977148 6.3496027 -1.17705
2.8127441 6.3502436 -1.164248
2.63166 6.3508706 -1.1523857
2.4541309 6.3514848 -1.1414202
2.108496 6.3526797 -1.1220301
1.6096191 6.3543997 -1.0988387
1.4475683 6.3549576 -1.0925759
1.2872851 6.3555083 -1.0870146
0.35066405 6.3587165 -1.0675383
0.04352539 6.3597651 -1.0661186
-0.41746092 6.361331 -1.0686512
-0.57191408 6.361856 -1.0707452
-0.72706056 6.3623819 -1.0734736
-1.0401953 6.3634429 -1.0808679
-1.8245801 6.28231 -1.0966266
-2.3671191 6.3849249 -1.1414999
-2.7247167 6.3861237 -1.1638799
-2.9090428 6.3867402 -1.1764441
-3.0974803 6.3873687 -1.1899804
-3.2904491 6.3880134 -1.204543
-3.900449 6.3900471 -1.2549556
-4.1157031 6.3907623 -1.2742269
-4.337822 6.3915009 -1.2948695
-4.5673728 6.392261 -1.316967
-4.8050489 6.3930497 -1.3406273
-5.3076954 6.3947148 -1.3930974
-5.5744042 6.3955998 -1.4221808
-5.8526268 6.3965178 -1.4533638
-6.4483008 6.3984857 -1.5227844
-6.7683787 6.3995404 -1.5614499
-7.7854295 6.6801968 -1.7196615
-7.9386621 6.4858537 -1.7184423
-8.0876369 6.288444 -1.7173429
-8.2318649 6.0877299 -1.7162757
-8.5057907 5.6768765 -1.7142425
-8.6353998 5.4669657 -1.7132767
-9.2150002 4.3808489 -1.7104374
-9.7614355 4.35502 -1.791796
-10.303379 4.0128374 -1.8535473
-10.393281 3.7617266 -1.8528527
-10.55542 3.2538433 -1.8515862
-10.69371 2.7393298 -1.850487
-10.807959 2.2192516 -1.8495562
-10.963467 1.1667407 -1.8482077
-10.98707 0.90180904 -1.8479781
-11.020967 0.10493225 -1.8475498
-11.012793 -0.42672852 -1.8474815
-10.954433 -1.2220972 -1.8477054
-10.922725 -1.4861437 -1.8478671
-10.884912 -1.7493771 -1.8480718
-10.73499 -2.5330887 -1.8489456
-10.672919 -2.7918901 -1.8493229
-10.530879 -3.3049819 -1.8502053
-10.450937 -3.5590169 -1.8507099
-10.273417 -4.0614243 -1.8518455
-10.175927 -4.3095198 -1.8524756
-9.9636517 -4.798883 -1.8538598
-9.8489943 -5.0399027 -1.8546132
-9.7287302 -5.2782626 -1.8554068
-9.6028614 -5.5139031 -1.8562402
-9.4715328 -5.7466354 -1.8571135
-9.0483398 -6.1056767 -1.8298138
-8.6096678 -6.1170034 -1.7704372
-7.89291 -6.5156512 -1.7156841
-7.7381639 -6.7082367 -1.7167321
-7.0743942 -7.4421368 -1.7212493
-6.897656 -7.615953 -1.7224573
-6.7167282 -7.7857342 -1.7236956
-6.1500096 -8.2696686 -1.7275862
-5.4711523 -7.7399516 -1.5888848
-5.1310253 -8.9860458 -1.7346178
-4.6997166 -9.2389612 -1.7376063
-4.4794335 -9.3578558 -1.7391349
-4.128037 -10.515823 -1.8937478
-3.8767478 -10.622152 -1.8954986
-3.3662403 -10.817068 -1.8990604
-3.1072948 -10.905504 -1.9008694
-2.3172851 -11.13394 -1.9063985
-2.0500391 -11.197585 -1.9082724
-1.7810742 -11.25491 -1.9101596
-1.2386132 -11.350316 -1.9139707
-0.41590819 -11.444695 -1.9197628
0.13685547 -11.474693 -1.9236624
0.4140332 -11.479724 -1.9256201
0.69156247 -11.478081 -1.9275819
2.3542676 -11.327128 -1.9393688
3.1767285 -11.160817 -1.9452209
3.4484668 -11.091967 -1.9471577
3.9872949 -10.934288 -1.9510032
4.5187988 -10.750144 -1.9548032
5.0416989 -10.539847 -1.9585487
5.5768161 -9.2473907 -1.8102331
6.0271192 -8.9837265 -1.813478
6.2475681 -8.8434763 -1.8150694
6.4646583 -8.6977158 -1.816638
6.6782517 -8.5464993 -1.8181834
6.8882422 -8.3899288 -1.8197049
7.0944529 -8.2280874 -1.8212005
7.2967672 -8.0610456 -1.82267
7.4949899 -7.8889303 -1.8241116
7.6891012 -7.7117963 -1.8255255
8.0641603 -7.3429832 -1.8282636
8.2449121 -7.1514745 -1.8295864
8.5921869 -6.7548809 -1.8321348
8.7584858 -6.5500364 -1.8333588
9.1276951 -6.1628618 -1.8462054
9.6055079 -6.1534452 -1.9122577
10.47537 -5.6870608 -1.9981011
10.615078 -5.4355655 -1.9991479
10.748506 -5.1805091 -2.0001514
10.875537 -4.9220886 -2.0011106
10.996152 -4.6604295 -2.0020249
11.318281 -3.8578377 -2.0044918
11.499268 -3.3097811 -2.0059009
11.579394 -3.032388 -2.0065329
11.829687 -1.9045318 -2.0085692
11.874443 -1.6189313 -2.0089529
11.965498 -0.75633419 -2.0098009
11.981318 -0.46752441 -2.0099814
11.989882 -0.17839538 -2.0101104
11.971855 0.68912536 -2.0101886
11.951308 0.97767085 -2.010112
11.888398 1.5527227 -2.0098035
11.740068 2.4073064 -2.0089576
11.676357 2.6893096 -2.0085742
11.605566 2.9695361 -2.0081406
11.443037 3.5240452 -2.007123
11.351397 3.7979643 -2.0065405
11.25293 4.0693927 -2.0059087
9.8170309 4.9573674 -1.8435675
9.5575581 5.4200177 -1.8418432
9.4193068 5.6461563 -1.8409196
9.2755079 5.8686709 -1.8399562
9.1262598 6.0873809 -1.8389533
8.811904 6.5129743 -1.8368423
7.7766991 6.3500223 -1.6830058
7.4061718 6.351326 -1.6355112
6.7235937 6.3537273 -1.5507202
6.407783 6.3548369 -1.5128109
5.5445604 6.3578668 -1.4141241
5.2808104 6.3587894 -1.3855854
4.7833104 6.3605313 -1.3340811
4.5479002 6.3613529 -1.3108548
4.3204298 6.3621488 -1.2891611
4.100215 6.3629141 -1.2688993
3.8867188 6.3636603 -1.2499806
3.6211231 6.2636552 -1.2128198
3.422627 6.2643461 -1.1966141
3.229248 6.2650189 -1.1815175
3.0488865 6.2827945 -1.1706531
2.3568065 6.3518229 -1.1356957
1.8471386 6.3535819 -1.1091546
1.6821874 6.3541498 -1.1018474
1.0408008 6.3563557 -1.0797122
0.72824216 6.3574247 -1.0726705
0.57331055 6.3579559 -1.0701147
0.4190039 6.3584833 -1.0681911
0.26519531 6.3590078 -1.0668937
0.11164062 6.3595319 -1.0662186
-0.041796874 6.360054 -1.0661658
-0.1953125 6.3605766 -1.0667324
-0.50327146 6.3616242 -1.0697377
-0.65809572 6.3621478 -1.0721843
-0.81369138 6.3626761 -1.0752689
-0.9703027 6.3632059 -1.0790009
-1.1280956 6.3637395 -1.0833914
-1.2872655 6.3642764 -1.088454
-2.0835352 6.2831793 -1.1096561
-2.289541 6.384665 -1.1370038
-2.4651659 6.3852544 -1.1473686
-2.6441112 6.3858538 -1.1586039
-3.0132909 6.3870878 -1.1838478
-3.3998339 6.3883796 -1.2131027
-3.8069334 6.3897357 -1.2468137
-4.0193262 6.3904409 -1.2655078
-4.4645019 6.391922 -1.3069699
-4.6984668 6.3926969 -1.329922
-5.7276173 6.3961053 -1.4392493
-6.012754 6.3970466 -1.4716797
-6.3111911 6.3980327 -1.506503
-6.6242771 6.3990655 -1.5439328
-6.8540821 6.3086262 -1.5615588
-8.1684275 6.1772332 -1.7167454
-8.7053022 5.3490191 -1.7127547
-8.8271093 5.1347151 -1.711843
-8.9438181 4.917779 -1.7109667
-10.261592 4.123693 -1.8538691
-10.354101 3.8734503 -1.8531561
-10.440732 3.621253 -1.8524841
-10.521464 3.3671899 -1.8518533
-10.596259 3.1114244 -1.851264
-10.665058 2.8540747 -1.8507168
-10.72788 2.5952539 -1.8502115
-10.83541 2.0738189 -1.8493279
-10.880039 1.8114763 -1.8489503
-10.951055 1.2841754 -1.8483233
-10.977353 1.0194836 -1.8480749
-10.997539 0.7543115 -1.8478693
-11.011572 0.48876831 -1.8477072
-11.016747 -0.30875486 -1.8474816
-10.989414 -0.83977962 -1.8475488
-10.966562 -1.1046771 -1.8476477
-10.902451 -1.6326132 -1.8479754
-10.86123 -1.8953549 -1.8482046
-10.701221 -2.6771722 -1.8491502
-10.63582 -2.9351637 -1.8495511
-10.564463 -3.1916232 -1.8499948
-10.403945 -3.6994777 -1.8510089
-10.314834 -3.9505992 -1.8515791
-10.119208 -4.4465308 -1.8528442
-10.012744 -4.6910834 -1.8535385
-9.5305176 -5.6436787 -1.8567208
-9.3961325 -5.8747549 -1.8576159
-8.377656 -6.1229229 -1.7394607
-7.9601364 -6.4290214 -1.7152295
-7.8074412 -6.6231723 -1.7162628
-7.3220992 -7.1841693 -1.7195598
-6.427207 -8.0415764 -1.7256811
-6.2361035 -8.2005177 -1.726994
-5.6401658 -8.6504984 -1.7310992
-5.2250094 -8.9272261 -1.7339677
-5.0123925 -9.0583534 -1.7354393
-4.7965527 -9.1845446 -1.7369348
-4.3556151 -9.4217615 -1.7399948
-4.1308689 -9.5326405 -1.741557
-4.2387109 -10.466762 -1.8929772
-3.4804394 -10.775869 -1.8982629
-2.9622948 -10.952041 -1.9018832
-2.4353223 -11.10366 -1.9055717
-2.1688964 -11.170106 -1.9074389
-1.6308594 -11.284009 -1.9112144
-1.3595409 -11.331357 -1.9131206
-1.086875 -11.372241 -1.915038
-0.26249024 -11.455701 -1.9208447
0.013935546 -11.470328 -1.9227947
0.84592772 -11.474265 -1.9286739
1.1236132 -11.46219 -1.9306391
1.4012011 -11.443387 -1.9326055
1.6785547 -11.417856 -1.9345716
1.9554492 -11.385605 -1.9365362
2.7820604 -11.248419 -1.9424108
3.0556543 -11.189238 -1.9443585
3.5989161 -11.050805 -1.9482309
3.0383496 -7.9970508 -1.4340556
4.9264059 -10.588781 -1.9577223
5.1853318 -10.476774 -1.9595789
5.0109277 -9.5384645 -1.8061646
5.2444334 -9.4235497 -1.8078423
5.4752536 -9.3028307 -1.8095022
5.9282322 -9.0442085 -1.8127649
6.368701 -8.7631054 -1.8159444
6.5838571 -8.6143017 -1.8175002
7.0033884 -8.3005781 -1.8205397
7.6034274 -7.7910447 -1.8249012
7.7951365 -7.6111922 -1.8262988
7.9824314 -7.4264998 -1.8276663
8.6852541 -6.6415024 -1.8328195
8.8487501 -6.4343014 -1.834024
10.262802 -6.0436625 -1.9965142
10.411386 -5.797534 -1.9976226
10.553818 -5.5476675 -1.9986886
10.690048 -5.2941833 -1.9997113
10.943398 -4.7769885 -2.0016243
11.060361 -4.5136094 -2.0025136
11.170722 -4.2472968 -2.0033567
11.274424 -3.9781599 -2.0041535
11.371347 -3.7064354 -2.0049026
11.544678 -3.1558001 -2.0062582
11.620937 -2.8772674 -2.0068631
11.690214 -2.5968111 -2.0074191
11.752412 -2.3146529 -2.0079257
11.855458 -1.7458715 -2.0087888
11.89622 -1.4596466 -2.0091448
11.929805 -1.1724194 -2.0094502
11.956142 -0.884422 -2.0097046
11.975185 -0.59579647 -2.0099077
11.986982 -0.30678955 -2.0100594
11.86579 1.7119433 -2.0096815
11.563173 3.124527 -2.0078773
11.39294 3.6766315 -2.0068054
9.989912 4.6153007 -1.8447081
9.7472067 5.0873308 -1.8431048
9.6171188 5.3184929 -1.8422402
9.040967 6.207304 -1.8383789
8.8832226 6.4197245 -1.8372678
7.5680566 6.3507562 -1.656144
7.2089844 6.3520207 -1.610639
6.2387595 6.3554301 -1.4928956
5.665205 6.3574433 -1.4274449
4.8905368 6.3601556 -1.3449116
3.9807129 6.3633318 -1.2582188
3.7707031 6.3640642 -1.2400134
2.2604687 6.3521552 -1.1302329
1.7551562 6.353898 -1.1050001
1.5913769 6.3544621 -1.0981009
1.2694043 6.3555703 -1.0864345
0.33342773 6.3587761 -1.0673923
0.17978515 6.3592997 -1.0664419
-0.12711914 6.3603458 -1.0664049
-0.28077146 6.3608685 -1.0673174
-0.43474609 6.3613911 -1.0688534
-0.58926755 6.3619156 -1.0710192
-0.90063477 6.3629694 -1.0772623
-1.2163965 6.3640385 -1.0861224
-1.3764355 6.3645782 -1.0915648
-1.6839551 6.2988505 -1.0929657
-2.0090137 6.2829304 -1.1057466
-2.3868065 6.3849921 -1.1426617
-2.9299512 6.3868108 -1.1779107
-3.5107908 6.3887491 -1.2220056
-5.0797558 6.3939605 -1.3689106
-5.3370314 6.3948135 -1.3962547
-6.1769629 6.3975906 -1.4907354
-6.4833689 6.3986001 -1.526978
-7.8028221 6.6585941 -1.7195203
-7.9555955 6.4638934 -1.7183175
-8.104043 6.2661123 -1.7172215
-8.2477245 6.065032 -1.7161584
-8.5205755 5.6534977 -1.7141323
-8.7736425 5.2302032 -1.7122436
-9.1151953 4.5751863 -1.7096744
-9.2645502 4.3736444 -1.7173952
-10.402988 3.7334552 -1.8527774
-10.486347 3.4802184 -1.8521281
-10.563779 3.2251744 -1.8515203
-10.700742 2.7103233 -1.8504304
-10.860986 1.9280701 -1.8491125
-10.902246 1.6652063 -1.8487585
-10.937402 1.4014795 -1.8484477
-10.966426 1.1370807 -1.8481797
-11.021162 0.075138547 -1.8475415
-11.011601 -0.45649779 -1.8474829
-10.997617 -0.72199947 -1.8475189
-10.951191 -1.2517254 -1.8477212
-10.918779 -1.5156835 -1.8478879
-10.835703 -2.0410345 -1.8483505
-10.522197 -3.3335454 -1.8502598
-10.441611 -3.5873692 -1.8507692
-10.262774 -4.0893331 -1.8519142
-9.9510736 -4.8260159 -1.8539423
-9.8357906 -5.066741 -1.8547
-9.7148829 -5.3048058 -1.8554982
-9.5884275 -5.5401297 -1.8563361
-8.997715 -6.1069927 -1.8229107
-8.1724806 -6.142756 -1.7137966
-8.0264454 -6.3417425 -1.7147814
-7.8757911 -6.5374069 -1.7157999
-7.5607224 -6.918242 -1.7179364
-7.3964548 -7.1032429 -1.7190535
-7.2277732 -7.2844629 -1.7202026
-7.0547848 -7.4618168 -1.7213833
-6.8775878 -7.6351895 -1.7225944
-6.6962304 -7.8045006 -1.7238361
-6.3214159 -8.1304789 -1.7264078
-6.1281934 -8.2869873 -1.7277364
-5.4486618 -7.7525058 -1.588433
-5.526113 -8.7293406 -1.7318865
-5.3183594 -8.8674555 -1.7333221
-4.6751857 -9.2525339 -1.7377764
-4.2309375 -9.484067 -1.7408613
-4.3488083 -10.416533 -1.892211
-3.8484666 -10.633702 -1.8956958
-3.3373437 -10.827272 -1.8992622
-3.0781641 -10.915022 -1.901073
-2.8166602 -10.996669 -1.9029019
-2.5530274 -11.072145 -1.9047472
-1.7508692 -11.260923 -1.9103717
-1.4801562 -11.311127 -1.9122729
-0.66035157 -11.422899 -1.9180404
-0.38499999 -11.447074 -1.9199808
0.16787109 -11.475587 -1.9238813
0.4451074 -11.479871 -1.9258397
0.72259766 -11.477476 -1.9278015
1.0002831 -11.468373 -1.9297662
1.8325585 -11.400763 -1.9356643
2.1091895 -11.364752 -1.9376278
2.3851464 -11.322013 -1.9395883
2.6602733 -11.272539 -1.9415444
2.9343262 -11.216352 -1.9434946
3.7488768 -11.00759 -1.9493008
4.2838182 -10.835154 -1.9531223
4.5483689 -10.73905 -1.9550149
4.8106642 -10.636428 -1.956893
4.9064159 -9.587595 -1.8054144
5.1410546 -9.4752998 -1.8070992
5.3731055 -9.357151 -1.8087673
5.6023827 -9.2332125 -1.8104172
5.8287301 -9.10357 -1.8120475
6.0519724 -8.9683008 -1.8136573
6.2720408 -8.8274193 -1.8152461
6.4887695 -8.6810369 -1.8168124
6.7019529 -8.5292435 -1.8183551
7.7105465 -7.6916485 -1.8256819
7.8998337 -7.5090861 -1.827063
8.0846186 -7.3217688 -1.8284132
8.264863 -7.1297431 -1.8297327
8.4403811 -6.9331622 -1.8310195
8.611084 -6.7321453 -1.8322738
9.6611128 -6.1523371 -1.9200172
10.178701 -6.1419253 -1.992841
10.346152 -5.9072938 -1.9971355
10.630332 -5.4071751 -1.9992627
10.763046 -5.151732 -2.0002611
11.009218 -4.6309519 -2.0021243
11.122539 -4.3659077 -2.0029879
11.32915 -3.8273873 -2.0045757
11.422285 -3.5542972 -2.0052986
11.508584 -3.2788205 -2.0059741
11.835068 -1.8725833 -2.0086145
11.945322 -1.0123657 -2.0095978
11.967627 -0.72398984 -2.0098238
11.982646 -0.43516478 -2.0099983
11.9904 -0.14597961 -2.0101218
11.984033 0.43255186 -2.0102139
11.969922 0.72146422 -2.0101829
11.840938 1.8708227 -2.0095434
11.733272 2.4390154 -2.0089171
11.668769 2.7207799 -2.008528
11.340713 3.8284869 -2.0064721
10.286455 4.3241935 -1.8705035
10.040576 4.5088506 -1.8450408
9.5423536 5.44554 -1.8417419
9.4034567 5.6712956 -1.8408138
9.2590628 5.8933511 -1.8398457
9.1091986 6.1116548 -1.8388385
8.9540138 6.3260159 -1.8377925
8.6288671 6.7429714 -1.835743
7.7340817 6.3501716 -1.6774968
6.3733497 6.3549576 -1.5087323
6.0740428 6.356009 -1.4737561
5.7881641 6.3570108 -1.441188
4.9995508 6.3597746 -1.3560777
4.0759864 6.3629999 -1.2667149
3.8631835 6.3637419 -1.2479401
3.5986035 6.2637334 -1.2109487
3.2078905 6.2650933 -1.1798891
3.0279686 6.2828679 -1.1691369
2.8736815 6.3500323 -1.16839
2.6913671 6.3506646 -1.1562231
2.5126758 6.3512821 -1.1449628
2.3373241 6.3518891 -1.1345752
1.8285546 6.3536468 -1.1082991
1.5011621 6.3547721 -1.0945764
1.0231934 6.3564153 -1.0792487
-0.62331051 6.3618975 -1.2201463
-0.77873045 6.3624234 -1.2234955
-1.4118066 6.3645611 -1.2443706
-1.7197753 6.2988348 -1.2463043
-1.8792676 6.2823563 -1.2516503
-2.2150097 6.2834821 -1.2717031
-2.6036425 6.3855743 -1.3162762
-2.7854004 6.3861809 -1.3298686
-3.1609278 6.3874321 -1.3603303
-3.5550292 6.3887429 -1.3955423
-3.760078 6.3894243 -1.4150982
-4.4130468 6.3915887 -1.4825474
-6.4797363 6.3274846 -1.7287158
-7.0423532 5.660152 -1.7245812
-7.1728516 5.4855571 -1.7236177
-7.6521583 4.7590899 -1.720058
-7.7610741 4.57095 -1.7192435
-8.2835741 4.3548393 -1.7863259
-8.7535543 4.3357148 -1.8645773
-8.8520699 4.121635 -1.8638306
-8.9454975 3.9054167 -1.8631189
-9.2677832 3.0213127 -1.8606313
-9.3353024 2.796073 -1.860101
-9.3975286 2.5693872 -1.8596075
-9.5522747 1.8818365 -1.8583508
-9.5931053 1.6505597 -1.8580074
-9.6285448 1.4184375 -1.857702
-9.7270603 0.014725951 -1.8566729
-9.7243938 -0.21991271 -1.856636
-9.7162695 -0.45442748 -1.856638
-9.7026854 -0.68869442 -1.8566784
-9.6592188 -1.1559869 -1.8568749
-9.5940228 -1.6208224 -1.8572257
-9.5533495 -1.8520187 -1.8574581
-9.4558392 -2.3113496 -1.8580385
-9.2697067 -2.9909179 -1.859193
-9.1971388 -3.2144525 -1.8596529
-9.1193552 -3.4362912 -1.8601497
-9.036396 -3.6563241 -1.8606842
-8.9483204 -3.8744283 -1.8612548
-8.6537008 -4.5160289 -1.863185
-8.5455074 -4.7252812 -1.8639001
-8.4324121 -4.9320321 -1.8646504
-8.3145018 -5.1361718 -1.8654352
-8.1917677 -5.337584 -1.8662548
-8.0643263 -5.5361705 -1.8671085
-7.9321971 -5.7318125 -1.8679962
-7.7954783 -5.9244065 -1.8689166
-6.6337304 -6.1348486 -1.7246734
-6.487402 -6.2967148 -1.7256694
-6.3373828 -6.4552026 -1.726692
-6.1835742 -6.6102118 -1.7277423
-6.0260739 -6.7616673 -1.7288195
-5.7002931 -7.053545 -1.7310529
-5.5321875 -7.1937923 -1.7322077
-5.360703 -7.3301358 -1.7333872
-5.1859083 -7.4624972 -1.7345911
-4.8268356 -7.7149363 -1.7370692
-4.642715 -7.834867 -1.7383419
-4.0732226 -8.1685791 -1.7422878
-3.4801171 -8.4617071 -1.74641
-3.2776074 -8.5500917 -1.7478203
-2.2342186 -8.9194021 -1.7551068
-2.0201561 -8.9783602 -1.7566057
-1.8045214 -9.0322409 -1.7581168
-1.5874902 -9.0810022 -1.7596393
-0.70764649 -9.2240114 -1.7658236
-0.038876951 -9.275733 -1.7705377
0.63367188 -9.2791014 -1.7752901
0.85807616 -9.2694006 -1.7768785
1.7534375 -9.1762695 -1.7832284
2.197871 -9.0971127 -1.7863882
2.4187889 -9.0494118 -1.7879608
2.6387012 -8.9963074 -1.7895277
2.8574512 -8.9378147 -1.7910876
3.0748827 -8.8739748 -1.7926393
3.290869 -8.8047848 -1.7941821
3.9288964 -8.5655146 -1.7987481
4.3446579 -8.37992 -1.8017305
4.5492477 -8.2794275 -1.8032004
4.7514648 -8.1738653 -1.8046544
5.1483107 -7.9477434 -1.8075128
5.3426757 -7.8273129 -1.8089149
5.5341501 -7.7020431 -1.8102978
5.7226562 -7.572 -1.8116609
5.9080176 -7.4372587 -1.8130029
6.090127 -7.2978821 -1.8143231
7.5745702 -6.1549549 -1.8629559
8.5205173 -5.9550633 -1.9842218
9.0733881 -5.1169629 -1.9883277
9.1985445 -4.8989139 -1.9892639
9.5410442 -4.2263975 -1.9918439
9.7412205 -3.7641845 -1.9933681
9.9182224 -3.2922323 -1.9947311
9.9978609 -3.052969 -1.9953506
10.071524 -2.8117206 -1.9959283
10.256044 -2.0776041 -1.9974064
10.305273 -1.8299741 -1.9978131
10.348301 -1.5811355 -1.9981762
10.385117 -1.3312585 -1.9984955
10.415615 -1.0805054 -1.9987707
10.457812 -0.57700866 -1.9991882
10.474707 -0.071960449 -1.9994272
10.432597 0.9375897 -1.9993689
10.373692 1.4394659 -1.9990716
10.334853 1.6891028 -1.9988563
10.289746 1.9376636 -1.9985963
10.238457 2.1849847 -1.9982924
10.047744 2.9179039 -1.9971184
9.9720602 3.1586797 -1.9966406
9.802783 3.6339874 -1.995557
9.4503317 4.3041682 -1.9821314
8.5438576 4.4006572 -1.8344373
8.4317865 4.6036124 -1.8336934
8.3147554 4.8036284 -1.8329138
8.192812 5.0005765 -1.8320985
8.0660448 5.1943498 -1.8312486
7.7984567 5.5718436 -1.829447
7.5127149 5.9352117 -1.8275136
7.3632617 6.1113176 -1.826499
7.2095699 6.2835612 -1.8254534
6.0099411 6.3560514 -1.6696913
5.7268066 6.3570499 -1.6331756
5.1954489 6.3589177 -1.567377
4.9452047 6.3597956 -1.5377356
4.4714355 6.3614593 -1.4842013
3.8171484 6.3637481 -1.416449
3.5545506 6.2637372 -1.3746961
3.3578222 6.2644229 -1.3566705
3.0186327 6.3493829 -1.3419387
2.8332031 6.3500276 -1.3272398
2.6517088 6.3506584 -1.3136157
1.9585742 6.3530598 -1.2689633
1.7921094 6.3536344 -1.2600747
1.627871 6.3542008 -1.2520329
1.4656152 6.3547602 -1.2448128
0.98861325 6.3563995 -1.2278695
0.67671871 6.3574686 -1.2203424
0.5220117 6.3579984 -1.2176714
0.36790037 6.3585234 -1.2157178
-0.24629882 6.3606181 -1.2149974
-0.40017578 6.3611407 -1.2165886
-0.55456054 6.3616629 -1.2188922
-0.7096191 6.3621902 -1.2219191
-0.86553711 6.3627167 -1.2256742
-1.0225097 6.3632474 -1.2301716
-1.806123 6.2821097 -1.2476767
-1.9715527 6.2826667 -1.2568686
-2.1395409 6.2832294 -1.2669414
-2.524121 6.3853083 -1.3105736
-2.7042382 6.385911 -1.3237062
-3.0760839 6.3871503 -1.3531762
-3.4657812 6.3884463 -1.3872877
-3.8766308 6.3898101 -1.4265738
-4.0911522 6.390523 -1.4483502
-4.3124509 6.3912554 -1.4716699
-4.5411329 6.3920112 -1.4966418
-4.7778516 6.3927946 -1.5233746
-5.0233202 6.3936038 -1.5520016
-5.9463377 6.8596282 -1.7328132
-6.2612596 6.5554385 -1.7303301
-6.4133887 6.3983221 -1.7292014
-6.561738 6.2378302 -1.7281148
-6.7061911 6.0739985 -1.7270552
-6.8466697 5.9069281 -1.7260226
-6.9830956 5.7367043 -1.7250183
-7.1154294 5.563437 -1.7240421
-7.2435641 5.3872161 -1.7230946
-7.3674803 5.2081404 -1.7221763
-7.4871092 5.0263028 -1.7212878
-7.6023827 4.8418207 -1.7204293
-8.0835352 4.3608255 -1.7531637
-8.5449514 4.3469596 -1.8299518
-8.8089552 4.2169514 -1.8641577
-8.9952345 3.7842987 -1.8627386
-9.161006 3.3437579 -1.8614625
-9.2361031 3.1208172 -1.8608788
-9.3705568 2.6701965 -1.859822
-9.4837885 2.2140672 -1.8589135
-9.6134863 1.5215912 -1.8578329
-9.6944923 0.82211059 -1.8570945
-9.7106152 0.58796811 -1.856925
-9.7212791 0.35352537 -1.8567941
-9.7265034 0.11891235 -1.8567016
-9.7262592 -0.11574829 -1.8566476
-9.7205467 -0.35033628 -1.8566324
-9.6432514 -1.2854998 -1.8569571
-9.5720501 -1.7494873 -1.8573505
-9.528388 -1.9801532 -1.8576044
-9.4793358 -2.2097728 -1.8578963
-9.22999 -3.1154072 -1.859444
-8.9880562 -3.7778423 -1.860997
-8.8971291 -3.9948273 -1.8615881
-8.8011427 -4.2097001 -1.8622155
-8.483242 -4.8405552 -1.8643126
-8.3674507 -5.0458646 -1.8650824
-8.2468357 -5.2485037 -1.8658868
-6.552793 -6.225266 -1.7252241
-5.9369335 -6.844305 -1.7294298
-5.773818 -6.990046 -1.7305483
-5.6072459 -7.1320062 -1.7316918
-5.263906 -7.4042339 -1.7340537
-5.0873337 -7.5343418 -1.735271
-4.724824 -7.782146 -1.737774
-4.5390821 -7.8996964 -1.739059
-4.3504491 -8.0129051 -1.7403653
-4.1590819 -8.1217098 -1.7416921
-3.5692577 -8.4209585 -1.7457898
-3.3677928 -8.5114374 -1.747192
-3.1640527 -8.5971775 -1.7486116
-2.7502832 -8.7542152 -1.7514987
-1.9004492 -9.0089474 -1.7574444
-1.6839941 -9.059989 -1.758962
-1.4662695 -9.1058807 -1.7604901
-1.247246 -9.1465826 -1.7620283
-0.80605465 -9.2122879 -1.7651309
-0.58412111 -9.2372179 -1.7666934
-0.36144531 -9.2568417 -1.7682624
0.30970702 -9.2835445 -1.7729995
0.98280269 -9.2616558 -1.7777618
1.4309278 -9.219923 -1.7809386
1.8772851 -9.1564445 -1.7841085
2.5412109 -9.020546 -1.788833
3.1093457 -7.9906454 -1.6366321
3.6237891 -8.6866016 -1.7965633
3.8355076 -8.6039009 -1.798079
4.0453219 -8.5159883 -1.7995828
4.4587011 -8.3246651 -1.8025494
4.8628516 -8.1129932 -1.8054562
5.0611229 -7.9996433 -1.8068843
5.6393356 -7.6303201 -1.8110583
5.8261132 -7.4976511 -1.8124096
6.0096874 -7.3603244 -1.8137395
6.189961 -7.2184167 -1.8150473
6.3667774 -7.0719976 -1.8163317
6.5400586 -6.9211645 -1.8175921
6.8754883 -6.6065497 -1.8200374
7.0374122 -6.442956 -1.8212205
7.195322 -6.2753015 -1.8223763
8.4541988 -6.0444894 -1.9837316
8.6022949 -5.8420148 -1.9848264
8.7453909 -5.6358142 -1.9858867
8.8833494 -5.426012 -1.9869113
9.2657614 -4.7762895 -1.989768
9.4935055 -4.3275666 -1.9914839
9.5990038 -4.0989442 -1.9922839
9.7928028 -3.6338997 -1.9937637
9.8809662 -3.3977761 -1.9944427
9.9632416 -3.1594412 -1.9950807
10.039541 -2.9190524 -1.9956769
10.109863 -2.6767776 -1.9962313
10.232217 -2.1871228 -1.9972122
10.284199 -1.9400686 -1.9976381
10.369541 -1.4423138 -1.9983592
10.470351 0.32122803 -1.9994897
10.442275 0.82582271 -1.9994109
10.418759 1.0774078 -1.9993043
10.388945 1.3283234 -1.9991531
10.352861 1.5783929 -1.9989573
10.310547 1.8274542 -1.9987172
10.261992 2.0753448 -1.9984329
10.207255 2.3219073 -1.9981045
10.146416 2.5669842 -1.9977325
10.006415 3.0520203 -1.9968581
9.9273634 3.2916832 -1.9963561
9.6548433 3.9974065 -1.9945974
9.552412 4.227725 -1.9939282
9.1448336 4.3140802 -1.9300213
8.6412401 4.3343425 -1.8452712
8.4821777 4.5138602 -1.8340281
8.3673143 4.715198 -1.8332641
8.2475491 4.9135261 -1.8324648
8.1229 5.1087236 -1.8316301
7.5776658 5.8558087 -1.8279537
7.2783103 6.2075725 -1.8259214
6.9623141 6.5437503 -1.8237942
6.7986326 6.706049 -1.8227743
6.1397557 6.3555937 -1.6867487
5.8509765 6.3566117 -1.6490713
5.5746484 6.3575835 -1.6139562
5.3096876 6.3585162 -1.5812054
5.0551267 6.3594108 -1.5506439
4.8100781 6.36027 -1.52211
4.5737596 6.3611002 -1.4954613
4.3454294 6.3618999 -1.4705713
4.1244531 6.3626738 -1.4473237
3.9102342 6.3634219 -1.4256181
3.2506053 6.2647977 -1.3471872
3.0697949 6.2825761 -1.3346936
2.9150293 6.3497429 -1.3336293
2.7318261 6.350379 -1.3195344
2.3762987 6.351613 -1.2944406
2.033252 6.3528008 -1.2731898
1.2165723 6.3556156 -1.2351584
1.0584179 6.3561602 -1.2299423
0.90151364 6.3566971 -1.2254809
0.43625975 6.3582902 -1.2164974
0.12883788 6.3593402 -1.2140934
-0.024599608 6.3598638 -1.2139533
-0.33182615 6.3609076 -1.2157949
-1.1103125 6.3635454 -1.2329973
-1.2693067 6.3640814 -1.2386751
-1.4298925 6.3646231 -1.2451338
-1.5864453 6.3421307 -1.2478597
-1.7381152 6.2988968 -1.2472422
-1.8978027 6.2824187 -1.2526807
-2.2700195 6.3844585 -1.2933769
-2.4452734 6.3850446 -1.3050694
-2.8059959 6.3862505 -1.3314587
-2.9920995 6.3868694 -1.3462481
-3.1824999 6.3875055 -1.3621739
