# .PCD v0.7 - Point Cloud Data file format
VERSION 0.7
FIELDS x y z
SIZE 4 4 4
TYPE F F F
COUNT 1 1 1
WIDTH 1555
HEIGHT 1
VIEWPOINT 0 0 0 1 0 0 0
POINTS 1555
DATA ascii
10.228477 -8.2022085 3.1984589
10.867685 -7.8846774 3.2754631
11.551953 -6.7862182 3.2684209
28.027441 -7.6289549 7.0861363
22.002363 9.5568848 5.852006
21.412645 10.556162 5.8239541
20.127363 10.533537 5.541893
19.775663 10.965134 5.5163016
19.42621 11.392568 5.4939094
20.002333 13.066399 5.8284955
11.307392 9.5102043 3.6044049
11.175703 9.8694181 3.6372795
11.041474 10.235437 3.6729107
11.119551 10.818134 3.7846184
13.150742 13.426824 4.5848908
14.197197 15.968066 5.2124805
12.775771 15.846985 4.9657812
12.447968 16.226444 4.9891119
10.646367 14.593928 4.4068909
8.3296289 14.904475 4.1652808
7.6590233 14.516132 4.0039353
6.6945114 15.272114 4.0678978
6.1012011 15.972819 4.1712022
7.1160641 20.069326 5.1946235
3.9572949 22.798702 5.6449695
3.3874512 22.761787 5.6139531
2.8242869 22.731672 5.5880871
2.2666016 22.708218 5.567255
-0.47979492 22.687641 5.5359464
-3.2583106 22.828169 5.6254349
-4.4109569 22.932236 5.6969285
-5.6026464 23.066244 5.7906842
-6.2167578 23.145264 5.8464794
-8.152627 23.435408 6.0531888
-24.243427 -6.443975 6.1196079
-23.124193 -7.9768167 5.9674125
-22.701767 -8.4492235 5.9092932
-15.086924 -7.7956281 4.1427965
-7.7847166 -7.1412683 2.5771344
-7.6582518 -7.3732591 2.5934112
-6.6551561 -7.0569592 2.366363
-6.6358981 -7.3856387 2.4221766
-5.8320408 -8.3204651 2.478765
-5.142334 -8.1459904 2.3500719
-4.857461 -8.1224194 2.3087852
-4.5709376 -9.0749769 2.4788353
-9.6424608 -21.688757 5.7903662
-9.0158882 -21.673323 5.7264924
-8.4088087 -21.674091 5.6714354
-7.8129492 -21.674847 5.6206641
-7.2272754 -21.675591 5.5740085
-6.6509571 -21.676323 5.5313182
-5.5248141 -21.685722 5.4592786
-4.4235349 -21.687252 5.3996024
-3.8812304 -21.688007 5.3749051
-1.7515038 -21.690355 5.3086419
0.86918944 -21.68903 5.2953424
1.9206445 -21.693258 5.312829
4.6018162 -21.703865 5.4124236
5.1521873 -21.705008 5.4421263
6.2720704 -21.704603 5.5115499
6.8439355 -21.7059 5.5521965
7.4246578 -21.707211 5.5967317
8.0151072 -21.70854 5.6452975
9.8653803 -21.736189 5.8232126
10.506376 -21.73918 5.8902173
12.512597 -21.723993 6.1158667
13.951533 -21.726946 6.2990246
14.704687 -21.728485 6.4004769
9.8111811 -9.3010693 3.2980499
9.0814447 -8.2024736 2.9853363
9.2377338 -7.9474998 2.972805
9.9612398 -8.160182 3.1413579
10.818193 -8.0224266 3.2856042
10.212568 -6.8354173 2.9979339
11.562217 -6.9556012 3.2916899
27.995653 -7.9350915 7.0986557
28.194082 -6.5403323 7.060657
22.411982 8.8273153 5.876265
21.776445 10.454387 5.8928952
18.910322 10.228737 5.2448521
19.577108 11.208117 5.5031981
20.803984 12.586426 5.9317341
19.888594 12.697915 5.756422
19.538769 13.148632 5.7453332
11.363652 9.3567829 3.591012
11.232988 9.7131987 3.6227245
11.090273 10.566563 3.736908
12.837353 12.836038 4.4286704
14.295673 15.744775 5.1880193
11.343691 13.115856 4.2303424
13.637841 16.559546 5.2333884
10.811913 14.500546 4.4125304
11.589199 17.217733 5.0631804
11.417402 17.878969 5.1750994
10.865732 17.955805 5.1199565
9.5665426 16.70591 4.6963658
7.7958398 14.409053 3.9966259
7.2192383 14.148561 3.8749273
7.1588278 14.907956 4.0344176
6.835537 15.161467 4.0572114
6.5084081 15.418193 4.0826945
7.2562108 19.80578 5.1457343
4.2061915 22.816826 5.6600132
3.6330469 22.776909 5.6267285
3.0671484 22.743866 5.59865
1.952207 22.697826 5.5576367
0.85183591 22.677731 5.5361919
0.30432618 22.677256 5.5326734
-0.79086912 22.69537 5.5399551
-1.3407519 22.714037 5.5507975
-1.8936523 22.73918 5.5664859
-2.4507031 22.770918 5.5871043
-3.5820117 22.85478 5.643549
-4.1587205 22.907267 5.6796365
-5.9493942 23.110058 5.8215861
-6.5714941 23.193867 5.8809314
-7.8635645 23.388323 6.0194988
-8.5374603 23.500034 6.0994987
-22.520077 -6.9073911 5.7464471
-23.13912 -7.7127023 5.95017
-22.311792 -8.0399504 5.7856269
-21.800228 -8.4551916 5.7042174
-6.6820798 -6.6120415 2.2932746
-6.6633692 -6.9195366 2.3434784
-6.6442676 -7.2414923 2.3975165
-6.6546679 -7.6136522 2.4668474
-6.0957813 -7.3235154 2.3245039
-6.5757809 -8.2994785 2.5831597
-5.9955664 -7.9540868 2.4299238
-5.5699024 -8.1825562 2.4147377
-5.2688966 -8.1566095 2.3688743
-4.757617 -8.2084932 2.3145211
-4.9308887 -9.0011845 2.5037553
-4.6788378 -9.0527525 2.4859703
-10.542129 -21.663054 5.8773093
-9.9140425 -21.687019 5.8172097
-9.2822456 -21.672983 5.7516885
-8.66998 -21.673759 5.6947136
-8.069375 -21.67452 5.6421123
-5.766377 -21.685385 5.4740467
-5.2099023 -21.686157 5.4409251
-4.6597557 -21.686924 5.4113317
-3.5756543 -21.688435 5.3623772
-1.9795409 -21.689924 5.3133092
-0.92814451 -21.691914 5.2966413
-0.40429688 -21.692902 5.2929606
0.64252931 -21.688114 5.2931952
1.1668359 -21.690229 5.2990394
1.6925976 -21.692343 5.3079906
2.2203906 -21.69446 5.3200669
2.7509668 -21.696581 5.3353128
4.9133592 -21.704512 5.4288483
5.4672461 -21.705662 5.4605494
2.2200098 -7.9942541 2.0240221
7.1723046 -21.706642 5.5769796
7.7584176 -21.70796 5.6237845
8.3548241 -21.709301 5.6747065
9.5925388 -21.734917 5.7957349
10.876806 -21.740908 5.9304748
11.542393 -21.744019 6.0055523
12.21206 -21.723373 6.0794725
14.375898 -21.727814 6.3557334
18.763397 -22.045612 7.0623174
9.6745701 -9.3651972 3.2848053
10.194619 -8.5307159 3.2428582
10.313808 -8.2156725 3.2167723
27.929678 -8.2322102 7.1033154
22.535645 8.6054192 5.8848157
22.236942 11.052578 6.0578966
19.728407 11.022993 5.5130925
20.904638 13.041506 6.0107732
20.038387 13.183081 5.8514562
21.19746 14.690356 6.2916069
11.289795 9.5582533 3.608681
11.023173 10.285335 3.6779315
11.009872 10.781352 3.7592039
13.097207 13.459446 4.581461
11.579931 13.10999 4.2671967
12.731777 15.897934 4.9687529
11.659824 17.845205 5.2002702
11.102949 17.922766 5.1432986
10.557841 17.998699 5.0904956
7.6162887 14.549594 4.0063128
7.2976365 14.79917 4.025373
6.0423436 15.974326 4.1664448
3.880039 22.793325 5.6404824
3.311162 22.757328 5.610167
2.7488086 22.728128 5.5849924
0.54108399 22.676682 5.5336118
-0.006113281 22.67981 5.5328016
-0.55364257 22.689291 5.5367603
-1.1025684 22.705168 5.5455122
-1.6540234 22.727495 5.5590954
-3.3349903 22.834284 5.6295829
-4.4899316 22.9403 5.7025304
-5.6846485 23.07641 5.7978473
-6.3006349 23.156565 5.8544817
-6.9311523 23.245295 5.9174747
-7.5781345 23.343088 5.9871802
-8.2434378 23.45046 6.063971
-24.142939 -7.1303287 6.1412268
-23.647085 -7.6087298 6.0600367
-22.504414 -8.4592199 5.8650565
-6.5465622 -7.7001915 2.4656169
-6.2079978 -7.6694555 2.4071066
-5.3975391 -8.1674929 2.3882642
-4.8198242 -8.1193409 2.3034418
-5.0411716 -8.978796 2.5120261
-4.7873731 -9.0304308 2.4934261
-10.185664 -21.679865 5.8434916
-9.5583496 -21.689297 5.7821808
-8.9333792 -21.673426 5.7188153
-7.733408 -21.674948 5.61414
-6.5739255 -21.67642 5.5258603
-6.0093164 -21.685051 5.4894972
-4.3501072 -21.687355 5.3960724
-3.8085155 -21.688107 5.3718309
-2.7379882 -21.68849 5.3329611
-2.207998 -21.689495 5.3185563
-1.1550488 -21.691484 5.299191
0.41600585 -21.687199 5.2916222
0.93986326 -21.689314 5.2961302
1.4649218 -21.691427 5.3037348
3.0538671 -21.700636 5.3460932
4.1302147 -21.702883 5.389502
5.78374 -21.703491 5.4794073
6.3486719 -21.704777 5.5168028
8.0954781 -21.708721 5.6521606
8.698144 -21.71007 5.705503
9.3221874 -21.733656 5.7691374
9.9509668 -21.736586 5.8319578
10.593965 -21.739588 5.8996344
11.252441 -21.742662 5.9724188
13.318554 -21.725649 6.2166791
14.051631 -21.727154 6.3122935
14.808046 -21.728695 6.4146914
15.593085 -21.734697 6.5256367
9.8539839 -9.2809887 3.3022711
9.1556349 -8.2155981 3.0009325
9.7318258 -8.3176813 3.1230927
10.043427 -8.1730843 3.1588781
10.585889 -8.1980963 3.2663214
10.833613 -7.9794035 3.2823906
10.947881 -7.6631894 3.2600365
11.548301 -7.6751518 3.3826928
11.608896 -7.3179345 3.3477452
11.558994 -6.9025431 3.2843621
27.292284 -9.0805807 7.016881
27.742088 -8.4926167 7.0777702
28.01874 -7.1190434 7.0524292
20.231405 10.403499 5.5498137
18.960878 10.335957 5.2681732
19.53002 11.265683 5.5002394
19.492802 13.209968 5.7444115
11.215176 9.7617521 3.6272051
11.081728 10.12568 3.6620026
13.946543 16.231787 5.2206798
13.589717 16.610937 5.2356296
12.545927 16.11311 4.9818482
10.443594 14.837473 4.4263763
11.342353 17.889421 5.1674223
10.792275 17.966038 5.1128435
7.7532616 14.44237 3.9988537
7.4358497 14.690888 4.016809
7.115459 14.941953 4.0373368
6.7916503 15.19589 4.0604877
6.463984 15.453074 4.0863385
6.2317576 15.969506 4.1819205
4.1284962 22.811045 5.6552262
3.5563965 22.772058 5.6226459
2.9913769 22.739933 5.5952582
1.8776464 22.695663 5.555582
-0.31666014 22.684408 5.5344591
-0.86483395 22.697512 5.5411363
-2.5261524 22.775707 5.5902672
-3.0893359 22.815102 5.6165957
-4.824326 22.975756 5.7272272
-6.6565137 23.20583 5.8894229
-7.2961621 23.299639 5.9561768
-8.6298828 23.515879 6.1108627
-22.79521 -7.0729442 5.8224926
-23.54188 -7.9320817 6.0603356
-23.527807 -8.5647163 6.1081367
-23.048252 -9.025609 6.0384245
-22.346073 -9.3784828 5.9120293
-7.6960645 -7.303844 2.5883758
-6.6795897 -6.6526885 2.2998302
-6.66082 -6.9620476 2.3505263
-6.1217089 -7.4034624 2.3435512
-6.5406055 -8.3104496 2.5799425
-5.9530759 -8.3646259 2.5045993
-5.2292285 -8.1532717 2.3629518
-4.8966599 -9.0081396 2.5012443
-4.6451464 -9.0596895 2.4837108
-10.45707 -21.667065 5.8691382
-9.8291597 -21.687561 5.8087525
-8.5883884 -21.673862 5.6873741
-7.9892774 -21.674622 5.6353483
-5.1353517 -21.686262 5.4367337
-1.3822656 -21.691053 5.3023233
1.2375391 -21.690516 5.3000627
1.7635449 -21.692629 5.3094339
2.2917285 -21.694746 5.3219361
2.8230858 -21.700153 5.3384223
3.3574512 -21.701271 5.3570685
2.2487109 -7.9966593 2.0264714
7.8381834 -21.708141 5.6304007
8.4360256 -21.709482 5.6818962
9.0542669 -21.732407 5.7434082
10.313955 -21.738281 5.8697457
10.965576 -21.741323 5.9402881
12.305342 -21.723566 6.0906987
13.008213 -21.725014 6.1773124
16.876913 -21.739408 6.7139392
18.861679 -22.015778 7.072351
9.7170019 -9.3452749 3.2888787
9.4768162 -8.272439 3.0687957
10.227988 -8.5022421 3.2446582
10.474941 -7.4962597 3.1423371
10.461357 -7.1112728 3.0858788
11.666601 -7.5255914 3.3868506
11.569394 -7.0736094 3.3081164
11.545703 -6.6819324 3.2542901
28.217636 -6.7598562 7.0785403
22.211239 9.1858845 5.8635979
21.925205 9.6933918 5.8481293
22.171865 10.44895 5.9794345
19.68125 11.08071 5.5099492
19.811943 12.449487 5.7081981
20.074717 13.3007 5.8746648
21.125078 14.742083 6.2843118
15.089531 12.243759 4.7404966
11.139766 9.9673872 3.6466057
11.38998 12.979738 4.2127223
12.687715 15.948972 4.9717774
12.359004 16.329319 4.9959192
10.485166 18.008818 5.0836825
7.9078417 14.368466 4.0010247
6.9322166 15.085634 4.0501409
7.351162 19.627146 5.112915
3.2350194 22.753002 5.6064801
2.6734667 22.724699 5.5819802
2.1170702 22.703024 5.5624933
1.5646386 22.687851 5.5479088
0.46727538 22.676731 5.5332212
-0.079902343 22.680725 5.533061
-0.62754881 22.691057 5.5376573
-1.1767578 22.707804 5.5470629
-1.7286426 22.731003 5.5612993
-2.845 22.797226 5.6045842
-3.9861035 22.890877 5.6683226
-4.5691113 22.948511 5.7082372
-5.1622267 23.013691 5.7537627
-5.7668066 23.086721 5.8051138
-7.0173535 23.257929 5.9264669
-7.6666598 23.356987 5.9971037
-24.223042 -7.2396855 6.1675572
-23.621977 -7.6854873 6.0599766
-22.892582 -8.0638952 5.9210534
-23.156645 -8.7904224 6.0424552
-7.8763766 -6.973762 2.5663836
-7.7507811 -7.2034836 2.5813458
-6.7451563 -6.5791888 2.298635
-6.7115526 -7.5682735 2.4677074
-6.5209374 -7.7207689 2.4654047
-6.2358885 -7.7553253 2.4276831
-5.7247262 -8.2814264 2.4559929
-5.3572264 -8.164073 2.3821583
-4.7823925 -8.1162872 2.298151
-4.7534766 -9.0373993 2.4910657
-4.5040135 -9.0887794 2.4745517
-9.4744434 -21.689833 5.774076
-8.2470703 -21.674297 5.65733
-7.0710058 -21.675789 5.5621123
-6.4970312 -21.676517 5.520463
-4.276875 -21.687456 5.392612
-3.7358787 -21.68821 5.3688188
-2.6663866 -21.688625 5.330833
-2.1367967 -21.689629 5.3168592
-1.0843555 -21.691618 5.2983341
-0.56026363 -21.692608 5.2937322
1.0105468 -21.6896 5.2969728
2.062959 -21.69383 5.3161387
3.1258593 -21.700788 5.3486075
3.6624315 -21.701908 5.369102
4.7495995 -21.704172 5.4200902
5.3016405 -21.705317 5.4507389
6.4254489 -21.70495 5.5221343
6.999619 -21.706251 5.5638185
8.780283 -21.710253 5.7130289
9.4061718 -21.734051 5.7773328
10.036787 -21.736986 5.8407946
10.681708 -21.74 5.9091325
11.342392 -21.743084 5.9826255
12.007207 -21.722952 6.055047
13.416055 -21.725851 6.2291813
14.152158 -21.727358 6.3256903
14.91418 -21.732203 6.429996
15.700644 -21.735092 6.5410461
10.121094 -8.5935669 3.2390263
10.126621 -8.1861658 3.1766522
10.619922 -8.1693153 3.2686064
10.849043 -7.9364524 3.2792265
11.576308 -7.6395984 3.3836029
11.555791 -6.8497338 3.2771039
27.434326 -9.0288658 7.0458117
27.798662 -8.4111738 7.0851908
28.015234 -7.7441325 7.0906944
22.049013 9.4742146 5.854455
21.427881 10.459091 5.8168602
19.011806 10.444045 5.2917295
19.775438 12.807485 5.7476554
19.446787 13.271313 5.7435436
14.255381 15.90715 5.2108502
13.898427 16.282661 5.2224736
12.828936 15.78539 4.9622636
10.627831 14.448779 4.3756561
10.406757 14.887741 4.4312549
12.10541 18.239565 5.3404021
11.267539 17.899841 5.1598258
10.719043 17.97624 5.1058011
7.6249218 14.314758 3.956635
6.7477341 15.230351 4.0638108
6.1725879 15.971004 4.1770368
3.4798241 22.767328 5.618649
2.9156444 22.736122 5.591958
1.803164 22.693623 5.5536175
1.2525097 22.682104 5.54179
-0.39046875 22.685804 5.5350819
-0.93884766 22.699768 5.5424032
-1.4894335 22.720171 5.5545464
-2.0433397 22.747078 5.5715528
-4.9042478 22.984535 5.733357
-6.1157126 23.131805 5.8369584
-6.7417579 23.217941 5.898026
-8.0432806 23.417459 6.0403433
-8.722744 23.531918 6.1223731
-24.261894 -6.3468566 6.1179233
-24.149443 -6.9440136 6.1300354
-23.077827 -7.2430201 5.9006681
-22.207754 -8.1661139 5.7723088
-22.949551 -9.0731754 6.0202684
-7.8052244 -7.1037455 2.574652
-7.6789646 -7.3352218 2.590636
-6.6770897 -6.6936135 2.3064554
-6.6390624 -7.3309646 2.4127905
-6.6032615 -7.6547537 2.4661961
-5.9092088 -7.9465337 2.4158225
-5.4875097 -8.1753273 2.4020188
-5.1897655 -8.1499605 2.3570867
-4.9031739 -8.1261702 2.3153114
-5.1174803 -8.9633217 2.5179148
-7.9093652 -21.674725 5.6286597
-6.1773825 -21.684816 5.5005317
-5.6157126 -21.685595 5.464766
-5.060986 -21.686367 5.4326067
-1.3113769 -21.691189 5.3012867
-0.78682613 -21.692181 5.2953453
0.78376949 -21.688684 5.2944674
3.4298437 -21.701424 5.3598371
3.9687696 -21.702545 5.3821945
5.0620017 -21.704819 5.4370494
5.6176658 -21.705971 5.4696994
7.3293066 -21.706997 5.5891976
7.9181151 -21.708321 5.6370969
9.1374607 -21.732798 5.751328
11.054589 -21.741737 5.9501877
15.357178 -21.733829 6.4920855
16.159306 -21.736776 6.6075158
10.486591 -8.2424231 3.2538769
10.913877 -7.7568345 3.2664244
10.346963 -6.9844408 3.0454247
11.566133 -7.0200572 3.3006396
28.077431 -7.3490996 7.0803103
22.458584 8.7437935 5.8794184
22.172714 9.2544832 5.8613353
21.991455 10.451443 5.9399176
22.013212 11.120515 6.0165234
19.984951 10.708686 5.5311871
19.634043 11.138472 5.5068541
20.775585 12.457947 5.9096251
21.052979 14.793786 6.277143
15.032402 12.278669 4.7350602
11.254434 9.6546602 3.6173706
10.986445 10.385508 3.6881316
10.79495 10.709277 3.709522
12.990391 13.524511 4.5747623
14.317529 15.644751 5.1735764
12.643622 16.000036 4.9748526
10.968057 14.589849 4.4527979
11.64456 17.153948 5.0578485
10.412754 18.018906 5.0769477
8.1269331 14.880878 4.1363287
6.8884668 15.119953 4.0533161
6.2313476 15.635808 4.1061511
6.7510448 19.646389 5.0678611
4.3004489 22.824003 5.6659493
2.5982032 22.721403 5.5790715
0.39353514 22.676901 5.5329237
-1.250957 22.71055 5.5486984
-2.3595703 22.765285 5.5834026
-2.9209862 22.80266 5.6082263
-3.4887598 22.846901 5.6381726
-4.0641308 22.898214 5.6733837
-4.6484179 22.956841 5.7140374
-6.469121 23.179623 5.8708262
-7.7556639 23.371077 6.0071707
-24.303984 -7.350029 6.1942191
-22.849838 -7.5165048 5.8681293
-4.6933007 21.922705 4.9371819
-8.3115034 22.375757 5.2565155
-23.744701 -7.4700499 5.4816775
-23.460785 -8.0076427 5.4591551
-23.045088 -8.4917822 5.4085321
-15.148183 -7.7649655 3.7486463
-7.7630663 -7.0750446 2.3130431
-6.5737791 -6.925405 2.1027792
-6.3653321 -8.1535378 2.2779317
-5.6472459 -8.0013256 2.1567082
-5.4225974 -8.0904913 2.1448488
-5.1293359 -8.0671501 2.1052339
-10.354638 -21.672222 5.2893858
-9.7268648 -21.688375 5.234519
-9.0986328 -21.673201 5.176362
-7.8926172 -21.67473 5.0797834
-6.7281246 -21.67621 4.9981613
-5.045361 -21.686157 4.9032402
-4.4969726 -21.686918 4.8774567
-3.953994 -21.687675 4.854754
-3.4157422 -21.688427 4.8350658
-2.3506055 -21.689392 4.804368
-0.77207029 -21.692377 4.7800856
-0.24832031 -21.68549 4.775856
0.27490234 -21.687609 4.7763944
0.79858398 -21.689726 4.7797132
1.3232715 -21.691843 4.785821
2.3782227 -21.696081 4.8064923
3.445039 -21.701946 4.8390136
3.9841893 -21.703074 4.8592858
4.5281935 -21.704206 4.8825827
5.077754 -21.705351 4.908977
9.1547461 -21.732397 5.1931763
10.418877 -21.738277 5.3086228
11.073047 -21.741327 5.373054
11.743691 -21.744455 5.4422727
12.418984 -21.724539 5.5106926
14.602256 -21.729048 5.7652655
15.379883 -21.734613 5.8634996
17.01545 -21.740643 6.0797095
17.880312 -21.743826 6.1994281
9.7426071 -9.2963829 2.9655242
10.060918 -9.1467323 2.9943602
9.5359564 -8.2581968 2.7780035
10.350273 -8.5352716 2.9543676
11.19125 -7.9424877 3.0221088
11.574346 -7.4017859 3.0255175
11.51916 -6.9808006 2.9661913
27.467752 -8.6044073 6.3387432
28.177763 -6.6331472 6.3748755
21.694483 9.6935291 5.2327452
20.422743 10.334479 5.0405011
19.341259 10.3807 4.8339963
19.714218 11.201665 4.9933176
14.619258 12.558525 4.2442169
13.796865 13.060032 4.183672
13.393779 13.30562 4.1575956
7.7567086 14.225984 3.5682549
7.5090232 14.599006 3.6153162
6.8675976 15.101362 3.6533384
4.0881543 21.778887 4.8798795
3.541162 21.745857 4.8519168
3.0008299 21.718496 4.8282514
1.935703 21.680248 4.7933812
-0.16154297 21.667534 4.7717228
-2.2681737 21.739164 4.8133531
-3.8935449 21.850693 4.8877196
-4.4498339 21.899626 4.9212537
-6.7813864 22.160192 5.1034718
-8.684062 22.433083 5.2974157
-24.085541 -6.6718969 5.5038209
-24.2656 -7.3564892 5.5839038
-23.166992 -8.2631216 5.4166064
-22.415318 -9.2365179 5.3389192
-7.6917281 -7.2052197 2.3209598
-6.7337108 -8.0366125 2.3089354
-6.2225876 -8.1996365 2.2668021
-5.8148336 -8.0588989 2.1884677
-5.2548337 -8.0770874 2.1220272
-4.9677539 -8.0544739 2.0839822
-4.697402 -9.0166473 2.2389348
-8.1496878 -21.674406 5.0993605
-7.5583591 -21.675156 5.0551572
-6.9768848 -21.675894 5.0146046
-6.4042969 -21.67662 4.9775786
-5.8418946 -21.685049 4.9457045
-4.1882715 -21.687347 4.864202
-3.6480565 -21.688103 4.8432188
-2.5798438 -21.688959 4.8099785
-2.0506933 -21.68996 4.7978296
-0.99883789 -21.691948 4.7820272
0.048564453 -21.686693 4.7758226
0.57196289 -21.68881 4.7779369
1.0961132 -21.690928 4.7828374
2.1492286 -21.695164 4.8010612
2.679414 -21.697285 4.8144355
3.7504101 -21.702585 4.8501506
4.8392773 -21.704853 4.8971753
5.392324 -21.706003 4.9253573
2.1944921 -8.0032301 1.827515
6.5186911 -21.706018 4.9909773
7.0943165 -21.707329 5.0291729
7.6791501 -21.708652 5.070941
8.2741213 -21.709997 5.1164031
10.140654 -21.736982 5.2821708
10.788105 -21.74 5.3446078
11.451465 -21.743093 5.411727
12.11958 -21.723915 5.4781513
12.817197 -21.725363 5.554893
14.274873 -21.728371 5.725244
15.832011 -21.736284 5.9218621
16.651464 -21.739304 6.0303979
17.502022 -21.742434 6.1466355
18.385567 -21.744555 6.2708344
19.305195 -21.745771 6.4036646
9.6067963 -9.3602896 2.9537652
9.922431 -9.211812 2.9815979
10.223359 -8.6114149 2.9436314
10.284463 -8.2471037 2.9030833
11.174872 -8.1075525 3.0403709
11.529306 -7.1525249 2.987865
28.166191 -6.9414592 6.3883023
22.310986 9.6909342 5.3567581
21.876396 10.136303 5.3095961
19.150322 10.02221 4.7598729
21.034481 14.476403 5.6231861
14.383554 12.702324 4.225872
13.972822 12.952783 4.195806
14.591952 14.898291 4.592412
14.463506 15.497944 4.668313
14.055732 16.598658 4.7898307
11.089824 13.755747 3.8911071
11.851142 18.009836 4.7477546
7.6461325 14.491718 3.6083112
7.0074606 14.99175 3.6443133
6.6830759 15.24602 3.6658576
7.0312009 18.407549 4.3393407
4.3271384 21.79496 4.8933334
3.2338476 21.729645 4.8379703
1.1109668 21.665253 4.7773571
0.064599611 21.664865 4.7710247
-0.45833007 21.672531 4.7737622
-0.98239255 21.685442 4.7804308
-1.5086035 21.703669 4.79108
-2.0379102 21.72727 4.805748
-4.7695408 21.930134 4.9423184
-5.3409667 21.988913 4.9831629
-5.9237304 22.054321 5.0289164
-6.5193553 22.126665 5.0798035
-24.114637 -7.0367889 5.5319638
-23.689676 -7.5374975 5.4746094
-22.657055 -9.0606842 5.373683
-15.08831 -7.7963462 3.7400873
-7.7461524 -7.105885 2.3148782
-6.7165232 -6.7863145 2.102663
-6.5710058 -6.9677262 2.1091282
-6.025322 -7.3944645 2.1005492
-5.596035 -7.9837661 2.1470582
-4.8902831 -8.1773043 2.0982466
-5.0591993 -8.9426975 2.2626572
-4.80582 -8.9944105 2.2457447
-4.5562596 -9.0458336 2.2304828
-10.270107 -21.676208 5.2821836
-9.642519 -21.688915 5.2270579
-7.2272754 -21.675575 5.0317087
-6.6509376 -21.676308 4.9931717
-4.9710741 -21.68626 4.8995838
-3.3435059 -21.688528 4.8326402
-2.8096678 -21.688524 4.8161249
-1.225791 -21.691519 4.7844963
-0.17779297 -21.685776 4.7757688
0.34546873 -21.687897 4.776679
1.3941113 -21.692129 4.7868638
2.9819336 -21.700974 4.823864
3.5174413 -21.702097 4.8415728
4.6019335 -21.704359 4.8859577
5.7090721 -21.706661 4.9427819
6.8442187 -21.706757 5.0122199
7.4249511 -21.708078 5.0524225
8.01542 -21.709414 5.096271
9.2382326 -21.732784 5.2004209
9.8651657 -21.735701 5.2565522
11.162441 -21.741745 5.3820977
12.513018 -21.724731 5.52104
13.221913 -21.7262 5.6008635
15.486465 -21.73501 5.8771563
17.13003 -21.741064 6.0953674
9.0127439 -7.7539306 2.6182189
10.178203 -8.3379078 2.8974957
10.290351 -8.022872 2.8734729
27.605234 -8.548974 6.3640189
27.859238 -7.8964248 6.3767967
28.18161 -7.2581124 6.4086351
22.727674 8.9516516 5.3792753
22.436836 9.4684515 5.3629546
21.737001 9.7974224 5.2506547
22.065868 10.593335 5.3902764
20.170156 10.289163 4.9863834
19.666855 11.259501 4.9905682
19.594667 13.18623 5.2011981
14.563106 12.592786 4.2397761
14.519668 15.236152 4.6348553
14.388456 15.84696 4.7136712
15.313134 17.705448 5.1550565
13.973447 16.96706 4.8404889
12.631845 16.115025 4.5091448
10.805488 14.491928 3.9808691
11.966816 16.884651 4.5574875
11.628202 17.275671 4.5859575
11.693799 18.311789 4.7847047
7.9822264 14.753551 3.6940477
7.4661813 14.632536 3.6175835
7.146699 14.882688 3.635736
6.8238864 15.135625 3.6562395
4.0139747 21.774086 4.8758488
3.4679589 21.741838 4.8484769
2.9284277 21.715235 4.8253832
1.8645312 21.678457 4.7916212
1.3379883 21.668093 4.7808013
0.8137207 21.663015 4.7739582
-0.75546873 21.679207 4.7770591
-1.2806054 21.695129 4.7859845
-2.8764844 21.775311 4.8369823
-3.4187596 21.813215 4.8623161
-3.9680469 21.856941 4.8919811
-4.5255275 21.906694 4.926126
-5.0924025 21.962683 4.9648981
-6.863574 22.170923 5.1110516
-7.4824805 22.254873 5.1705246
-8.1184959 22.346779 5.2358694
-24.073709 -6.7530169 5.5061078
-23.866894 -7.3204851 5.4976029
-23.146963 -8.3409081 5.4182348
-22.340639 -9.2908373 5.328299
-7.6747265 -7.2362909 2.3229167
-6.7268553 -6.6563363 2.0840309
-6.5798731 -6.8328247 2.0889683
-6.698545 -8.0476742 2.3058393
-6.1661134 -8.1803522 2.2559111
-5.7620506 -8.0407372 2.1784341
-5.1136327 -7.5122619 2.0012424
-5.0451169 -8.2397194 2.1276579
-5.1700778 -8.920125 2.2704759
-4.9149609 -8.9721146 2.2528639
-10.542285 -21.663372 5.3055801
-9.9141111 -21.68718 5.251287
-9.2822361 -21.672968 5.1921005
-8.0693655 -21.674509 5.0931873
-7.479414 -21.675257 5.0494766
-6.8991599 -21.675993 5.0094104
-5.7663279 -21.685154 4.9414258
-5.2098341 -21.685926 4.9115238
-4.6597071 -21.686691 4.884809
-4.1151853 -21.68745 4.861197
-1.453037 -21.691088 4.7874823
-0.92813474 -21.692081 4.7813644
0.11909179 -21.686979 4.7759433
2.2205079 -21.695446 4.8026972
2.7511034 -21.697573 4.816463
3.2852831 -21.701611 4.8335485
4.3656249 -21.703869 4.8753238
4.9134665 -21.705008 4.9007897
2.2197461 -7.9932714 1.8268803
6.5957813 -21.706194 4.9959226
7.1725974 -21.707504 5.0345941
7.7587399 -21.708832 5.0768461
8.9711037 -21.731543 5.1774344
10.876553 -21.740412 5.3533716
12.21247 -21.724108 5.488184
12.912724 -21.725561 5.5656486
14.376406 -21.72858 5.737587
15.146132 -21.733751 5.833756
15.940762 -21.736685 5.9360666
17.6192 -21.742867 6.1629248
18.507334 -21.744717 6.2882109
19.432217 -21.745939 6.422298
9.9654493 -9.1915932 2.985528
10.262783 -8.5877438 2.9469292
10.656856 -8.0765305 2.9446661
11.307373 -7.7402487 3.0176184
11.512822 -7.4795256 3.0234008
27.848232 -8.9438152 6.4412098
27.873671 -8.2157068 6.3993754
27.747139 -7.4558053 6.3271766
28.148115 -6.8399663 6.3791184
22.562647 9.245368 5.369669
21.920712 10.243569 5.3284116
19.024326 10.03523 4.7366438
20.952305 14.520442 5.6138072
14.743798 12.482527 4.2542276
11.159081 9.9195204 3.2879851
13.917881 12.986274 4.1919689
13.1754 13.539804 4.1604261
14.44582 15.5803 4.6789408
14.036318 16.685406 4.801671
11.067862 13.820225 3.8991466
10.656904 14.708581 3.9999328
11.775234 17.105944 4.5732832
7.6034665 14.525103 3.6104498
7.2852926 14.774145 3.6275969
6.6390328 15.280554 3.6689477
6.310039 15.538628 3.6932793
3.7033007 21.755096 4.8597918
1.5653906 21.67193 4.7849951
0.51688474 21.66246 4.7718306
-0.52887696 21.673962 4.7744284
-1.0531445 21.687586 4.7816334
-2.10958 21.730865 4.8080339
-2.6437891 21.760677 4.8273387
-3.7294726 21.83729 4.878603
-5.418828 21.997334 4.9890342
-6.0032716 22.063662 5.0354686
-6.6006737 22.136959 5.0870657
-7.2127633 22.217619 5.1441016
-7.8411326 22.306023 5.2068634
-24.11166 -6.4929919 5.4989882
-23.634829 -7.6047821 5.4676175
-7.729238 -7.1367688 2.3167412
-7.60291 -7.3677497 2.331486
-6.7117186 -6.8257103 2.1080952
-6.8117771 -8.0121317 2.3159037
-5.9332223 -8.099719 2.2110698
-5.5453124 -7.966392 2.1375239
-5.0521288 -8.0610771 2.0950282
-5.0248337 -8.9497032 2.2602823
-10.18581 -21.68018 5.2750525
-9.5584078 -21.689455 5.2196655
-8.9333591 -21.67341 5.1624279
-7.1490622 -21.675676 5.0263104
-6.0092578 -21.684816 4.9553671
-5.4497361 -21.685593 4.9240618
-4.896914 -21.686361 4.8959808
-3.8084862 -21.687878 4.8491521
-3.2711914 -21.687649 4.8300443
-2.7380078 -21.68866 4.8141508
-2.2080274 -21.689663 4.8011508
1.9918847 -21.69453 4.7976294
2.5212207 -21.696651 4.8101535
4.130332 -21.703377 4.8652649
5.226953 -21.705662 4.9166331
5.7839646 -21.70434 4.9465103
6.348906 -21.705631 4.9802704
6.9219532 -21.706936 5.0174317
7.5039549 -21.708256 5.0581212
8.0958099 -21.709595 5.1024652
9.3219728 -21.733173 5.2077408
11.252187 -21.742163 5.3912358
12.607353 -21.724928 5.5314741
14.052129 -21.727915 5.6983709
17.245293 -21.741489 6.1111784
18.118944 -21.744204 6.2330327
19.027285 -21.745405 6.3631396
9.8277826 -9.2563162 2.9730687
9.1223049 -8.1856823 2.6991057
9.2238569 -7.883523 2.6720879
10.21124 -8.3096476 2.8991966
10.375742 -8.0353432 2.8900037
11.090107 -8.1683283 3.0332
11.423701 -7.5923357 3.020642
11.535429 -7.2716222 3.0029168
27.780859 -8.5044861 6.3981047
27.832197 -7.7910228 6.3647728
22.397627 9.5378656 5.3609653
21.77998 9.9021721 5.2687926
22.011347 10.655408 5.3853931
19.887363 10.226575 4.924674
19.418163 10.585232 4.8703232
21.836288 14.041633 5.7171621
11.083047 10.126884 3.3061187
13.687705 13.126554 4.1763768
13.285937 13.371294 4.1510296
14.502255 15.317355 4.6451788
11.921426 16.937084 4.5611539
11.93291 17.853407 4.7289982
8.9509954 15.749496 3.9893463
7.8246775 14.575393 3.6430523
7.4233103 14.666094 3.6198955
6.7800584 15.169971 3.6591899
6.4528904 15.426545 3.6824474
6.1213965 15.686702 3.7082055
3.9399803 21.769409 4.8719072
2.8561621 21.71207 4.8225904
2.3226659 21.691708 4.8042207
0.22023436 21.663595 4.7709689
-1.879873 21.719669 4.8009534
-2.9491894 21.780087 4.8401518
-4.6013575 21.913862 4.9310699
-5.1696677 21.970728 4.9704943
-5.7489061 22.034126 5.0147605
-6.3405466 22.10437 5.0640936
-6.9461036 22.181797 5.1187415
-7.5672164 22.266794 5.1789865
-8.2056055 22.359797 5.2451415
-8.863369 22.461315 5.3175797
-24.061869 -6.8341703 5.5084519
-23.384785 -7.8791595 5.4342222
-22.860903 -8.9522457 5.4066401
-7.6576953 -7.2674284 2.3249018
-6.7236524 -6.6965747 2.0897746
-6.5273242 -7.5171409 2.1923997
-6.663496 -8.0587149 2.3027849
-6.1627536 -7.8303504 2.1943955
-5.709795 -8.0227814 2.1685271
-5.4714842 -8.0944223 2.1515784
-5.1763768 -8.0708656 2.1115
-5.1354394 -8.9271755 2.2680061
-4.6301856 -9.0305395 2.2348561
-9.1990232 -21.673073 5.1849341
-7.4006834 -21.675356 5.0438733
-6.8216696 -21.67609 5.0042834
-6.2535839 -21.684477 4.9699354
-5.1353126 -21.686029 4.9077377
-4.0421581 -21.687553 4.8582478
-2.9682031 -21.688225 4.8206668
-2.4370117 -21.68923 4.8064246
-1.9085449 -21.690229 4.7950444
-1.3822656 -21.691223 4.7864923
-0.85755855 -21.692213 4.7807536
0.18956055 -21.687265 4.7761168
1.2375782 -21.691496 4.7846336
1.763623 -21.693613 4.7930951
4.4391403 -21.704021 4.8785753
5.5425196 -21.706316 4.9335051
6.6730075 -21.706369 5.0009294
7.8384862 -21.709013 5.0828233
9.0540619 -21.731928 5.1845126
10.313721 -21.737789 5.2985554
11.633193 -21.74394 5.4306536
13.732148 -21.727255 5.6602898
14.478271 -21.72879 5.7500329
15.251562 -21.73414 5.8471336
16.049931 -21.737087 5.9503875
18.62962 -21.744881 6.3057237
9.4415236 -8.2416372 2.759917
10.598799 -8.3865128 2.9763575
11.185068 -8.004447 3.0289209
11.334931 -7.705111 3.0182719
11.540654 -7.4443502 3.0243351
11.500078 -6.6555209 2.9260681
27.302412 -8.670763 6.3084168
27.941942 -8.1372461 6.4089484
22.523417 9.314992 5.3675175
21.643583 9.5688887 5.2113566
19.268633 10.244253 4.8057318
19.771591 11.131575 4.9967175
20.916817 13.143766 5.4402018
21.483467 14.234079 5.675261
20.870302 14.564289 5.6044955
14.687373 12.516963 4.2496653
11.141093 9.9685707 3.2922215
13.863056 13.019688 4.1881847
13.45916 13.265798 4.1616602
12.480801 12.90969 3.954318
14.016796 16.772675 4.813642
12.729638 16.001673 4.5029001
11.729492 17.158752 4.5771766
8.0008202 14.537393 3.6542242
7.5607324 14.558542 3.6126275
7.2421484 14.807924 3.6300883
6.9204102 15.059965 3.6498802
6.5949707 15.315107 3.6720788
2.5529003 21.69985 4.8116627
2.021914 21.682564 4.7956138
1.4944922 21.67063 4.783607
0.96964842 21.663975 4.7755823
0.44638669 21.662579 4.7715101
-0.076328121 21.666412 4.7713718
-3.2566016 21.801327 4.8543267
-3.8036718 21.843296 4.8826842
-4.3586035 21.891232 4.9154782
-8.5763083 22.416313 5.2854414
-24.168482 -7.2233806 5.5549755
-22.821342 -8.0388021 5.3283587
-22.506025 -9.1705322 5.3518968
-7.712285 -7.1677074 2.3186338
-7.5857711 -7.3991241 2.3335991
-6.706162 -6.8645587 2.1133494
-6.5654392 -7.0531445 2.1220164
-6.5443454 -7.3797278 2.1721275
-6.7763767 -8.0232172 2.3127272
-5.6029587 -8.1052771 2.1698909
-5.3026462 -8.0808935 2.1284883
-4.9905076 -8.9567013 2.2579384
-4.7381444 -9.0082512 2.241457
-10.731045 -21.654472 5.3221436
-8.8510351 -21.673515 5.1555657
-7.6540427 -21.675034 5.0621104
-6.4970312 -21.676504 4.9833727
-5.9333887 -21.684921 4.9509549
-5.3748145 -21.685696 4.9200873
-4.8229394 -21.686464 4.8924408
-4.2768359 -21.687225 4.8679099
-3.7358496 -21.687981 4.8464355
-3.1991308 -21.687788 4.8277292
-2.1368163 -21.689796 4.7996154
-1.6096679 -21.690796 4.7898469
-0.56027341 -21.692776 4.7787433
1.0105761 -21.690582 4.781848
1.5358691 -21.692699 4.7890882
2.5927832 -21.696941 4.8120575
3.6625195 -21.7024 4.8468504
4.7497263 -21.70467 4.8928823
5.8597169 -21.704512 4.9508643
6.425703 -21.705805 4.9850793
7.5831738 -21.708437 5.0638824
8.1764355 -21.709778 5.1087317
9.4059763 -21.733564 5.2151384
10.036572 -21.736498 5.2724247
10.681475 -21.739504 5.3341088
11.342109 -21.742582 5.4004507
12.007607 -21.723684 5.4661384
13.416513 -21.726601 5.6233377
14.152666 -21.728119 5.710463
14.914658 -21.732897 5.8046079
15.701152 -21.7358 5.9048581
16.51581 -21.738804 6.0121942
19.152626 -21.745569 6.3813729
9.4442968 -8.0189142 2.7283783
10.244355 -8.2813435 2.9009356
11.168877 -8.1704254 3.0474565
11.451445 -7.557189 3.021461
11.533183 -7.2178822 2.9962018
11.509844 -6.8225021 2.9465106
22.649267 9.0913324 5.374599
21.823359 10.007631 5.2871256
19.079716 9.8898373 4.7326169
18.907421 10.386702 4.7506666
19.572247 11.375007 4.9852295
20.837851 12.792792 5.3846488
21.752138 14.087692 5.7070909
14.484765 15.398915 4.6556005
11.116279 13.678059 3.8814757
12.543076 16.21788 4.5150037
11.895986 17.924013 4.7374344
8.7099409 15.441999 3.9042578
6.4084864 15.461389 3.6857688
7.1034079 18.379406 4.3392582
2.2510643 21.689379 4.8020582
0.14984375 21.66411 4.7709484
-0.37296873 21.670912 4.7730398
-2.4841309 21.751217 4.821157
-3.0220118 21.78496 4.8433886
-3.5660644 21.824411 4.869875
-4.6773438 21.92116 4.9361119
-6.4213181 22.11438 5.0711441
-7.0288572 22.192804 5.1265321
-7.6521969 22.278856 5.1875529
-8.2931442 22.372982 5.2545404
-24.137749 -6.3143811 5.4944468
-23.756226 -7.4559374 5.4831719
-22.016148 -8.0956564 5.1657391
-22.748989 -8.9938908 5.3870592
-7.6406446 -7.2986169 2.3269203
-6.6285448 -8.0697536 2.2997642
-6.3724608 -8.1512442 2.278502
-6.0542283 -8.1415596 2.2343071
-5.6579981 -8.0050125 2.1587372
-5.1374316 -8.06779 2.106312
-4.9480662 -8.2005768 2.1091919
-4.8468747 -8.9860191 2.2483928
-4.5967188 -9.0374622 2.2328615
-10.372441 -21.671381 5.2909122
-9.7446089 -21.688263 5.2360954
-9.1160154 -21.673178 5.1778445
-7.9093747 -21.674709 5.0810394
-6.1773143 -21.684582 4.9653287
-5.0609274 -21.686134 4.9040141
-4.512363 -21.686897 4.8781395
-3.9692578 -21.687656 4.8553529
-3.4308789 -21.688406 4.8355784
-2.8964355 -21.688358 4.8185782
-2.3655565 -21.689365 4.8047204
-1.3113867 -21.691357 4.7855577
-0.78683591 -21.692348 4.7801962
0.78380859 -21.689667 4.7795844
1.8347558 -21.693899 4.7944517
3.4299219 -21.701914 4.8384857
3.9688671 -21.703041 4.8586707
4.5127244 -21.704174 4.8818841
5.062119 -21.705318 4.9081864
5.6178026 -21.706472 4.9376645
6.750371 -21.706545 5.0059986
7.918447 -21.709194 5.0888648
8.5178022 -21.710546 5.1358685
9.1372652 -21.732313 5.191669
10.400635 -21.738195 5.3068681
13.831474 -21.727461 5.6720457
14.580771 -21.729004 5.7626176
15.357666 -21.734533 5.8606534
16.159834 -21.737492 5.9648657
17.855459 -21.743732 6.1959519
18.752851 -21.745041 6.3234439
9.5194826 -8.2553072 2.7748437
10.604893 -7.9291153 2.9160008
11.190175 -7.9532132 3.0232837
11.362519 -7.6699681 3.0189605
11.568496 -7.4091692 3.0253077
26.993837 -8.4761305 6.2307181
22.775106 8.8670216 5.3822069
22.484228 9.3845015 5.3654194
20.432821 10.322136 5.0412521
20.182323 12.102204 5.1823382
21.663067 13.711265 5.645874
13.162314 13.703503 4.184339
14.966758 17.168016 5.0156884
11.683701 17.211617 4.5811176
11.739219 18.224512 4.7739267
7.7981248 14.278823 3.5828362
7.5179687 14.592004 3.6148467
6.5507421 15.349788 3.6752598
4.1037402 21.779902 4.880733
3.5565331 21.746714 4.8526492
1.9506543 21.680647 4.7937651
1.4236327 21.669418 4.7822909
0.89907223 21.663486 4.7748065
0.37592772 21.662792 4.7712631
-1.722207 21.712555 4.7965226
-4.4340329 21.898163 4.9202466
-4.9993458 21.953121 4.9582572
-6.7642479 22.15797 5.1018982
-7.380527 22.240671 5.1604452
-8.0136328 22.331247 5.2248106
-24.088022 -6.6548967 5.5033512
-23.053207 -7.5834117 5.3443589
-4.4876757 20.962248 4.2171016
-5.0308981 21.010124 4.249917
-7.924902 21.335003 4.4771814
-21.015839 19.844833 5.6860895
-23.433353 -6.1471395 4.7657447
-24.013109 -6.9224925 4.9161925
-24.092119 -7.5793462 4.9683647
-23.318106 -7.9589453 4.84694
-23.379608 -8.6150379 4.9015055
-22.620308 -8.9607725 4.7862611
-22.276796 -9.4526062 4.7604542
-7.7252145 -7.0405445 2.0561368
-7.5995898 -7.26929 2.0687854
-6.4702539 -7.1543527 1.8975819
-6.590117 -8.0341082 2.0441358
-6.3863473 -8.180459 2.0415678
-5.9828515 -8.0570049 1.9741539
-5.6689844 -8.0321236 1.9339775
-5.1492772 -8.0985174 1.8878922
-5.3270602 -8.8422518 2.0307102
-4.8243551 -8.9588928 2.0016639
-4.5751266 -9.0102415 1.9878898
-10.354804 -21.672533 4.7250128
-8.4899416 -21.67396 4.5791039
-7.8926072 -21.674719 4.537704
-6.1612792 -21.684372 4.4345698
-3.4157031 -21.688202 4.319057
-2.8814061 -21.688557 4.3040266
-1.2965918 -21.691553 4.274745
-0.77208006 -21.692543 4.2700243
0.27491209 -21.688581 4.2668858
1.3233398 -21.692818 4.2753086
2.37833 -21.697058 4.2937779
4.5282907 -21.704699 4.3616509
5.0778708 -21.705845 4.3852301
5.6337595 -21.707001 4.4116373
6.1960936 -21.706127 4.4405613
9.154541 -21.731918 4.6389017
9.7796383 -21.734821 4.688529
10.418653 -21.737795 4.7420216
12.419394 -21.725267 4.922802
13.852763 -21.728254 5.0691509
14.602773 -21.729811 5.1502237
16.183409 -21.738285 5.3312316
18.779091 -21.745556 5.6521049
9.7170801 -9.2720394 2.6421306
10.01248 -9.1026983 2.6619482
9.4327536 -8.1688251 2.4547017
9.9933691 -8.2409554 2.5480986
10.516992 -8.2547178 2.6300561
10.881894 -8.1246481 2.6715002
11.339805 -7.2517939 2.6478899
26.909277 -8.4294643 5.5471988
27.93955 -8.0173969 5.7180362
22.793076 9.5316153 4.8600817
22.201241 10.56966 4.8370838
19.417881 9.8259916 4.281076
19.804169 11.252778 4.4808207
13.814121 13.076374 3.7419012
12.717783 16.116447 4.0386357
10.826377 14.42185 3.5474827
12.051991 16.888159 4.0814214
8.1959372 15.031518 3.3679631
7.1779099 14.823947 3.2400165
8.1964941 18.02351 3.8949738
9.1047754 24.603422 5.1607199
8.4016409 24.50392 5.0958395
7.7177539 24.413792 5.0368991
7.0511227 24.332533 4.9835801
6.3998828 24.259718 4.9356036
5.7622557 24.194948 4.8927112
3.9110448 20.835321 4.1702757
3.3885937 20.808889 4.1474104
2.3606932 20.769777 4.1121049
1.8532715 20.756907 4.0995097
-0.65577149 20.757414 4.0854044
-1.1582714 20.770428 4.0922742
-1.6630957 20.787807 4.1024127
-2.1711817 20.809624 4.1158609
-2.6834667 20.835947 4.1326718
-3.2009375 20.86689 4.1529202
-4.2554979 20.943146 4.2040973
-4.7947459 20.98877 4.2352467
-5.3435254 21.039656 4.2702909
-5.9030762 21.096016 4.3093834
-6.4747362 21.158123 4.3527231
-7.0599022 21.22624 4.4004979
-8.2771387 21.381922 4.5103822
-8.9127045 21.470259 4.5730505
-23.483681 -7.7427588 4.8642926
-23.040873 -8.2181396 4.8122478
-7.6541014 -7.1699619 2.0631404
-6.6496582 -6.8605094 1.879506
-6.4337692 -7.6786504 1.970673
-6.1248827 -8.0708857 1.9931123
-5.803154 -8.0427122 1.9510041
-5.2024999 -7.9966626 1.8767058
-5.1878223 -8.8840475 2.0238092
-9.9993258 -21.686792 4.6978345
-9.373476 -21.690792 4.6483588
-8.1496973 -21.674391 4.5551953
-6.9768848 -21.67588 4.4794855
-3.6480174 -21.687876 4.3263402
-3.1120312 -21.68812 4.3101506
-2.5798633 -21.689125 4.2967253
-2.0507226 -21.690126 4.2858763
-1.523916 -21.691126 4.2775602
-0.47490233 -21.693102 4.2684555
0.048564453 -21.687666 4.2663746
0.57198238 -21.689785 4.2682629
1.0961621 -21.691902 4.2726402
1.6217382 -21.694017 4.279521
2.1493065 -21.69614 4.2889218
2.6795311 -21.698267 4.3008723
3.213203 -21.701946 4.3157196
4.839375 -21.705347 4.3746862
2.1942284 -8.0022564 1.6322981
8.8881149 -21.730682 4.6185808
9.5075779 -21.733559 4.6665959
10.787881 -21.73951 4.7741642
11.451191 -21.742596 4.8341203
12.11998 -21.72464 4.8937278
12.817636 -21.726099 4.9622879
13.535479 -21.727594 5.0357623
16.652012 -21.740019 5.3870635
17.502617 -21.743164 5.4909024
18.385956 -21.745033 5.6017838
9.887373 -9.1792631 2.6540167
10.17791 -9.0017099 2.6729157
9.4787598 -7.9842281 2.4379959
11.160625 -7.6932168 2.6665692
27.952461 -9.0776777 5.7814622
28.19659 -6.9489498 5.71275
22.921074 9.3052998 4.8664026
22.625214 9.8274231 4.8525195
23.116152 11.395976 5.0699377
19.677607 10.298162 4.3690109
19.957354 11.065879 4.4891028
21.683916 13.429924 5.0174952
14.401729 12.718376 3.7796941
13.990341 12.969035 3.7527642
12.129013 12.383637 3.4099169
12.859961 15.951404 4.0306873
12.530371 16.33387 4.0497508
11.860234 17.110054 4.0954261
8.5350685 15.272078 3.4416394
7.316113 14.715803 3.2328961
8.7033205 24.54578 5.1231546
7.3375192 24.366629 5.0059757
6.6798143 24.290209 4.9557195
6.0365329 24.222013 4.9106622
5.4059472 24.16164 4.870553
3.6137989 20.81975 4.1568666
2.0723436 20.761936 4.1045489
-0.94065428 20.764259 4.0889001
-1.4443749 20.779749 4.0976224
-2.9763768 20.852924 4.1437311
-3.4972265 20.886543 4.1659684
-4.5603809 20.968393 4.2212992
-5.6595898 21.070942 4.2919617
-6.2258592 21.130531 4.3334398
-8.0080662 21.345943 4.4849195
-24.09848 -7.0320716 4.9383287
-15.089687 -7.7970581 3.3412774
-7.5825391 -7.3003564 2.0705957
-6.4671969 -7.1978779 1.9035389
-6.5483398 -8.0363274 2.0392728
-6.2174606 -8.0177279 1.9959
-5.9397655 -8.0535669 1.9685682
-5.6276464 -8.0288763 1.9287772
-5.1003418 -8.079483 1.8795772
-5.0430174 -8.9140692 2.014735
-10.270244 -21.676521 4.718576
-9.0158691 -21.67329 4.6177211
-8.4088087 -21.674063 4.5733252
-7.2272654 -21.675562 4.4947605
-5.5246973 -21.685259 4.4021573
-4.9710255 -21.686029 4.3766913
-3.8811619 -21.687551 4.3341236
-2.2793067 -21.689697 4.2902579
-1.7515429 -21.690693 4.280849
-0.70145506 -21.692678 4.2695794
-0.17779297 -21.686749 4.2663293
0.34548828 -21.688868 4.2671418
1.3941699 -21.693102 4.276237
2.449785 -21.697346 4.2953868
2.9820116 -21.70146 4.3091922
3.5175292 -21.702583 4.3250151
4.0573044 -21.703712 4.3434858
5.1524315 -21.706001 4.3886228
6.2725487 -21.706301 4.4447489
6.844492 -21.707611 4.4775314
7.4252243 -21.708935 4.5134501
8.0157423 -21.710279 4.5526199
8.6169434 -21.711643 4.5951691
9.2380276 -21.732307 4.6453667
10.505898 -21.738197 4.7495356
11.162168 -21.741253 4.8076563
11.824033 -21.724024 4.8655224
13.222353 -21.726942 5.0033569
14.705732 -21.730026 5.1615911
15.486943 -21.735704 5.2501559
16.293798 -21.738693 5.3442993
17.999659 -21.744516 5.5529428
18.902998 -21.745722 5.6680927
10.051641 -9.0787678 2.6644952
9.5058985 -8.1782131 2.4667995
10.887265 -8.0736542 2.6663611
11.275624 -7.5469351 2.6691148
11.357031 -6.832171 2.6072497
26.824492 -8.3071928 5.5241175
27.888184 -7.9046288 5.7022386
27.932705 -7.1940088 5.674192
24.314178 9.5765314 5.1406784
22.457363 10.122104 4.8457837
19.756552 11.310847 4.4783421
20.228945 12.238527 4.6510162
14.167626 12.861037 3.7640996
12.673368 16.167995 4.0412035
12.006572 16.940739 4.0846753
11.768857 17.484632 4.146132
8.0321093 14.845752 3.320471
7.1347165 14.857756 3.2423182
8.3083887 24.491238 5.0875583
6.9624805 24.322245 4.9768119
6.3131738 24.250532 4.9295311
5.6772752 24.186823 4.8873129
4.3686914 20.862011 4.1929626
3.8402147 20.831484 4.166986
2.8029199 20.784487 4.1257038
1.7851465 20.75551 4.0980678
0.77919918 20.743979 4.0835991
-0.22217773 20.749643 4.0820723
-1.2261719 20.772514 4.0934501
-1.7313671 20.790487 4.1040311
-2.2399805 20.812904 4.1179276
-3.2711523 20.871418 4.1559172
-3.7957225 20.907745 4.1801691
-5.4182811 21.046923 4.2753172
-5.9793844 21.104046 4.3149743
-7.1398926 21.235903 4.4072938
-8.9998732 21.482738 4.5819197
-21.010752 20.12751 5.7236896
-20.875301 19.053583 5.5599284
-22.97579 -8.2792215 4.8042536
-22.804419 -8.8446636 4.811646
-22.314335 -9.279892 4.7541027
-7.6371384 -7.2008491 2.0648704
-6.6439743 -6.8993893 1.8842292
-6.4305272 -7.7256842 1.9773664
-5.7610645 -8.0393829 1.9456397
-5.1637106 -7.9937706 1.8720775
-5.4005661 -8.8202572 2.0345204
-5.1534667 -8.8914719 2.0216722
-4.8992968 -8.9435158 2.006042
-10.542432 -21.663687 4.7394776
-9.9141893 -21.687336 4.690949
-8.069375 -21.674494 4.5496778
-6.8991699 -21.675978 4.4748425
-4.1151562 -21.687222 4.3424039
-3.040117 -21.688257 4.3081927
-2.5084081 -21.689262 4.2951169
-1.9795898 -21.690264 4.2846065
-0.40430662 -21.693237 4.268199
0.11909179 -21.687952 4.2664819
1.6927344 -21.694304 4.2806377
2.2205956 -21.696424 4.2903824
2.7512207 -21.698551 4.3026757
3.2853613 -21.702097 4.3178477
3.8232031 -21.703222 4.3351669
4.3657227 -21.704357 4.355166
2.2194726 -7.9922976 1.6317302
6.596035 -21.707043 4.4629703
7.1728711 -21.708361 4.49752
7.7590427 -21.709694 4.5352664
8.3554878 -21.711052 4.5763392
8.9708881 -21.73107 4.6248393
10.876288 -21.739922 4.7819958
14.376904 -21.729343 5.1255002
15.146611 -21.734444 5.2113905
17.619795 -21.743599 5.5054498
18.507734 -21.745195 5.6173038
9.2736721 -8.1483936 2.4284754
9.8219337 -8.2188568 2.5193803
10.42919 -8.3075771 2.6229558
10.726211 -8.1290989 2.6475549
11.187901 -7.658463 2.6671214
11.33539 -7.364254 2.6591449
11.3504 -6.9905076 2.622329
18.450302 -7.9590673 3.9529192
27.825644 -8.2015467 5.7066355
27.934317 -7.5061026 5.6901155
28.178076 -6.8472495 5.7044611
22.881191 9.3758965 4.8643799
22.585331 9.8975334 4.8508444
22.289423 10.415861 4.8398657
20.623974 10.250874 4.5306292
19.740761 10.413132 4.3905296
19.556513 11.554606 4.4684348
14.345927 12.752385 3.775913
12.815732 16.00275 4.0331149
8.6089449 24.532551 5.1145248
7.9195504 24.439688 5.0538545
7.2479782 24.355839 4.9988923
5.3218164 24.154091 4.8655181
4.0679393 20.844101 4.1777763
2.5125291 20.774466 4.1165013
2.0040038 20.760283 4.1029143
0.99615234 20.745014 4.085628
0.49496093 20.743849 4.0818629
-0.50641602 20.754375 4.0839849
-1.0083984 20.7661 4.0898895
-1.5124609 20.782173 4.0990496
-3.0462303 20.857174 4.1465211
-5.1790428 21.023935 4.2594352
-6.3031054 21.139004 4.3393574
-6.8841114 21.205307 4.3857932
-8.7213478 21.443169 4.5538111
-20.568213 19.17062 5.5311327
-24.083187 -7.1126819 4.939909
-22.343653 -9.0197172 4.7400365
-6.6197557 -7.0652905 1.9046108
-6.4641209 -7.2416778 1.9095539
-5.8969235 -8.0501556 1.9630373
-5.0518651 -8.0606413 1.8713627
-5.0087595 -8.9210835 2.0126271
-9.558486 -21.689611 4.6627002
-8.9333496 -21.673395 4.6115289
-8.3278322 -21.674164 4.5676074
-7.7333984 -21.674919 4.5271244
-6.573916 -21.676394 4.4559326
-5.4496775 -21.68536 4.3985562
-4.3500094 -21.686893 4.3511925
-2.7380273 -21.688828 4.3004546
-2.2080371 -21.689831 4.2888408
-1.6805956 -21.690826 4.2797742
-1.1550683 -21.69182 4.2732258
-0.10726562 -21.687033 4.2662926
0.93994141 -21.691271 4.2710767
1.4650488 -21.693388 4.2772117
3.054004 -21.701611 4.3111753
3.5899901 -21.702734 4.3273454
6.3491697 -21.706476 4.4489899
6.9222264 -21.707788 4.4821882
7.5042381 -21.709116 4.5185351
10.593476 -21.738605 4.7571321
12.607802 -21.72566 4.9413695
14.052608 -21.728668 5.0904603
14.809101 -21.730238 5.1730061
16.404814 -21.739103 5.3574915
17.245859 -21.742214 5.4592223
18.119335 -21.744675 5.5680118
10.090878 -9.0548058 2.6670775
10.302548 -8.3839426 2.612973
10.596952 -8.2066603 2.6366479
10.899463 -8.0279093 2.6629431
11.359131 -6.7831945 2.6026464
27.572353 -9.1737604 5.7163305
27.937422 -7.8204818 5.7070718
19.540077 10.047995 4.3223329
20.063086 10.936799 4.4950957
19.708935 11.368886 4.4759111
22.207607 13.534494 5.1160398
22.719013 14.60926 5.3135266
14.112266 12.894768 3.7605188
12.95747 15.838137 4.0254884
12.628867 16.219625 4.0438151
10.675888 14.415668 3.5288129
7.8729 14.665217 3.2743511
7.4109178 14.64163 3.2282147
8.2154388 24.478724 5.0793786
7.5364547 24.391043 5.0219927
6.2267184 24.241489 4.9235525
5.5925097 24.17882 4.8819938
3.2488086 20.802563 4.1418509
2.7338183 20.781973 4.1234164
1.7170312 20.754187 4.0966802
1.2133789 20.746847 4.0882597
0.71161133 20.743826 4.0830936
0.21089843 20.745092 4.0811567
-0.28965819 20.750645 4.0824342
-0.79103512 20.760498 4.0869384
-1.7996973 20.793243 4.1057067
-2.822412 20.843828 4.1377873
-3.3414452 20.876034 4.1589756
-3.8669531 20.913017 4.1837153
-5.4932714 21.054298 4.2804222
-7.8247461 21.321928 4.4679418
-8.4465523 21.405012 4.5267444
-23.836416 -6.770134 4.8745332
-22.720795 -8.8973751 4.8000827
-6.6382618 -6.9384656 1.8889973
-6.451025 -7.4292717 1.9355521
-6.6409278 -8.0314169 2.050082
-6.00667 -7.6320133 1.9105778
-6.027246 -8.0504465 1.9783418
-5.7192578 -8.0360823 1.94033
-5.4162598 -8.0127144 1.9025786
-5.1189551 -8.8985291 2.0194809
-4.8653221 -8.9504852 2.0040443
-10.457393 -21.667698 4.7328906
-9.8292971 -21.687878 4.6841259
-9.1990137 -21.673059 4.6316381
-7.9892673 -21.674595 4.5442228
-7.4006739 -21.675341 4.5056267
-6.82166 -21.676077 4.4702616
-5.1352539 -21.685801 4.3839798
-4.0421095 -21.687326 4.3397684
-0.3338086 -21.693371 4.2679911
0.18956055 -21.688236 4.2666435
0.71313477 -21.690355 4.2691979
1.2376465 -21.692471 4.2742496
1.7637011 -21.69459 4.2818027
4.4392185 -21.704512 4.3580713
2.2487402 -7.9967566 1.6341255
6.6732516 -21.707218 4.4674454
8.4367085 -21.711233 4.5821338
9.6768255 -21.734344 4.6801801
10.965088 -21.740334 4.789907
11.632919 -21.743443 4.8510308
13.009111 -21.726498 4.9816055
