# .PCD v0.7 - Point Cloud Data file format
VERSION 0.7
FIELDS x y z
SIZE 4 4 4
TYPE F F F
COUNT 1 1 1
WIDTH 1499
HEIGHT 1
VIEWPOINT 0 0 0 1 0 0 0
POINTS 1499
DATA ascii
5.8521872 -0.3218939 -1.9665786
5.8584862 -0.18060608 -1.9666566
5.8612986 -0.039199829 -1.9667102
5.8564548 0.24361266 -1.9667431
5.8377051 0.5258258 -1.9666777
5.8231053 0.66650146 -1.966608
5.7835546 0.94654292 -1.9663954
5.7302537 1.2242572 -1.9660848
5.6984763 1.3620269 -1.9658935
5.5830173 1.7699585 -1.9651752
5.4377832 2.1681011 -1.9642445
5.3829198 2.298255 -1.963888
5.1993847 2.6799278 -1.962683
5.1320605 2.8039629 -1.9622372
4.9121385 3.1654327 -1.9607704
4.6664157 3.5094647 -1.9591173
4.5789747 3.61994 -1.9585263
4.4889159 3.7282054 -1.9579163
4.3010254 3.9378405 -1.9566394
4.1032224 4.1378918 -1.9552904
3.8807909 4.3110023 -1.9462526
3.5308299 4.3248181 -1.8733171
3.3651073 4.3310752 -1.8403127
3.2059178 4.3383336 -1.8099939
3.0758398 4.3795347 -1.7956909
2.9679785 4.4506321 -1.7949462
2.8585937 4.5190415 -1.7941902
2.6349804 4.6476707 -1.792642
2.5209472 4.7078199 -1.7918513
2.4055469 4.7651391 -1.7910502
2.0517871 4.9198728 -1.7885895
1.8103417 5.0084119 -1.7869058
1.6881738 5.0482187 -1.7860528
1.5651269 5.0850306 -1.7851928
1.4412695 5.1188278 -1.7843266
1.3167089 5.1495957 -1.7834544
0.93941402 5.2235804 -1.7808083
0.43077147 5.2791724 -1.7772305
0.30311522 5.2853503 -1.7763308
0.17542969 5.2884421 -1.77543
-0.079843745 5.2853732 -1.7736272
-0.33437499 5.2700119 -1.7718266
-0.83899415 5.2027292 -1.768248
-0.9638086 5.1783705 -1.7673609
-1.2112793 5.1207418 -1.7656001
-1.455459 5.0513611 -1.7638596
-1.8143651 4.9256921 -1.761296
-2.1628027 4.7747889 -1.7588003
-2.4990625 4.5995288 -1.7563847
-2.6081445 4.5358629 -1.7555995
-3.4104588 4.334796 -1.85067
-3.578037 4.3286853 -1.8843789
-3.7122655 4.2765841 -1.9001466
-3.8129003 4.1841526 -1.8994143
-4.0073142 3.9923558 -1.8979961
-4.192256 3.7916808 -1.8966427
-4.281045 3.688159 -1.8959912
-4.3673339 3.5825915 -1.895357
-4.5321679 3.3655882 -1.8941418
-4.6106248 3.2542584 -1.8935614
-4.6864352 3.1411328 -1.8929994
-4.7594919 3.0262737 -1.8924563
-4.8297753 2.9097497 -1.8919324
-5.0237403 2.5508342 -1.8904779
-5.0825877 2.4283221 -1.8900332
-5.1385546 2.3044622 -1.8896087
-5.1915426 2.1793396 -1.8892049
-5.2415724 2.0530303 -1.8888217
-5.2885642 1.9255956 -1.8884597
-5.3325291 1.7971088 -1.8881187
-5.3734083 1.6676415 -1.8877994
-5.4112206 1.5372632 -1.8875015
-5.4459472 1.4060456 -1.887225
-5.4775391 1.2740778 -1.8869706
-5.5060153 1.1414038 -1.8867382
-5.5534959 0.87426692 -1.8863394
-5.5724802 0.73995179 -1.8861735
-5.5883007 0.60523802 -1.88603
-5.6009083 0.47019592 -1.8859087
-5.610322 0.33490235 -1.88581
-5.6165428 0.19943054 -1.885734
-5.6195703 0.063865356 -1.8856806
-5.6193652 -0.07174255 -1.8856497
-5.6159863 -0.2073053 -1.8856413
-5.5996189 -0.47800168 -1.8856927
-5.5866113 -0.61299074 -1.8857523
-5.5704393 -0.74763793 -1.8858346
-5.5510936 -0.88187498 -1.8859392
-5.502871 -1.1488 -1.8862163
-5.4740624 -1.2813568 -1.8863882
-5.3276758 -1.8038037 -1.8872976
-5.1857519 -2.1854737 -1.8882089
-5.1324511 -2.3103712 -1.8885553
-5.076211 -2.4340127 -1.8889233
-5.0170212 -2.5563073 -1.8893119
-4.9549608 -2.6771932 -1.8897213
-4.890039 -2.796608 -1.8901514
-4.6784472 -3.1453125 -1.8915623
-4.6024508 -3.2581551 -1.8920721
-4.5237598 -3.3691866 -1.8926013
-4.4424314 -3.4783654 -1.8931495
-4.3585157 -3.5856144 -1.8937163
-4.2720509 -3.6908727 -1.8943019
-4.1830859 -3.7940829 -1.8949054
-4.0916796 -3.8951852 -1.8955266
-3.5994921 -4.3670683 -1.8988894
-3.4943945 -4.4543357 -1.8996108
-3.3872266 -4.539113 -1.9003472
-3.2780175 -4.621345 -1.9010986
-3.1668162 -4.700985 -1.9018649
-2.9387987 -4.8523002 -1.9034387
-2.7036035 -4.992682 -1.9050655
-2.4617674 -5.121799 -1.9067425
-2.3385155 -5.1820288 -1.9075983
-2.2138183 -5.2393222 -1.9084649
-2.0877244 -5.2936411 -1.9093423
-1.9602832 -5.3449531 -1.9102298
-1.4387988 -5.5194931 -1.9138701
-1.1718848 -5.5879216 -1.9157382
-1.0373828 -5.6173391 -1.9166808
-0.90200192 -5.6435289 -1.9176303
-0.76591796 -5.6664681 -1.9185854
-0.62924802 -5.6861429 -1.9195459
-0.49211913 -5.7025342 -1.9205099
-0.3545703 -5.7156272 -1.9214779
-0.078554682 -5.7318769 -1.9234228
0.19833007 -5.7348099 -1.9253769
0.33675781 -5.7312689 -1.9263549
0.61349607 -5.7141519 -1.9283128
1.0265235 -5.6634049 -1.9312408
1.3000097 -5.6129169 -1.9331836
1.7051464 -5.5124035 -1.9360678
1.8385448 -5.4723425 -1.937019
1.970996 -5.429038 -1.9379644
2.1024315 -5.3825169 -1.9389035
2.2327538 -5.3327856 -1.9398353
2.3618944 -5.2798772 -1.9407595
2.6163085 -5.1646338 -1.9425831
2.7414258 -5.1023607 -1.9434812
2.8650486 -5.0370297 -1.9443694
2.9871094 -4.968677 -1.9452474
3.1075096 -4.8973374 -1.9461144
3.5711229 -4.5829434 -1.9494623
3.791162 -4.4089298 -1.9510571
3.8979881 -4.3178887 -1.9518329
4.3975391 -3.8244886 -1.955477
4.490088 -3.7185581 -1.9561553
4.7519727 -3.3873987 -1.9580828
4.8337889 -3.2727673 -1.9586879
5.0622363 -2.9171026 -1.9603851
5.1325097 -2.7948589 -1.9609103
5.1998048 -2.6708961 -1.9614147
5.2640333 -2.5452838 -1.961898
5.3251562 -2.4180999 -1.9623599
5.3831544 -2.2894256 -1.9627999
5.5379686 -1.8952496 -1.9639865
5.6985254 -1.3535913 -1.9652487
5.7302637 -1.2158612 -1.9655054
5.7586327 -1.0773761 -1.9657387
5.7835546 -0.93821776 -1.9659476
5.8376951 -0.51757628 -1.9664298
5.8606153 -0.094005123 -1.9666923
5.861289 0.047429807 -1.9667306
5.8584766 0.18883911 -1.9667443
5.8424315 0.4712097 -1.9666981
5.8124704 0.75245601 -1.9665533
5.792295 0.89242917 -1.9664443
5.6773534 1.4459882 -1.9657642
5.5996094 1.717768 -1.9652799
5.5086131 1.9853179 -1.9647011
5.4582028 2.117301 -1.9643764
5.347744 2.3772826 -1.9636585
5.2877731 2.5051165 -1.9632653
5.2246876 2.6314158 -1.96285
5.0893455 2.8790636 -1.9619534
5.0171485 3.0002873 -1.9614724
4.9420409 3.1196697 -1.9609708
4.8640332 3.2371385 -1.9604477
4.7831836 3.3526244 -1.9599044
4.613193 3.5773754 -1.9587576
4.5241308 3.6865087 -1.9581549
4.4324708 3.7933898 -1.9575331
4.338213 3.8979552 -1.9568925
4.2414746 4.000145 -1.9562337
4.1422753 4.0999022 -1.9555572
4.0407324 4.1971607 -1.9548632
3.9368651 4.2918749 -1.9541525
3.7708201 4.3154273 -1.9228786
3.1174121 4.3517323 -1.7961676
3.0100098 4.4233909 -1.7952365
2.7907617 4.5595932 -1.793721
2.6787889 4.6236057 -1.7929455
2.5653319 4.6848373 -1.7921591
2.3342285 4.79884 -1.7905546
2.0980761 4.9013586 -1.7889118
1.9782813 4.9482431 -1.7880774
1.8574511 4.9921789 -1.7872344
1.2400976 5.1669383 -1.7829176
0.98841792 5.2155738 -1.7811522
0.60769528 5.2654772 -1.7784764
0.48022461 5.2759433 -1.7775789
0.35259765 5.2833228 -1.7766796
0.22491211 5.287611 -1.7757791
0.097216792 5.2888136 -1.7748779
-0.28512695 5.2739453 -1.772175
-0.66483396 5.2315564 -1.7694844
-0.79046875 5.2113657 -1.7685926
-0.91551757 5.1881676 -1.7677041
-1.0399121 5.1619811 -1.7668197
-1.2864159 5.1007385 -1.7650648
-1.6495702 4.9870057 -1.7624741
-1.7685351 4.943368 -1.7616239
-1.8863866 4.8969092 -1.7607806
-2.3451562 4.683557 -1.7574911
-2.4563575 4.6235046 -1.7566918
-2.5660546 4.560842 -1.7559025
-3.032373 4.3478441 -1.7786175
-3.3470702 4.3370566 -1.8381917
-3.512373 4.3311024 -1.871047
-3.6726463 4.3117676 -1.9004347
-3.7741699 4.2202601 -1.8996964
-4.0649705 3.9318347 -1.8975748
-4.5805469 3.2976117 -1.8937842
-4.8028517 2.9550993 -1.8921332
-4.8714552 2.8375823 -1.891621
-4.9372168 2.7185106 -1.8911285
-5.0001364 2.5979431 -1.8906556
-5.0601072 2.4759734 -1.8902032
-5.2707129 1.9751196 -1.8885974
-5.3158298 1.8470312 -1.8882486
-5.3579297 1.7179351 -1.8879205
-5.3969431 1.587901 -1.8876143
-5.4328613 1.4570001 -1.8873295
-5.4953513 1.1928942 -1.8868257
-5.5452733 0.92619258 -1.8864099
-5.5655079 0.79205197 -1.886235
-5.6145115 0.2519452 -1.8857608
-5.6187692 0.11642334 -1.8856986
-5.6176853 -0.15476745 -1.8856417
-5.6037793 -0.42560485 -1.8856757
-5.5920215 -0.56070435 -1.8857266
-5.5589743 -0.82989806 -1.885896
-5.5376658 -0.96384335 -1.8860147
-5.4856153 -1.2300652 -1.8863188
-5.4210057 -1.4935845 -1.8867123
-5.3009081 -1.8825158 -1.8874677
-5.1534667 -2.262104 -1.8884186
-4.9155469 -2.7505023 -1.8899822
-4.7794142 -2.9858651 -1.8908874
-4.6322169 -3.2146313 -1.8918722
-4.5545506 -3.3263748 -1.8923939
-4.3913474 -3.5442839 -1.8934945
-4.3058591 -3.6503232 -1.8940729
-4.2178612 -3.7543368 -1.8946694
-4.1273923 -3.8562593 -1.8952839
-3.8416111 -4.1489434 -1.8972318
-3.6396387 -4.332583 -1.8986143
-3.4290135 -4.5065522 -1.9000598
-3.3205566 -4.5897913 -1.9008058
-2.9835546 -4.823813 -1.9031293
-2.8675096 -4.8964591 -1.9039315
-2.6302147 -5.0334382 -1.9055742
-2.3864648 -5.1590347 -1.9072653
-2.0098145 -5.3254375 -1.9098848
-1.7522265 -5.4212861 -1.9116806
-1.6216699 -5.4645834 -1.9125919
-1.4900585 -5.5047693 -1.9135116
-1.2239063 -5.575665 -1.9153738
-0.95457029 -5.6337619 -1.9172616
-0.5452832 -5.6965714 -1.9201361
0.0061914059 -5.7341928 -1.9240206
0.55994141 -5.718513 -1.9279336
0.83598632 -5.690609 -1.9298892
0.97341794 -5.6716485 -1.9308641
1.9197851 -5.446207 -1.9375988
2.0516307 -5.4009256 -1.9385403
2.1824024 -5.3524299 -1.9394752
2.3120019 -5.3007507 -1.9404024
2.4403906 -5.2459068 -1.9413218
2.5674608 -5.1879296 -1.9422326
2.6931348 -5.1268511 -1.9431344
2.9399998 -4.9955153 -1.9449085
3.0610645 -4.9253297 -1.9457798
3.2979882 -4.776113 -1.9474881
3.4137206 -4.6971674 -1.948324
3.6393847 -4.5308199 -1.9499567
3.7491796 -4.4435039 -1.9507525
3.8568358 -4.3534932 -1.9515338
3.9623144 -4.2608404 -1.9523005
4.065547 -4.165597 -1.953052
4.1664352 -4.067822 -1.9537874
4.2649317 -3.9675758 -1.9545066
4.4545212 -3.7598705 -1.9558945
4.6338377 -3.542984 -1.9572119
4.8024216 -3.3174222 -1.9584556
4.8825488 -3.2015529 -1.9590489
5.0341992 -2.963984 -1.960176
5.1056442 -2.8424289 -1.9607092
5.301836 -2.4675798 -1.9621835
5.417119 -2.2099204 -1.9630586
5.4699903 -2.0790014 -1.9634628
5.5660157 -1.8133837 -1.964204
5.6091013 -1.678847 -1.96454
5.6853223 -1.4067303 -1.9651427
5.7183595 -1.2693176 -1.9654087
5.7480273 -1.1311145 -1.9656509
5.8539157 -0.29010925 -1.9665985
5.8594236 -0.14881347 -1.9666708
5.8614645 -0.0073950193 -1.9667187
5.8599901 0.13403626 -1.9667419
5.8550487 0.27538818 -1.9667407
5.846621 0.41657287 -1.9667147
5.8193555 0.69809628 -1.9665892
5.7782516 0.97791016 -1.9663653
5.7233982 1.2553204 -1.9660439
5.6157126 1.6654315 -1.9653811
5.4781055 2.0663178 -1.964505
5.4257126 2.1975121 -1.9641662
5.3113866 2.4557457 -1.9634204
5.2494922 2.5826483 -1.9630135
5.1845212 2.7079637 -1.9625849
5.1165137 2.8316228 -1.9621339
5.0454688 2.953537 -1.9616613
4.8945994 3.191859 -1.9606527
4.6469822 3.5345044 -1.958986
4.5589452 3.6444933 -1.9583905
4.4682813 3.7522509 -1.9577762
4.1809959 4.0615454 -1.9558215
4.0803709 4.1597824 -1.9551343
3.9773729 4.2554855 -1.9544299
3.8401268 4.3126478 -1.9375595
3.6633983 4.3196778 -1.9004416
3.0517187 4.3957629 -1.7955242
2.8337305 4.5340552 -1.7940183
2.4951172 4.7209616 -1.791672
2.3794043 4.7776451 -1.7908686
2.2624121 4.8314686 -1.7900554
2.1441894 4.8824048 -1.7892329
1.9043652 4.9755087 -1.7875619
1.6605663 5.056766 -1.7858599
1.5373437 5.0928965 -1.7849984
1.4133399 5.1260142 -1.7841309
0.91093749 5.228014 -1.7806083
0.65700191 5.2605968 -1.7788234
0.52960938 5.2722535 -1.7779266
0.40206054 5.2808299 -1.7770282
0.27437499 5.2863145 -1.7761281
0.14666015 5.2887082 -1.7752271
0.019013671 5.2880235 -1.7743257
-0.10850586 5.2842588 -1.7734244
-0.36293945 5.2675195 -1.7716242
-0.61601561 5.2385678 -1.7698306
-0.74182618 5.2195458 -1.7689378
-1.1157324 5.1444788 -1.7662803
-1.6031641 5.0031495 -1.7628055
-1.8408788 4.9152417 -1.7611064
-2.0738866 4.8161435 -1.7594378
-2.1884668 4.7624769 -1.758616
-2.3016698 4.7061119 -1.7578034
-2.5237305 4.5854235 -1.7562071
-2.845 4.3851023 -1.7538915
-3.4476268 4.333457 -1.8580593
-3.8352246 4.1630383 -1.8992517
-4.121748 3.8704736 -1.8971593
-4.300693 3.6645873 -1.8958471
-4.3863964 3.5585687 -1.8952168
-4.4695411 3.4505839 -1.8946041
-4.5500584 3.3406873 -1.8940095
-4.6279297 3.2289507 -1.8934332
-4.8451953 2.8833208 -1.8918173
-4.9120603 2.764848 -1.8913171
-4.9760838 2.644851 -1.8908365
-5.0372167 2.523402 -1.8903762
-5.0954394 2.4005706 -1.8899359
-5.2030663 2.1510277 -1.8891168
-5.2987108 1.8967779 -1.8883811
-5.3419919 1.7680639 -1.888045
-5.3821874 1.6383855 -1.8877304
-5.4193068 1.5078149 -1.8874373
-5.4533396 1.3764203 -1.8871658
-5.5763083 0.70968932 -1.8861392
-5.6033106 0.43978941 -1.8858845
-5.6198044 0.033357542 -1.8856715
-5.6188865 -0.10224609 -1.8856457
-5.5969529 -0.50839537 -1.8857043
-5.5832615 -0.64331478 -1.8857687
-5.5663671 -0.77787536 -1.885856
-5.546289 -0.91200864 -1.8859662
-5.5230565 -1.0456378 -1.8860983
-5.4966698 -1.1786932 -1.886253
-5.4671483 -1.3110956 -1.88643
-5.3987403 -1.5736648 -1.8868504
-5.3179884 -1.8327484 -1.8873591
-5.1200585 -2.3383017 -1.8886362
-5.0631542 -2.4616411 -1.8890088
-4.9406247 -2.704191 -1.8898163
-4.8750587 -2.8232584 -1.8902508
-4.7354879 -3.0566552 -1.8911806
-4.6616015 -3.1708531 -1.8916754
-4.5849705 -3.2832961 -1.8921896
-4.5056934 -3.3939211 -1.8927231
-4.3392773 -3.6094792 -1.8938465
-4.2522655 -3.7142847 -1.894436
-4.162744 -3.8170047 -1.8950436
-4.0707908 -3.9176261 -1.8956689
-3.6794727 -4.29775 -1.8983413
-3.3628416 -4.5578341 -1.900515
-3.2531641 -4.6394849 -1.9012698
-3.1415331 -4.7185392 -1.9020392
-3.0280273 -4.7949371 -1.9028223
-2.6767089 -5.0077801 -1.905252
-2.4341407 -5.1356068 -1.9069341
-1.8025098 -5.4036646 -1.9113299
-1.6723925 -5.4481707 -1.9122378
-1.5412011 -5.4895654 -1.9131542
-1.4089843 -5.5278234 -1.9140786
-1.2758203 -5.5629168 -1.9150103
-1.1417968 -5.5948234 -1.9159489
-0.59844726 -5.6901183 -1.9197623
-0.46121094 -5.7057657 -1.9207274
-0.047353514 -5.7328706 -1.9236429
0.091015622 -5.7352562 -1.9246191
0.22944336 -5.734302 -1.9255967
0.64456052 -5.7113876 -1.9285328
0.92018551 -5.6793942 -1.9304864
1.057373 -5.658391 -1.9314599
1.1943749 -5.6340594 -1.9324328
1.466211 -5.5754509 -1.934366
1.6011523 -5.5412011 -1.9353267
1.7352344 -5.503674 -1.9362823
2.131875 -5.3715959 -1.9391139
2.2619238 -5.3211493 -1.9400439
2.3908007 -5.2675266 -1.9409666
2.7693748 -5.0879302 -1.943682
3.0143456 -4.9528885 -1.9454434
3.2526269 -4.805944 -1.9471607
3.3691015 -4.7281065 -1.9480014
3.4836817 -4.6474147 -1.9488297
3.7068846 -4.477653 -1.9504457
3.9217284 -4.2970471 -1.9520054
4.0258102 -4.2028012 -1.9527626
4.2270603 -4.0067048 -1.95423
4.3240724 -3.904964 -1.9549391
4.5105567 -3.6943958 -1.9563055
4.5999317 -3.5857122 -1.9569623
4.7706151 -3.3617907 -1.9582206
4.8518262 -3.246701 -1.9588214
5.0782909 -2.8897567 -1.960505
5.1479101 -2.767118 -1.9610256
5.4498825 -2.1298811 -1.9633089
5.5484276 -1.8652109 -1.9640673
5.592793 -1.7310995 -1.9644125
5.6338573 -1.5959142 -1.9647346
5.7059469 -1.3226776 -1.9653083
5.7369432 -1.1847717 -1.96556
5.7645311 -1.0461267 -1.9657876
5.788691 -0.90683043 -1.9659915
5.8094139 -0.76696533 -1.9661709
5.8266993 -0.62662292 -1.9663262
5.8404784 -0.48588318 -1.9664571
5.8576856 -0.2035791 -1.9666455
5.861074 -0.0621875 -1.9667032
5.8609567 0.079247437 -1.9667358
5.839736 0.50293881 -1.9666866
5.8257127 0.64367431 -1.966621
5.7038965 1.3396759 -1.9659265
5.6692967 1.4767511 -1.9657147
5.6313376 1.6129144 -1.9654791
5.5900292 1.7480865 -1.9652194
5.5454493 1.8821826 -1.9649366
5.4975586 2.0151172 -1.9646301
5.4464064 2.1468158 -1.9643002
5.3345213 2.4061687 -1.963572
5.2738376 2.5336664 -1.9631737
5.2100587 2.6596081 -1.9627535
5.1432028 2.783916 -1.962311
5.0733399 2.9065125 -1.9618468
5.0005174 3.0273285 -1.9613615
4.924736 3.146286 -1.9608548
4.593379 3.602119 -1.9586236
4.3166795 3.9211535 -1.9567459
4.1196384 4.1220016 -1.9554025
3.9104297 4.3097949 -1.9526191
3.7310741 4.317008 -1.9145297
3.0931835 4.3677354 -1.7958105
2.9856541 4.4392638 -1.7950683
2.8764551 4.50811 -1.7943138
2.6533496 4.6376367 -1.7927694
2.5395899 4.698226 -1.7919805
2.0712206 4.9121594 -1.7887248
1.8301269 5.0016541 -1.7870439
1.7081054 5.0419507 -1.7861922
1.5851855 5.0792527 -1.785333
1.461455 5.1135426 -1.7844677
1.211875 5.1730213 -1.78272
0.95996094 5.2202806 -1.7809527
0.83331054 5.2393026 -1.780063
0.19617186 5.2881479 -1.7755765
0.068496093 5.2886548 -1.7746753
-0.059101563 5.2860827 -1.7737738
-0.44059569 5.259944 -1.7710742
-0.56710935 5.2451267 -1.7701774
-1.1912891 5.1258664 -1.7657424
-1.3139551 5.0931091 -1.7648687
-1.5566015 5.0188622 -1.7631381
-1.6764355 4.977428 -1.762282
-1.7951856 4.9331517 -1.7614332
-1.9127538 4.8860755 -1.760592
-2.5905077 4.5463877 -1.7557265
-2.6983008 4.4805784 -1.7549498
-2.8043456 4.4122424 -1.7541848
-2.9199219 4.3580589 -1.7601471
-3.2227049 4.3414087 -1.8141721
-3.3837597 4.335753 -1.845397
-3.5504198 4.3297071 -1.8787493
-3.796699 4.1993299 -1.8995321
-3.8954394 4.1049476 -1.8988127
-4.0859275 3.9093945 -1.8974214
-4.177588 3.8083227 -1.8967503
-4.3534665 3.5998974 -1.8954591
-4.4376268 3.4926665 -1.8948394
-4.5191698 3.3835082 -1.8942378
-4.5980468 3.272475 -1.8936545
-4.6742773 3.1596417 -1.8930895
-4.7478027 3.0450585 -1.8925433
-5.0138769 2.5706248 -1.890552
-5.3669629 1.688761 -1.8878497
-5.405293 1.5585266 -1.8875483
-5.4405174 1.4274426 -1.8872683
-5.4726267 1.295581 -1.8870105
-5.5016012 1.1630108 -1.8867745
-5.5501075 0.89605713 -1.8863685
-5.585947 0.62715882 -1.8860515
-5.6157422 0.22146118 -1.8857449
-5.6196189 -0.049710691 -1.885653
-5.5732813 -0.725766 -1.8858197
-5.5324411 -0.99390686 -1.8860443
-5.4475193 -1.3918267 -1.8865494
-5.4129686 -1.5230298 -1.886762
-5.290781 -1.9113296 -1.8875324
-5.0855565 -2.4140136 -1.888862
-4.9652438 -2.6576543 -1.8896534
-4.8335056 -2.8954132 -1.890527
-4.7634082 -3.0119374 -1.8909942
-4.2862887 -3.6739006 -1.8942053
-4.1977243 -3.7774518 -1.894806
-4.1066895 -3.8788981 -1.8954247
-3.9174609 -4.0752678 -1.896714
-3.6163573 -4.3526621 -1.8987738
-3.511621 -4.4403272 -1.8994925
-3.2958887 -4.6081567 -1.9009756
-3.1850586 -4.6882081 -1.9017391
-3.0722558 -4.7656436 -1.9025171
-2.9576073 -4.840395 -1.9033086
-2.6031151 -5.0481348 -1.905762
-2.2341797 -5.2302136 -1.9083233
2.6784961 -0.11169311 -0.96719986
2.6673925 -0.046805419 -0.96250361
2.6779687 0.082280271 -0.96662909
2.6691308 0.14653502 -0.96443462
5.3335447 1.0790875 -1.9632498
5.3055077 1.2073535 -1.9630822
5.2743258 1.334884 -1.9628924
5.1621189 1.7122478 -1.9621899
5.1185546 1.8360394 -1.9619119
5.0720019 1.958706 -1.9616125
5.0224414 2.080169 -1.9612913
4.9699121 2.2003589 -1.9609491
4.9144821 2.3192046 -1.960586
4.856123 2.436626 -1.9602016
4.7309275 2.6669312 -1.9593725
4.6641603 2.779671 -1.9589279
4.5224314 2.9999859 -1.9579797
4.4475975 3.1074297 -1.9574771
4.3701563 3.2129748 -1.9569552
4.1228027 3.5176325 -1.9552814
4.0354881 3.614989 -1.9546881
3.7598436 3.893645 -1.9528081
3.663584 3.9818847 -1.9521496
3.4647949 4.1510878 -1.9507864
2.9509082 4.3225303 -1.8882579
2.8038671 4.3278065 -1.8604608
2.5216601 4.337379 -1.8101089
2.3918946 4.3525171 -1.7918141
2.2839746 4.404758 -1.7901062
2.1761718 4.4567184 -1.7893575
1.9569141 4.552628 -1.7878325
1.8456933 4.5965233 -1.7870576
1.7335058 4.6376853 -1.7862753
1.6203905 4.676095 -1.785486
1.2762109 4.7746034 -1.7830795
0.92624998 4.8477235 -1.7806261
0.80865234 4.8664002 -1.7798002
0.69067383 4.8822193 -1.7789711
0.45392576 4.9052563 -1.7773051
0.21654296 4.9168115 -1.775632
-0.020878905 4.9168859 -1.7739558
-0.25780272 4.9055176 -1.7722803
-0.61106443 4.867136 -1.7697773
-0.84437495 4.8274708 -1.7681209
-1.303252 4.7149024 -1.7648544
-1.5277929 4.6423206 -1.7632519
-1.85708 4.5136256 -1.7608966
-2.0708594 4.4149375 -1.759364
-2.3015528 4.3479261 -1.7748893
-2.4354198 4.3439832 -1.7967514
-2.858037 4.3303943 -1.8719393
-3.1166601 4.2599692 -1.9043477
-3.2172852 4.1819324 -1.9036186
-3.3160253 4.1015453 -1.9029025
-3.5074315 3.9339197 -1.9015112
-3.6000683 3.8467834 -1.9008367
-3.6905468 3.7574964 -1.9001766
-3.9487402 3.4772649 -1.8982873
-4.0301952 3.3799126 -1.897689
-4.3320799 2.9722955 -1.8954607
-4.5936427 2.5383568 -1.8935113
-4.652451 2.4262249 -1.8930694
-4.762002 2.197993 -1.8922418
-4.8605566 1.9649267 -1.8914906
-4.9479198 1.7275481 -1.8908175
-4.9873438 1.6073986 -1.8905106
-5.0239258 1.4863726 -1.8902236
-5.0576072 1.3645343 -1.889957
-5.1162791 1.1186755 -1.8894842
-5.141211 0.99479675 -1.8892788
-5.2114453 0.49454162 -1.8886642
-5.2215819 0.36863768 -1.8885626
-5.2322755 -0.13627502 -1.8883673
-5.2196774 -0.38853821 -1.8883963
-5.1951857 -0.63992673 -1.8885095
-5.1784568 -0.7651239 -1.8885977
-5.1106248 -1.1378974 -1.888988
-5.0821385 -1.2609899 -1.8891602
-5.0507421 -1.3833892 -1.8893523
-4.9793162 -1.6258144 -1.8897991
-4.8023243 -2.0993664 -1.8909363
-4.7511325 -2.2150164 -1.89127
-4.6971874 -2.329443 -1.891624
-4.581172 -2.5543673 -1.8923895
-4.4545994 -2.7736273 -1.893231
-4.3874316 -2.8809838 -1.8936797
-4.3177052 -2.9867346 -1.8941468
-4.2454686 -3.0908365 -1.8946321
-4.1707716 -3.1932161 -1.8951352
-3.9322264 -3.4894879 -1.8967489
-3.8480468 -3.5844231 -1.8973205
-3.6729491 -3.7682552 -1.8985132
-3.4891992 -3.9436636 -1.8997686
-3.3941991 -4.0280838 -1.9004192
-3.097285 -4.267601 -1.9024585
-2.9945409 -4.3427005 -1.9031662
-2.8899705 -4.4153605 -1.9038872
-2.4548731 -4.6807055 -1.9068958
-2.3421972 -4.7405157 -1.9076771
-2.2280567 -4.7976389 -1.9084693
-2.1125488 -4.8520432 -1.909272
-1.9957031 -4.9036841 -1.9100846
-1.8776269 -4.9525394 -1.9109067
-1.7583495 -4.9985723 -1.9117378
-1.6379395 -5.0417576 -1.9125776
-1.5164844 -5.0820603 -1.9134254
-1.3940722 -5.1194587 -1.914281
-1.2706933 -5.1539273 -1.9151435
-1.1465039 -5.1854391 -1.916013
-0.76950192 -5.2620306 -1.9186562
-0.64263672 -5.281517 -1.9195474
-0.5152539 -5.2979541 -1.9204428
-0.38745117 -5.3113298 -1.921342
0.12645507 -5.3339868 -1.9249645
0.25522462 -5.3319006 -1.9258742
0.38398436 -5.3267078 -1.9267846
0.51263672 -5.3184009 -1.9276947
0.64111328 -5.3069892 -1.9286047
0.76933593 -5.2924695 -1.9295132
0.89722657 -5.2748442 -1.9304203
1.5291308 -5.1404452 -1.9349134
1.7769629 -5.0653172 -1.9366809
2.021045 -4.9781761 -1.9384249
2.7252245 -4.6465788 -1.9434751
2.8377244 -4.5813794 -1.9442849
3.0579295 -4.4427738 -1.9458724
3.1654882 -4.3694425 -1.9466491
3.2712986 -4.2934809 -1.947414
3.3752246 -4.2149282 -1.9481665
3.4772656 -4.1338353 -1.9489062
3.6753514 -3.9642031 -1.9503452
3.7712696 -3.8757548 -1.9510432
4.0458689 -3.5965285 -1.9530482
4.132822 -3.4990044 -1.9536853
4.2173829 -3.3993487 -1.954306
4.2995019 -3.2976239 -1.9549099
4.5307031 -2.980623 -1.9566174
4.6717091 -2.7600589 -1.9576653
4.8017969 -2.5327272 -1.9586376
4.8626466 -2.4166963 -1.959095
4.9206543 -2.2991843 -1.9595324
5.0771289 -1.9384463 -1.9607228
5.1233497 -1.8157114 -1.9610782
5.2066989 -1.5669558 -1.9617257
5.3086033 -1.1867578 -1.9625354
5.3362989 -1.0584484 -1.9627615
5.3608298 -0.92948669 -1.9629654
5.367197 0.90003419 -1.9634449
5.3435545 1.0291998 -1.9633087
5.3167286 1.1577301 -1.9631498
5.1781445 1.6639892 -1.9622917
5.0903907 1.9113091 -1.961731
5.0419922 2.0332501 -1.9614182
4.9906249 2.1539452 -1.9610842
4.9363084 2.2733142 -1.960729
4.8790722 2.3912976 -1.960353
4.818994 2.5078113 -1.9599566
4.5507421 2.9578557 -1.9581695
4.4004688 3.1723101 -1.9571596
4.3214746 3.2766614 -1.9566265
4.2399607 3.3790216 -1.9560755
4.0696192 3.5775182 -1.9549201
3.8898339 3.7673168 -1.9536959
3.796582 3.8588147 -1.9530593
3.7011328 3.9479747 -1.9524065
3.6035547 4.0347471 -1.9517384
3.4023242 4.200913 -1.950357
3.0090528 4.3203907 -1.8995336
2.7158203 4.3308725 -1.8443201
2.5751855 4.3356214 -1.8193457
2.3254395 4.3839173 -1.7903939
2.1094627 4.4872303 -1.7888937
1.7770996 4.6220617 -1.7865794
1.6643164 4.6615405 -1.7857927
1.5506836 4.6982508 -1.784999
1.4362206 4.7321739 -1.7841989
1.3210351 4.7632971 -1.7833933
1.2051758 4.791604 -1.782582
1.0887305 4.8170776 -1.7817658
0.73643553 4.8764257 -1.7792928
0.49984375 4.9016881 -1.7776284
0.38126951 4.910017 -1.7767934
0.26254883 4.9154687 -1.7759564
0.14381836 4.9180527 -1.7751189
0.025097655 4.9177661 -1.7742807
-0.44810545 4.8880553 -1.7709329
-0.56563473 4.8735275 -1.7700998
-0.79932618 4.83603 -1.7684408
-1.1454102 4.7589173 -1.7659792
-1.3723925 4.6938109 -1.7643613
-1.48458 4.6572189 -1.7635604
-1.8151073 4.5315661 -1.7611972
-1.9230566 4.4844823 -1.760424
-2.0298438 4.4348483 -1.7596582
-2.1353126 4.3826976 -1.7589011
-2.252461 4.3531446 -1.7683445
-2.6583886 4.3370228 -1.8352882
-2.8015039 4.3323059 -1.8613622
-3.2779882 4.1329737 -1.9031786
-3.3754981 4.0511703 -1.9024707
-3.4709864 3.9670982 -1.9017764
-3.564414 3.8808055 -1.9010965
-3.7449024 3.7017651 -1.8997797
-4.0789452 3.319356 -1.8973306
-4.2318163 3.1168628 -1.8962033
-4.3045607 3.0129967 -1.8956649
-4.5076075 2.6916215 -1.8941549
-4.570117 2.5814502 -1.8936877
-4.6871581 2.3568742 -1.8928078
-4.8885155 1.8926623 -1.8912762
-4.9318748 1.7738513 -1.8909417
-5.1319041 1.0428698 -1.8893559
-5.1550293 0.91864985 -1.8891631
-5.1752243 0.7939294 -1.888991
-5.2180176 0.41745847 -1.8885994
-5.2316599 0.16523193 -1.8884432
-5.2339845 0.038951416 -1.8883969
-5.2333298 -0.087343134 -1.8883713
-5.2008691 -0.59131593 -1.8884808
-5.1852927 -0.71665096 -1.8885609
-5.1452928 -0.96608031 -1.8887842
-5.1208787 -1.0900275 -1.888927
-5.0935154 -1.2133709 -1.889091
-5.0632615 -1.3360424 -1.8892754
-4.9940524 -1.57911 -1.8897064
-4.821445 -2.054234 -1.890812
-4.7712889 -2.1703439 -1.8911386
-4.6628027 -2.3988965 -1.8918501
-4.6044922 -2.5112112 -1.892235
-4.5435352 -2.6221402 -1.8926392
-4.4799509 -2.7316132 -1.8930621
-4.2737598 -3.0506964 -1.8944418
-4.2000194 -3.1537485 -1.894938
-4.0451951 -3.3545446 -1.8959832
-3.7953711 -3.6415963 -1.897679
-3.5254686 -3.9103525 -1.8995205
-3.4312596 -3.9956331 -1.9001653
-3.3350096 -4.0786743 -1.9008251
-3.2367675 -4.159431 -1.9014996
-2.8250682 -4.4586363 -1.9043351
-2.4981639 -4.6568112 -1.9065961
-2.2724609 -4.775825 -1.9081609
-2.1574609 -4.8312864 -1.9089599
-1.9235253 -4.9339437 -1.910587
-1.4416211 -5.1053119 -1.9139487
-1.1947168 -5.1735778 -1.9156753
-0.94462889 -5.2299705 -1.9174277
-0.81852537 -5.253664 -1.9183123
-0.56467772 -5.2919474 -1.9200954
-0.43702146 -5.30651 -1.920993
-0.30900389 -5.3180037 -1.9218942
-0.18067382 -5.3264146 -1.9227982
-0.052148435 -5.331737 -1.9237045
0.076552734 -5.3339586 -1.9246124
0.33410156 -5.3290887 -1.9264319
0.46279296 -5.32199 -1.9273422
0.71966797 -5.2984638 -1.9291613
1.7291992 -5.0808177 -1.9363403
1.8521093 -5.0399008 -1.9372177
2.0949707 -4.9491129 -1.9389538
2.2147753 -4.8992906 -1.9398113
2.333369 -4.8465471 -1.940661
2.681211 -4.6710978 -1.9431585
2.905869 -4.5400867 -1.9447757
3.335166 -4.2456741 -1.9478766
3.5387988 -4.0829239 -1.9493526
3.6376073 -3.9978337 -1.9500707
4.0115528 -3.6337378 -1.9527971
4.3485742 -3.2343163 -1.9552712
4.4266405 -3.1293869 -1.9558474
4.5750294 -2.9138291 -1.9569463
4.6452246 -2.8033392 -1.957468
4.7127442 -2.6911347 -1.9579715
4.8985157 -2.3448901 -1.9593652
4.9547458 -2.2264998 -1.9597903
5.0080566 -2.1067498 -1.9601949
5.0584083 -1.9856939 -1.9605793
5.1057911 -1.8634115 -1.9609427
5.1501756 -1.7399805 -1.9612857
5.1915135 -1.6154754 -1.961607
5.3259277 -1.1082464 -1.9626765
5.3517089 -0.97953856 -1.9628891
2.6791601 -0.097153321 -0.96723807
2.6621776 0.16065246 -0.96222198
5.3275194 1.1080066 -1.963214
5.2668748 1.3634595 -1.9628466
5.2318649 1.489975 -1.9626297
5.1937499 1.6155785 -1.9623904
5.1083493 1.8637365 -1.9618462
4.9016013 2.3457513 -1.9605012
4.7161622 2.6924376 -1.9592744
4.5786133 2.9154522 -1.9583563
4.5058203 3.0243213 -1.9578683
4.2718358 3.3396013 -1.9562912
3.8329785 3.8236339 -1.9533077
3.542783 4.086688 -1.9513217
3.3391309 4.2497864 -1.9499228
3.2230175 4.3122754 -1.9423373
2.9174414 4.3237453 -1.8818433
2.6292479 4.3338184 -1.8288258
2.3666992 4.3626795 -1.7906802
2.1516309 4.4680395 -1.789187
1.9319824 4.5627379 -1.7876588
1.8205469 4.6060228 -1.7868823
1.5948144 4.6843543 -1.7853073
1.2501367 4.7809691 -1.7828966
0.78214842 4.8702073 -1.779614
0.66410154 4.8853822 -1.7787843
0.5457617 4.8976927 -1.7779516
0.071103513 4.9182162 -1.7746055
-0.047558594 4.9161754 -1.7737674
-0.16608398 4.9112768 -1.7729295
-0.40243164 4.8929234 -1.7712563
-0.75421876 4.8441696 -1.7687613
-1.1010547 4.7702708 -1.766295
-1.3286816 4.7072754 -1.7646731
-1.5528125 4.6334887 -1.7630732
-1.6634179 4.5926147 -1.7622827
-1.7729492 4.5491199 -1.7614989
-1.9885741 4.4543848 -1.7599542
-2.0945897 4.403203 -1.7591937
-2.2043359 4.3593225 -1.762403
-2.3314061 4.3470654 -1.779678
-2.4659863 4.3430591 -1.80188
-2.603955 4.3387656 -1.8256414
-3.0373633 4.3188062 -1.9049212
-3.2396581 4.1640515 -1.9034563
-3.337949 4.0831432 -1.9027433
-3.5284765 3.9145031 -1.901358
-3.6206055 3.8268809 -1.9006869
-3.8839941 3.5513873 -1.8987619
-3.9672461 3.4555376 -1.8981515
-4.048213 3.3577533 -1.8975567
-4.1267772 3.258106 -1.8969781
-4.3478904 2.9485486 -1.8953435
-4.4165626 2.8420215 -1.8948337
-4.4827051 2.7339172 -1.8943409
-4.5462012 2.6243072 -1.8938665
-4.6070895 2.5132587 -1.8934103
-4.7208204 2.2870374 -1.8925537
-4.8709569 1.9384289 -1.8914109
-4.9154005 1.8200097 -1.8910689
-4.9570408 1.7005901 -1.8907466
-5.1221385 1.0908581 -1.8894362
-5.1464257 0.96685302 -1.8892354
-5.1677442 0.84231502 -1.8890551
-5.2015429 0.59193724 -1.888757
-5.2299414 0.21414672 -1.8884667
-5.2334275 0.087893061 -1.8884122
-5.2314649 -0.16467711 -1.8883661
-5.2259765 -0.29085571 -1.8883749
-5.2175193 -0.41687012 -1.8884046
-5.1742868 -0.79322875 -1.8886204
-5.1044626 -1.1656488 -1.889025
-5.0753222 -1.2885919 -1.8892016
-5.0083494 -1.5322723 -1.8896165
-4.9705567 -1.6528753 -1.8898547
-4.840117 -2.0089302 -1.8906909
-4.7392187 -2.2408674 -1.8913482
-4.5049024 -2.6893682 -1.8928958
-4.4397068 -2.797914 -1.8933303
-4.3016696 -3.0103018 -1.8942544
-3.9958885 -3.4145665 -1.8963171
-3.8287988 -3.6055145 -1.8974514
-3.652705 -3.7884092 -1.8986512
-3.4680078 -3.962847 -1.8999139
-3.372539 -4.0467658 -1.9005679
-3.074326 -4.2847061 -1.9026165
-2.8662207 -4.4313622 -1.9040511
-2.6511621 -4.5680399 -1.9055368
-2.4296679 -4.6943936 -1.9070705
-2.3166504 -4.7536035 -1.9078546
-2.2021973 -4.8101182 -1.908649
-2.0863769 -4.8639002 -1.909454
-1.7313573 -5.0085363 -1.9119259
-1.1184667 -5.1921177 -1.9162093
-0.86746091 -5.2448387 -1.9179689
-0.74101561 -5.2666798 -1.9188565
-0.48652342 -5.3012304 -1.920645
-0.35865232 -5.3139133 -1.9215448
-0.23042968 -5.3235235 -1.9224474
-0.10197265 -5.3300414 -1.923353
0.026669921 -5.3334656 -1.9242604
0.15542969 -5.333787 -1.9251693
0.28419921 -5.3310013 -1.926079
0.79814452 -5.2887707 -1.9297174
0.92593747 -5.2704535 -1.9306242
1.0533398 -5.249032 -1.9315286
1.4322363 -5.1662965 -1.9342233
1.5571679 -5.1326022 -1.9351132
1.6813085 -5.0958662 -1.9359984
1.8046191 -5.0561099 -1.9368784
1.9269531 -5.0133624 -1.9377521
2.0482519 -4.9676294 -1.9386195
2.1684668 -4.9189458 -1.9394798
2.5218847 -4.7554235 -1.9420136
2.7506738 -4.6321459 -1.9436581
2.9733887 -4.4977689 -1.9452624
3.1894531 -4.352582 -1.9468223
3.3983495 -4.1969066 -1.9483341
3.4999609 -4.1152415 -1.9490708
3.6971092 -3.9445045 -1.9505035
3.8858299 -3.7642171 -1.9518784
4.4732032 -3.0641513 -1.9561917
4.5470996 -2.9561684 -1.9567388
4.6183395 -2.8463631 -1.957268
4.7527146 -2.621593 -1.9582701
4.815752 -2.5067589 -1.9587424
4.875957 -2.3903832 -1.9591953
4.9877343 -2.1533043 -1.9600406
5.1333594 -1.7879449 -1.9611553
5.1758399 -1.663847 -1.9614849
5.2516894 -1.4126464 -1.96208
5.3420801 -1.0294818 -1.9628091
2.6730566 0.13624084 -0.96565259
5.3621778 0.92914307 -1.9634165
5.245791 1.4410638 -1.9627163
5.2088962 1.567019 -1.9624857
5.0797753 1.93885 -1.9616625
5.0306931 2.0605125 -1.9613448
4.9236817 2.2999859 -1.9606462
4.8658204 2.417644 -1.9602658
4.805078 2.5338256 -1.9598645
4.6061325 2.8727801 -1.9585403
4.3033495 3.29987 -1.9565043
4.2212696 3.4017773 -1.9559491
4.1367579 3.5016131 -1.955376
4.0498438 3.599309 -1.9547857
3.9605956 3.6948278 -1.9541782
3.7752831 3.879082 -1.9529138
3.6793554 3.9677062 -1.9522576
3.5813282 4.0539331 -1.951586
3.3791895 4.2189794 -1.9501981
2.5440526 4.3366489 -1.8139536
2.1937401 4.4484568 -1.7894796
2.0876465 4.5041699 -1.7911013
1.7518164 4.6311827 -1.7864032
1.6388378 4.6700416 -1.7856146
1.5250098 4.7061291 -1.7848196
1.4103711 4.739419 -1.7840182
1.1790136 4.7975855 -1.7823987
1.0624316 4.822423 -1.7815815
0.82779294 4.8635592 -1.7799348
0.70986325 4.8798447 -1.7791061
0.59165037 4.8932614 -1.7782747
-0.0015917969 4.9173083 -1.7740921
-0.12017578 4.913518 -1.773254
-0.23858398 4.9068651 -1.7724165
-0.35673827 4.8973703 -1.7715802
-0.82549804 4.8311081 -1.768255
-1.1711133 4.7521386 -1.7657961
-1.7306445 4.5662818 -1.7618017
-1.9471387 4.4735336 -1.7602512
-2.0536718 4.4233313 -1.7594873
-2.1588671 4.3706188 -1.7587321
-2.4134569 4.3446445 -1.7930951
-2.5500879 4.3404636 -1.8162433
-2.8342578 4.3312011 -1.8674709
-2.9824023 4.3260813 -1.8957455
-3.1000977 4.2724266 -1.9044675
-3.2010741 4.1947718 -1.9037362
-3.3000879 4.1147718 -1.9030181
-3.3971581 4.0324521 -1.9023132
-3.4921973 3.9478772 -1.9016223
-3.5851464 3.8610938 -1.9009454
-3.6759863 3.7721519 -1.9002829
-3.851084 3.5880077 -1.8990029
-4.0171289 3.3958576 -1.8977849
-4.1737208 3.1961792 -1.8966321
-4.2483888 3.0936456 -1.8960806
-4.3205662 2.9893963 -1.8955462
-4.4573631 2.775996 -1.8945298
-4.6996288 2.3312793 -1.8927139
-4.7534962 2.2167265 -1.8923062
-4.8046188 2.1009624 -1.8919179
-4.8985057 1.8660235 -1.8911991
-4.9811425 1.6269866 -1.8905591
-5.0181642 1.5060961 -1.8902688
-5.0523338 1.3843793 -1.8899988
-5.1373434 1.0149738 -1.8893108
-5.1598339 0.89063293 -1.8891226
-5.1793551 0.76581055 -1.888955
-5.2327733 -0.11575195 -1.8883685
-5.2108688 -0.49393797 -1.8884333
-5.1976171 -0.61954647 -1.8884971
-5.1813769 -0.74480772 -1.888582
-5.0869627 -1.2410308 -1.8891307
-5.0560446 -1.3635418 -1.8893198
-4.9036036 -1.8453939 -1.8902813
-4.7061329 -2.3109305 -1.8915652
-4.6499219 -2.4242806 -1.8919351
-4.5910058 -2.5362914 -1.8923244
-4.5294528 -2.6468985 -1.8927326
-4.3291993 -2.969667 -1.8940698
-4.2573924 -3.0740311 -1.894552
-4.1830759 -3.1766934 -1.8950522
-3.8618944 -3.5691314 -1.8972266
-3.6875098 -3.7536287 -1.8984138
-3.5970409 -3.842757 -1.8990313
-3.5044529 -3.9297314 -1.8996643
-3.4097753 -4.0145121 -1.9003127
-3.313076 -4.0970445 -1.9009756
-3.1138184 -4.2551651 -1.9023449
-2.9070897 -4.4037199 -1.903769
-2.8010547 -4.4743004 -1.9045008
-2.4730566 -4.670733 -1.90677
-2.3606055 -4.7309766 -1.9075494
-2.2466991 -4.7885413 -1.90834
-2.1314063 -4.8433847 -1.9091409
-2.0147851 -4.8954825 -1.9099517
-1.8968945 -4.9447927 -1.9107723
-1.7777929 -4.9912858 -1.9116021
-1.5363085 -5.075706 -1.913287
-1.4140332 -5.1135778 -1.9141412
-1.2908202 -5.1485243 -1.9150031
-1.041875 -5.2095408 -1.916746
-0.91630858 -5.2355671 -1.9176263
-0.28014648 -5.3201666 -1.9220974
0.10551757 -5.3340292 -1.9248168
0.36306641 -5.3277612 -1.9266366
0.49173826 -5.3199615 -1.927547
0.62025392 -5.3090563 -1.9284567
0.74850583 -5.2950377 -1.9293655
0.87646484 -5.2779193 -1.9302731
1.0040234 -5.257699 -1.9311782
1.1311231 -5.2343922 -1.9320812
1.2576953 -5.2080002 -1.932981
1.3836035 -5.1785374 -1.9338769
1.5088476 -5.146019 -1.9347689
1.6333106 -5.1104593 -1.9356561
1.7569433 -5.0718708 -1.9365381
1.8796581 -5.030282 -1.9374144
2.0013671 -4.9857035 -1.9382843
2.3598633 -4.8342857 -1.9408511
2.9307129 -4.5246611 -1.9449548
3.0402734 -4.4544415 -1.9457449
3.1481445 -4.3815427 -1.9465239
3.2542088 -4.306005 -1.9472907
3.3584666 -4.2278714 -1.9480453
3.4608104 -4.1471858 -1.9487869
3.6595507 -3.9783456 -1.95023
4.0315037 -3.6121745 -1.9529431
4.2863278 -3.3142943 -1.9548129
4.3663573 -3.2108781 -1.9554025
4.4438572 -3.1055026 -1.9559747
4.5187793 -2.9982281 -1.956529
4.7916598 -2.5514445 -1.9585617
4.8529587 -2.4356616 -1.9590219
4.9669919 -2.1996768 -1.9598831
5.0196385 -2.079618 -1.9602833
5.0693455 -1.9582778 -1.9606631
5.1597462 -1.7120618 -1.9613599
5.2724414 -1.3349884 -1.962245
5.3037987 -1.2075415 -1.9624966
5.35708 -0.95048153 -1.9629338
2.6779981 -0.082557984 -0.96664137
2.678535 0.11141907 -0.96720928
5.3476171 1.0082452 -1.9633325
5.2918653 1.2648364 -1.9629997
5.2592673 1.3920081 -1.9627998
5.1847558 1.6437018 -1.9623337
5.0979881 1.8913757 -1.9617797
5.0500779 2.0135119 -1.9614706
4.7012305 2.7178607 -1.9591751
4.4890723 3.048562 -1.9577558
4.3344727 3.2598352 -1.9567144
4.2533789 3.3625281 -1.9561664
4.169785 3.4631743 -1.9556003
4.0837989 3.561712 -1.9550165
3.9954588 3.6580749 -1.9544158
3.8118846 3.8441014 -1.9531639
3.7167969 3.933645 -1.9525137
3.5202637 4.1055384 -1.9511672
3.4189551 4.1877842 -1.9504714
3.3157225 4.2675061 -1.9497615
3.1876757 4.3136401 -1.9351269
2.8842187 4.3249464 -1.8755239
2.7390625 4.3300705 -1.8485407
2.4624219 4.3433423 -1.8013331
2.2355859 4.4284692 -1.7897704
2.0176368 4.5273252 -1.7882551
1.9069922 4.5727148 -1.7874846
1.7953417 4.615387 -1.7867064
1.4548632 4.7268505 -1.7843293
1.107666 4.8131361 -1.7818986
0.87338865 4.8564792 -1.780255
0.75560546 4.8738708 -1.7794276
0.63748044 4.8884034 -1.7785971
0.4005664 4.9088583 -1.7769293
0.16310546 4.9178271 -1.7752551
-0.074238278 4.9153233 -1.7735788
-0.19271484 4.9097824 -1.7727411
-0.31098631 4.9013853 -1.771904
-0.54656249 4.8760791 -1.7702349
-0.66375977 4.8591905 -1.7694033
-1.012041 4.7917433 -1.7669286
-1.2408692 4.7329736 -1.7652991
-1.354082 4.6995091 -1.764492
-1.4664062 4.6633482 -1.7636904
-1.6881444 4.5830564 -1.7621057
-1.7974316 4.5389743 -1.7613238
-2.0126073 4.4430871 -1.7597817
-2.1182518 4.3913403 -1.7590237
-2.2320507 4.3557544 -1.7658349
-2.3613963 4.3461866 -1.7845395
-2.4967382 4.3421178 -1.8070853
-2.6354883 4.33776 -1.8312113
-2.9244726 4.3281054 -1.8845669
-3.1621678 4.2251463 -1.9040179
-3.3597753 4.0646214 -1.9025848
-3.455615 3.9809179 -1.9018884
-3.5493944 3.8949804 -1.901206
-3.7305467 3.7166319 -1.8998845
-3.8178711 3.6243248 -1.8992462
-3.9856737 3.4336932 -1.898016
-4.1441212 3.2354405 -1.8968506
-4.3635545 2.9247265 -1.8952273
-4.4316502 2.8178387 -1.8947214
-4.4972167 2.7093902 -1.8942326
-4.5601463 2.5994482 -1.8937621
-4.6204295 2.4880652 -1.8933102
-4.6780372 2.3753166 -1.8928765
-4.7851267 2.1459618 -1.8920661
-4.8345604 2.0294781 -1.8916895
-4.9660058 1.6735967 -1.8906769
-5.071826 1.3094543 -1.8898433
-5.1012888 1.1865612 -1.8896061
-5.1514745 0.93887693 -1.8891931
-5.1898727 0.6891461 -1.8888626
-5.2251658 0.31191102 -1.8885238
-5.2309766 0.18574157 -1.8884529
-5.2337985 0.059480589 -1.8884029
-5.2152052 -0.44518736 -1.8884143
-5.0981736 -1.1933666 -1.8890628
-5.0356736 -1.4382123 -1.8894459
-4.920361 -1.7993581 -1.8901743
-4.8762403 -1.9178412 -1.8904574
-4.7796388 -2.1515479 -1.891084
-4.7271872 -2.2666602 -1.8914269
-4.6141505 -2.4930491 -1.8921713
-4.5536132 -2.6042078 -1.8925723
-4.490449 -2.7139215 -1.8929923
-4.4246778 -2.8221307 -1.8934307
-4.3563671 -2.9287734 -1.8938876
-4.2121582 -3.137115 -1.8948562
-4.1363673 -3.2387073 -1.895367
-4.0581446 -3.3384993 -1.8958958
-3.9775391 -3.4364309 -1.8964416
-3.6323631 -3.8084676 -1.8987902
-3.4467089 -3.9819221 -1.9000596
-3.350791 -4.0653343 -1.900717
-3.1530273 -4.2252626 -1.9020752
-3.0512793 -4.3016934 -1.9027752
-2.8423533 -4.4472456 -1.9042158
-2.4043651 -4.7079453 -1.907246
-2.17625 -4.8224568 -1.9088293
-2.0601172 -4.8756237 -1.9096365
-1.9427246 -4.926013 -1.9104533
-1.5834179 -5.0602508 -1.9129581
-1.3386718 -5.1353326 -1.9146682
-1.2149218 -5.1684742 -1.915534
-1.0903516 -5.1986485 -1.9164062
-0.45778319 -5.3043537 -1.9208468
-0.20157225 -5.3252568 -1.9226511
-0.073046871 -5.3310819 -1.9235569
0.055624999 -5.3338065 -1.9244647
0.18438476 -5.3334303 -1.9253738
0.44189453 -5.3233533 -1.9271941
0.69883788 -5.3008385 -1.9290136
1.0819336 -5.2437897 -1.9317317
1.3348827 -5.1903167 -1.9335302
1.7091405 -5.087182 -1.9361968
1.8322363 -5.0467539 -1.9370755
2.1953516 -4.9075952 -1.9396722
2.3141601 -4.8553257 -1.9405234
2.4316797 -4.800159 -1.9413662
2.5479004 -4.742125 -1.9422004
2.7760351 -4.6175852 -1.9438406
2.8878319 -4.5511436 -1.9446456
2.9980175 -4.4819746 -1.9454401
3.1065526 -4.410109 -1.9462234
3.2133203 -4.3355885 -1.9469949
3.3182812 -4.2584558 -1.9477541
3.4213769 -4.1787519 -1.948501
3.7187793 -3.9246941 -1.9506609
3.8137403 -3.8351822 -1.9513528
3.9064941 -3.7433617 -1.9520293
3.997041 -3.6492555 -1.9526908
4.0852928 -3.5529263 -1.953337
4.1711521 -3.4544322 -1.9539665
4.2546287 -3.3538363 -1.9545796
4.4900389 -3.0400271 -1.9563162
4.5633593 -2.9316199 -1.9568597
4.6340036 -2.821419 -1.9573846
4.7671385 -2.5958941 -1.958378
4.8295312 -2.48071 -1.958846
5.0504293 -2.0054462 -1.9605181
5.1431642 -1.7601303 -1.9612314
5.1849899 -1.6357958 -1.9615561
5.2237692 -1.510448 -1.9618597
5.2594237 -1.3841674 -1.9621414
5.3214355 -1.1291174 -1.9626399
2.6558204 -0.17100342 -0.96016407
2.6673827 0.15047362 -0.96388251
5.3569727 0.95821226 -1.9633865
5.3318849 1.087105 -1.96324
5.3036423 1.2153308 -1.9630711
5.2722754 1.3428124 -1.9628799
5.2377539 1.4694707 -1.9626663
5.2001562 1.5952288 -1.9624307
5.1157517 1.8437304 -1.9618937
5.068984 1.9663244 -1.961593
5.019238 2.0877123 -1.9612705
4.9665427 2.2078235 -1.9609269
4.9109278 2.3265808 -1.9605626
4.8523927 2.4439135 -1.9601771
4.7910252 2.5597515 -1.9597714
4.6598926 2.7866423 -1.9588995
4.5178418 3.0067389 -1.957949
4.2851171 3.3229644 -1.9563812
4.2024708 3.4244072 -1.9558216
4.1174121 3.5237725 -1.9552447
4.0299802 3.6209898 -1.9546505
3.8481445 3.808773 -1.9534115
3.5589843 4.0729957 -1.9514327
3.458457 4.1562095 -1.9507427
2.9416211 4.3228683 -1.8864715
2.7948339 4.3281236 -1.8587884
2.5131152 4.3376575 -1.8086448
2.3841014 4.3535361 -1.7907562
2.2772851 4.4080772 -1.7900598
1.7264745 4.6401658 -1.7862263
1.6132812 4.678401 -1.7854362
1.1528418 4.8034201 -1.7822152
1.0361328 4.8276172 -1.7813971
0.80130857 4.8674717 -1.7797487
0.56503904 4.8958836 -1.7780874
0.32787108 4.9128232 -1.776417
0.09040039 4.9182787 -1.7747418
-0.26519531 4.9049792 -1.772228
-0.38328123 4.894845 -1.7713922
-0.50102538 4.8818688 -1.7705576
-0.61838865 4.8660693 -1.7697254
-0.73526365 4.847456 -1.7688959
-0.96737301 4.8018613 -1.7672464
-1.1967578 4.7452197 -1.7656136
-1.645498 4.5994396 -1.7624106
-1.7552246 4.5563693 -1.7616258
-1.8638281 4.5106993 -1.7608484
-1.9713184 4.4624643 -1.760078
-2.0774415 4.4116931 -1.7593167
-2.8671973 4.3300781 -1.8736703
-3.0163574 4.3248816 -1.9023675
-3.1229882 4.2551637 -1.9043018
-3.2235155 4.1769776 -1.9035734
-3.3220994 4.0964584 -1.9028585
-3.4187109 4.013629 -1.9021566
-3.5132811 3.9285545 -1.9014688
-3.6961131 3.7518566 -1.9001361
-3.8702245 3.5667901 -1.8988628
-4.190742 3.173264 -1.8965067
-4.2648535 3.0703442 -1.8959588
-4.3364649 2.965714 -1.8954284
-4.4055762 2.8594475 -1.8949155
-4.5360641 2.6422248 -1.8939425
-4.7119727 2.3056293 -1.8926204
-4.8157225 2.0747669 -1.8918333
-4.8634372 1.9575878 -1.8914684
-4.9083691 1.8393396 -1.8911232
-4.989707 1.5998749 -1.8904921
-5.0261035 1.4787921 -1.8902065
-5.0596189 1.3569019 -1.8899407
-5.0902243 1.2342694 -1.8896956
-5.1644821 0.86259091 -1.889083
-5.1833591 0.7376672 -1.8889202
-5.1992283 0.61234188 -1.8887783
-5.2121582 0.48668274 -1.888657
-5.2221189 0.36076415 -1.8885571
-5.2340527 -0.017863769 -1.8883828
-5.2270603 -0.27034241 -1.8883722
-5.2191014 -0.39638853 -1.8883984
-5.1942091 -0.64774901 -1.8885145
-5.1089258 -1.1456017 -1.888998
-5.0802636 -1.2686511 -1.8891714
-5.0486817 -1.391004 -1.8893652
-4.9769044 -1.6333297 -1.8898144
-4.8936815 -1.8720502 -1.8903452
-4.7992282 -2.1066108 -1.8909564
-4.7478418 -2.2221835 -1.8912917
-4.6937208 -2.3365352 -1.8916467
-4.6369138 -2.4495876 -1.8920208
-4.5773926 -2.56129 -1.8924145
-4.4504881 -2.7803719 -1.8932583
-4.3831348 -2.88763 -1.8937085
-4.3132715 -2.9932842 -1.8941766
-4.2408786 -3.0972753 -1.8946631
-4.1660156 -3.1995523 -1.8951672
-4.0090528 -3.398705 -1.896228
-3.9270215 -3.495471 -1.8967842
-3.842705 -3.5902896 -1.8973569
-3.5763867 -3.8625133 -1.8991723
-3.2910547 -4.1152897 -1.9011266
-3.0909178 -4.2723651 -1.9025024
-2.9880567 -4.3473048 -1.9032108
-2.8834081 -4.4198084 -1.9039325
-2.6688964 -4.5573096 -1.9054143
-2.5591795 -4.622221 -1.9061733
-2.4479003 -4.6845169 -1.9069443
-2.3351171 -4.7441587 -1.9077264
-2.2208886 -4.801115 -1.9085193
-2.1052833 -4.8553448 -1.9093225
-1.9883593 -4.9068179 -1.9101357
-1.8701855 -4.9554968 -1.9109585
-1.7508594 -5.0013537 -1.9117901
-1.6304003 -5.0443573 -1.9126303
-1.386377 -5.1216998 -1.9143347
-1.262959 -5.1559815 -1.9151977
-1.1387109 -5.1873078 -1.9160675
-0.88796872 -5.2410007 -1.917825
-0.63467771 -5.2826328 -1.9196032
-0.50728512 -5.2988787 -1.920499
-0.37946287 -5.3120618 -1.9213983
-0.25129882 -5.3221707 -1.9223006
-0.12287109 -5.3291922 -1.9232055
0.13449219 -5.3339453 -1.9250213
0.263291 -5.331666 -1.9259313
0.39203125 -5.3262773 -1.9268414
0.52066404 -5.3177772 -1.9277515
0.64913082 -5.3061709 -1.9286615
1.1596386 -5.2287183 -1.9322839
1.2860742 -5.201633 -1.933183
1.5369042 -5.1382847 -1.9349688
1.6612011 -5.1020451 -1.9358549
2.0285938 -4.9752655 -1.9384789
2.1490135 -4.9270573 -1.9393405
2.7322948 -4.6425843 -1.9435259
2.844707 -4.5772119 -1.9443351
2.9555273 -4.5090947 -1.9451336
3.8708203 -3.7792146 -1.9517691
3.9622264 -3.6859808 -1.9524364
4.0513573 -3.5905037 -1.9530883
4.3045506 -3.2912033 -1.9549469
4.4609375 -3.0815322 -1.9561011
4.5352736 -2.9738369 -1.9566512
4.6069531 -2.8643219 -1.9571834
4.6759567 -2.7530541 -1.9576969
4.7422071 -2.6400962 -1.9581915
4.8056836 -2.5255213 -1.9586669
4.8663573 -2.4094162 -1.9591229
5.2091017 -1.5591251 -1.9617447
5.2797461 -1.3063842 -1.9623033
5.3622751 -0.92140621 -1.9629774
2.6742187 -0.13253051 -0.96600384
2.675 -0.067938842 -0.96541196
2.6729393 0.061139524 -0.96461225
5.3419724 1.037243 -1.9632995
5.2847948 1.2935169 -1.9629567
5.2515039 1.4205011 -1.9627517
5.2150974 1.546618 -1.9625247
5.1755958 1.6717858 -1.9622755
5.087451 1.9189667 -1.961712
4.9873242 2.1614239 -1.9610628
4.9328222 2.2807136 -1.9607061
4.8754296 2.3986101 -1.9603289
4.7520409 2.6299219 -1.9595129
4.686162 2.7432013 -1.9590746
4.6175389 2.8548028 -1.9586166
4.5461817 2.9646623 -1.9581389
3.9752538 3.6794603 -1.9542781
3.8840625 3.7731078 -1.9536566
3.5973926 4.0400767 -1.9516962
3.4976659 4.1242528 -1.9510119
3.3958983 4.205936 -1.9503131
2.9996483 4.3207383 -1.8976974
2.7069433 4.3311777 -1.8427122
2.3187695 4.387301 -1.7903478
2.2113085 4.4401221 -1.7896017
2.1026268 4.4902878 -1.7888464
1.9928515 4.5377746 -1.7880826
1.8819629 4.5825572 -1.7873102
1.7700878 4.6246104 -1.7865304
1.1979296 4.7932739 -1.7825311
1.0814258 4.8185754 -1.7817148
0.96441406 4.8410349 -1.7808939
0.84692383 4.860642 -1.7800691
0.72907227 4.877389 -1.779241
0.61086911 4.8912768 -1.7784098
0.49247068 4.9022937 -1.7775766
0.017695311 4.9176526 -1.7742285
-0.33756834 4.8991065 -1.771716
-0.69001949 4.8550048 -1.769217
-1.0379101 4.7856836 -1.7667445
-1.1525488 4.7570481 -1.7659283
-1.3794335 4.6916065 -1.7643108
-1.7128417 4.5733652 -1.7619292
-2.1418555 4.379354 -1.7588542
-2.2602637 4.3521347 -1.7693157
-2.391582 4.345294 -1.7894816
-2.6672266 4.3367372 -1.8368684
-2.9580176 4.3269372 -1.8910204
-3.0835352 4.2848301 -1.9045874
-3.1847754 4.2075648 -1.9038544
-3.2841406 4.127933 -1.9031337
-3.3815331 4.0459876 -1.9024268
-3.661377 3.7867553 -1.9003897
-3.7503905 3.6960423 -1.8997396
-3.8372068 3.6032739 -1.8991046
-4.0838671 3.313139 -1.8972943
-4.3090134 3.0064478 -1.895632
-4.4466209 2.7935863 -1.8946098
-4.7449217 2.2354352 -1.8923712
-4.796494 2.1198547 -1.8919798
-4.8913083 1.8852758 -1.8912545
-4.9345016 1.7663995 -1.8909212
-5.0469728 1.4042193 -1.8900414
-5.078701 1.281867 -1.8897882
-5.1075196 1.1588092 -1.8895556
-5.1563864 0.91086787 -1.8891516
-5.1763964 0.78611815 -1.8889806
-5.2186131 0.4095996 -1.8885932
-5.2318845 0.1573523 -1.8884398
-5.2340426 0.031068115 -1.8883945
-5.2331738 -0.095226437 -1.8883706
-5.2225389 -0.34757811 -1.8883855
-5.2127342 -0.4734973 -1.888425
-5.1192479 -1.0977563 -1.8889368
-4.9917088 -1.586633 -1.889721
-4.8183885 -2.061516 -1.8908318
-4.7150097 -2.2923806 -1.8915068
-4.6592283 -2.4059479 -1.8918737
-4.6007614 -2.5181808 -1.8922598
-4.5396385 -2.6290169 -1.892665
-4.3406444 -2.952544 -1.8939929
-4.2692184 -3.0571871 -1.8944724
-4.1189747 -3.2613254 -1.8954846
-3.7899706 -3.6473706 -1.8977157
-3.7020116 -3.7389333 -1.8983148
-3.6119041 -3.8284056 -1.8989297
-3.5196483 -3.9157391 -1.8995605
-3.2305858 -4.1643925 -1.9015421
-3.1303027 -4.2426682 -1.9022316
-3.028125 -4.3185563 -1.9029348
-2.9241502 -4.3920135 -1.9036514
