# .PCD v0.7 - Point Cloud Data file format
VERSION 0.7
FIELDS x y z
SIZE 4 4 4
TYPE F F F
COUNT 1 1 1
WIDTH 1469
HEIGHT 1
VIEWPOINT 0 0 0 1 0 0 0
POINTS 1469
DATA ascii
-1.9328711 6.354609 0.09349411
-2.1018944 6.3551707 0.094221875
-2.6265526 6.356914 0.096818238
-2.8082714 6.3575196 0.097831346
-4.4379883 6.3629403 0.10919853
-4.6707911 6.3637147 0.11111488
-4.9120603 6.3645191 0.11316658
-6.6042967 6.3871703 0.12932678
18.093027 -21.757769 -0.23898308
19.948555 -21.761311 -0.24931358
23.851181 6.2746592 -0.20828575
21.732246 6.2817111 -0.19104843
18.387764 6.2911057 -0.16412956
15.867568 6.2994909 -0.14418167
11.610596 6.321754 -0.11164657
10.975215 6.3238668 -0.10697342
9.3452826 6.3269601 -0.095309295
8.0320215 6.3313293 -0.086372301
6.6120896 6.3360519 -0.077340543
6.3014355 6.3370838 -0.075473785
5.7222657 6.3390112 -0.072120972
4.8760056 6.2580347 -0.066999815
4.2478027 6.3510971 -0.064527892
4.0299025 6.3518224 -0.063527524
3.2184863 6.3545189 -0.060155027
2.4823534 6.3569651 -0.05763359
2.3073633 6.3575473 -0.057118069
2.1353807 6.3581185 -0.056643292
1.9661328 6.3586817 -0.056209028
1.6348144 6.3597813 -0.055456009
1.3115332 6.360857 -0.054848328
1.1523535 6.3613839 -0.054597549
0.99453121 6.361908 -0.05437988
0.8378613 6.3624291 -0.054195937
0.68215817 6.3629465 -0.054043427
0.37291014 6.3639722 -0.05383667
0.065322265 6.3649936 -0.053756025
-0.088320307 6.3655052 -0.05376251
-0.23823242 6.2650609 -0.052948609
-0.69664061 6.2837338 -0.053393476
-0.85969722 6.350914 -0.05412361
-1.1743652 6.3519592 -0.054552916
-2.5086327 6.3563867 -0.057710189
-2.8709471 6.3575878 -0.058911741
-3.2495897 6.3588428 -0.060307235
-3.4459472 6.3594947 -0.06108528
-4.5162306 6.3630443 -0.065896146
-4.9961033 6.364635 -0.068333432
-5.4560938 6.299387 -0.070383683
-5.7132225 6.2832212 -0.071720503
-6.713994 6.3873487 -0.078260802
-7.0482125 6.3884559 -0.080336072
-7.4008493 6.3896251 -0.082573548
-8.5908785 6.393569 -0.090439148
-10.039883 6.3983703 -0.10054275
-11.043974 6.310492 -0.10741524
-11.850351 6.3969541 -0.11373047
-13.36497 6.4019737 -0.12515129
-20.621269 6.4220057 -0.18240264
-22.564306 6.4340587 -0.19815704
-9.1839447 -7.9220915 -0.1024292
-15.884716 -22.359789 -0.23163581
-11.756533 -21.674189 -0.20823959
-10.436816 -21.675751 -0.20317322
-7.3807812 -21.685156 -0.19345565
-4.5643649 -21.692577 -0.18721199
-3.4813867 -21.694527 -0.18556839
-2.4150879 -21.69821 -0.1843808
-1.8863866 -21.700308 -0.18395568
-0.83475584 -21.704477 -0.1834362
-0.31055662 -21.706556 -0.18333755
0.73748046 -21.706909 -0.18342811
1.2625977 -21.707981 -0.18363738
1.7892187 -21.709055 -0.18396041
2.8496583 -21.712105 -0.18493584
3.9238575 -21.714569 -0.1863562
6.1375098 -21.72677 -0.1906697
7.8775487 -21.734575 -0.19523795
8.4774408 -21.737268 -0.19705147
9.0845604 -21.729774 -0.19890548
11.663955 -21.735264 -0.20832321
12.351259 -21.739824 -0.2111612
13.056699 -21.74247 -0.21418601
13.783037 -21.745195 -0.21742919
14.532138 -21.748003 -0.22089942
16.102852 -21.748486 -0.22854003
18.692646 -21.758915 -0.2422605
19.626474 -21.760698 -0.24748176
20.602051 -21.762558 -0.2530593
24.649637 6.2720032 -0.2148091
17.475889 6.2941394 -0.15686981
16.246279 6.2982297 -0.14715378
11.836143 6.3210034 -0.11332115
9.8909473 6.2413549 -0.098771892
9.5092573 6.3264146 -0.096457444
9.0311813 6.3280039 -0.093129955
8.5847654 6.3294921 -0.090075225
8.1664352 6.3308825 -0.087264635
7.4024801 6.3334241 -0.082274705
7.0519724 6.3345885 -0.080055617
6.4038672 6.3367443 -0.076083295
6.1029978 6.3377442 -0.074305497
5.8157129 6.3386998 -0.072648771
5.5408106 6.3396139 -0.071106412
5.2771678 6.3404908 -0.069666363
4.9633203 6.2649279 -0.067501903
4.4848828 6.2593346 -0.065031968
4.3223829 6.3508496 -0.064878389
4.1021681 6.3515806 -0.063854747
3.8886523 6.3522925 -0.062900849
3.4796484 6.353652 -0.061176907
3.2832031 6.3543038 -0.06040306
3.0915723 6.3549414 -0.059682388
2.7211816 6.356173 -0.058390882
2.5417187 6.3567686 -0.05781639
2.3656542 6.3573532 -0.057285309
2.1926954 6.3579283 -0.056798019
1.6897362 6.3595996 -0.055571213
1.0472754 6.3617334 -0.054449156
0.42456055 6.363801 -0.053862531
0.27053711 6.3643136 -0.053795621
0.11680664 6.3648243 -0.053760681
-0.33900389 6.2653952 -0.05298996
-0.49094725 6.2658997 -0.053078763
-0.79894531 6.2840734 -0.053497009
-0.96375972 6.3512597 -0.054251935
-1.121289 6.3517823 -0.054471128
-1.4406445 6.3528419 -0.055013273
-1.7671973 6.3539243 -0.05569702
-2.2745311 6.3556089 -0.057008591
-2.449326 6.3561878 -0.057526931
-2.6274512 6.3567796 -0.058089599
-2.8091795 6.3573828 -0.058696974
-2.994873 6.3579993 -0.059352949
-3.1848826 6.3586292 -0.060059052
-3.7847459 6.3606176 -0.062507324
-3.9961035 6.3613195 -0.063443527
-4.4391017 6.3627877 -0.065520778
-4.9132223 6.3643603 -0.067901991
-5.1637692 6.3651915 -0.069220349
-5.424365 6.366056 -0.070632704
-6.2934375 6.3859534 -0.075719066
-6.934248 6.3880787 -0.079623714
-7.2805176 6.3892245 -0.081804961
-8.4467382 6.3930907 -0.089464262
-9.8620605 6.3977818 -0.099279322
-10.406582 6.3995862 -0.10317398
-10.838359 6.3098092 -0.10591255
-11.623086 6.3961997 -0.1120433
-13.090282 6.401063 -0.12306175
-13.938691 6.4038744 -0.12954536
-15.925644 6.4052343 -0.14497185
-17.120819 6.4104075 -0.15439506
-14.958769 -21.788696 -0.22320259
-14.115147 -21.66227 -0.21835494
-11.984277 -21.673918 -0.2091587
-11.310547 -21.674717 -0.20647301
-10.653496 -21.675493 -0.20397361
-10.011836 -21.676254 -0.20164581
-9.3842773 -21.676996 -0.19949402
-8.1690331 -21.684109 -0.19569053
-7.5769334 -21.684895 -0.19399254
-6.9947457 -21.685669 -0.19243118
-6.421494 -21.68643 -0.19100448
-5.8571286 -21.690254 -0.1897409
-4.7478318 -21.692245 -0.18753394
-0.75934571 -7.9859467 -0.067747042
-1.0105761 -21.703781 -0.18349288
1.0865039 -21.707623 -0.1835556
1.6125097 -21.708696 -0.18384086
2.140537 -21.70977 -0.1842356
2.6710839 -21.710854 -0.18473999
3.7426856 -21.714153 -0.18608543
4.2849317 -21.715397 -0.18692932
5.9479589 -21.725918 -0.1902346
7.6789355 -21.733686 -0.1946656
8.2751656 -21.736359 -0.19641761
9.4974117 -21.730654 -0.20028503
10.775996 -21.733374 -0.20486709
11.438272 -21.734785 -0.20742089
12.119238 -21.738955 -0.21019486
12.818056 -21.741573 -0.21314834
13.537188 -21.744272 -0.21631767
14.278457 -21.747051 -0.21971405
15.041855 -21.747063 -0.2233104
16.650303 -21.749218 -0.23132232
17.499619 -21.750357 -0.23577392
7.7729492 -7.9512529 -0.093907699
24.856953 -8.0731335 -0.22072135
25.388075 6.2417221 -0.22079284
23.111298 6.2771215 -0.20225623
15.304863 6.2175732 -0.13951148
12.806689 6.3177743 -0.12060119
9.1876755 6.3274851 -0.094213024
8.7310839 6.3290024 -0.091070481
7.9023533 6.3317599 -0.085518338
7.5243554 6.3330173 -0.083057709
7.1673045 6.3342052 -0.080780104
6.829082 6.3353295 -0.078668289
6.5079393 6.3363986 -0.076709591
5.9105563 6.3383837 -0.073191829
5.6316113 6.3393126 -0.071610563
5.046113 6.2646532 -0.067936473
4.5617771 6.2590795 -0.065410763
4.3977733 6.3505993 -0.065236665
4.1751857 6.3513403 -0.0641893
3.9594922 6.352057 -0.063212663
3.5466113 6.3534288 -0.061450422
3.1552734 6.3547301 -0.059918515
2.9666111 6.3553562 -0.059231263
2.782119 6.355969 -0.058593672
2.2503319 6.3577366 -0.056956861
2.0792675 6.3583055 -0.056495667
1.9108789 6.3588648 -0.056073606
1.7448633 6.3594151 -0.055691224
1.100166 6.3615575 -0.054522399
0.94273436 6.3620811 -0.054316178
0.78641599 6.3625998 -0.054141693
0.63099611 6.3631177 -0.05400116
0.47628906 6.3636303 -0.053892668
0.014658202 6.3651624 -0.053755034
-0.13902344 6.3656735 -0.05377182
-0.74734372 6.2839026 -0.053442381
-1.0683594 6.3516064 -0.054394454
-1.3866796 6.3526621 -0.054913025
-1.5483203 6.3532004 -0.055224076
-1.8776562 6.3542919 -0.055957105
-2.04583 6.3548498 -0.056380615
-2.2166502 6.3554173 -0.056843717
-2.3904004 6.3559937 -0.057348937
-2.567373 6.3565807 -0.05789642
-2.7478709 6.3571787 -0.05848892
-3.3137987 6.359055 -0.060557861
-4.3628516 6.362534 -0.065151446
-4.8313866 6.364089 -0.067480162
-5.8055272 6.2835288 -0.07224869
-6.1920996 6.3856177 -0.07511764
-6.4993844 6.3866367 -0.076954879
-7.1623826 6.388834 -0.081055678
-8.3056831 6.3926229 -0.088513181
-9.1956053 6.3955722 -0.094594799
-9.6886425 6.3972068 -0.098049238
-10.681826 6.3349204 -0.10487945
-11.265469 6.3186412 -0.10908073
-13.644599 6.4028988 -0.12728797
-14.554355 6.4059129 -0.13429512
-15.570801 6.4092808 -0.14220458
-18.003262 6.413331 -0.1614019
-23.273476 6.4364085 -0.20392974
-25.701504 6.4444518 -0.22377746
-28.619301 6.4461913 -0.24775627
-26.411684 -7.7464433 -0.23245291
-18.095732 -7.7784162 -0.16634589
-15.320712 -21.93358 -0.22598952
-14.372265 -21.671638 -0.21961227
-11.534355 -21.674452 -0.20735046
-10.871884 -21.675234 -0.20479117
-9.5930758 -21.676752 -0.20018639
-8.9765625 -21.683037 -0.19818854
-7.1887794 -21.68541 -0.19294013
-4.9319239 -21.691916 -0.18787377
-4.3844142 -21.6929 -0.18690887
-3.8421874 -21.693876 -0.18606223
-3.3045311 -21.694841 -0.18534064
-2.7708886 -21.696802 -0.18472596
-2.240459 -21.6989 -0.18422645
-1.1865137 -21.703081 -0.18356521
-0.66180664 -21.705166 -0.18339393
-0.1377832 -21.705124 -0.18330772
0.91053706 -21.707262 -0.18348587
1.9633496 -21.709408 -0.18408783
2.4929688 -21.710491 -0.18455628
4.6483493 -21.71623 -0.18755294
5.7575879 -21.718779 -0.18975303
6.3249021 -21.72761 -0.19111367
7.4814548 -21.732798 -0.19411071
8.6777735 -21.738167 -0.19768158
9.9160938 -21.731544 -0.2017298
10.557636 -21.73291 -0.20405197
11.889356 -21.738091 -0.20924872
12.581699 -21.740688 -0.21213828
13.293828 -21.743359 -0.21523009
14.027471 -21.746111 -0.21854995
14.784521 -21.748949 -0.22210014
16.372753 -21.748848 -0.22990271
19.943407 -21.761299 -0.24928497
23.863438 6.2746191 -0.2083818
18.395439 6.291079 -0.16418876
17.052763 6.2955456 -0.15351662
15.873408 6.2994714 -0.14422774
13.911855 6.3140965 -0.12902358
12.30829 6.3194323 -0.116847
11.614072 6.321743 -0.11167274
9.3478518 6.3269529 -0.095328823
8.4438276 6.3299584 -0.089124069
8.034111 6.3313217 -0.086386792
7.6485839 6.3326035 -0.083861232
6.0068064 6.3380637 -0.073747173
5.7237306 6.3390064 -0.072128527
4.4144626 6.2657981 -0.064729534
4.2489743 6.3510947 -0.064533234
4.031045 6.3518176 -0.063533247
3.8196094 6.3525219 -0.062600404
3.0293553 6.3551474 -0.059456479
2.8435059 6.3557653 -0.058803022
2.6616015 6.3563709 -0.058196716
2.4832909 6.3569617 -0.057636488
2.3082812 6.3575449 -0.057119828
1.9670215 6.3586779 -0.056211546
1.6356933 6.3597789 -0.055457458
1.3123828 6.3608532 -0.054850005
0.52804685 6.3634582 -0.053924941
0.37372071 6.3639698 -0.053838041
0.21981445 6.364481 -0.05378082
0.066132814 6.3649912 -0.053756408
-0.38906249 6.2655616 -0.053016584
-0.54117185 6.2660656 -0.053115614
-0.69583005 6.2837315 -0.053391647
-0.85886717 6.3509107 -0.054123458
-1.1735253 6.3519554 -0.054551162
-1.493955 6.3530188 -0.055116117
-1.9891796 6.3546619 -0.056233902
-2.1590722 6.3552256 -0.056684416
-2.5076952 6.3563828 -0.057706527
-2.6869726 6.3569775 -0.058284834
-2.8699608 6.357584 -0.058908537
-3.0570409 6.3582044 -0.059581067
-3.4448924 6.3594894 -0.06108078
-3.6464746 6.3601584 -0.061913755
-3.85375 6.360847 -0.062807612
-5.2485352 6.3654723 -0.069674909
-5.9958591 6.2841587 -0.073353268
-6.3947849 6.3862901 -0.076324768
-7.7718749 6.3908544 -0.084977031
-8.1675196 6.3921642 -0.087590255
-9.0380268 6.39505 -0.093502805
-10.595674 6.4002123 -0.10454101
-11.040664 6.3104806 -0.10739517
-12.567461 6.3993297 -0.11910263
-15.217031 6.4081092 -0.13944328
-17.54875 6.4118261 -0.15778686
-22.553261 6.4340219 -0.19806831
-27.561937 6.4426866 -0.23904373
-15.901845 -22.377844 -0.23184265
-14.644453 -21.698984 -0.22108382
-11.092051 -21.674974 -0.20562798
-9.803359 -21.6765 -0.20092003
-9.182539 -21.682764 -0.19886062
-7.9725876 -21.68437 -0.19511688
-6.8047166 -21.685923 -0.19195038
-6.2350488 -21.689575 -0.19059448
-5.1167283 -21.691586 -0.18822151
-3.4842284 -21.694519 -0.18556167
-2.4179003 -21.698198 -0.18438415
-1.8892187 -21.700298 -0.18395798
-0.8375293 -21.704468 -0.18343735
0.21052735 -21.705835 -0.18332076
0.73469722 -21.706903 -0.18342285
1.259795 -21.707973 -0.18363953
1.7864355 -21.709049 -0.18395928
3.3818555 -21.713326 -0.18558754
4.4648533 -21.715811 -0.18723351
5.5698924 -21.718349 -0.18934982
7.8744335 -21.73456 -0.19523078
8.4742384 -21.737255 -0.19703521
9.0812988 -21.729771 -0.19889419
9.7043161 -21.731092 -0.20099388
10.340996 -21.73245 -0.20325507
12.347578 -21.739809 -0.21114624
13.0529 -21.742456 -0.21417312
14.528125 -21.747988 -0.22089423
15.299375 -21.747406 -0.22455849
17.786982 -21.750742 -0.23730628
18.687813 -21.758905 -0.24223022
19.621416 -21.760689 -0.24745025
27.385126 6.2647948 -0.23724891
24.662636 6.2719603 -0.21491134
20.245605 6.2028675 -0.17883225
13.342852 6.31599 -0.1246727
12.555586 6.3186083 -0.1187059
9.8937302 6.2413449 -0.098791197
9.5118847 6.326405 -0.09647461
9.0336618 6.3279967 -0.093147196
6.1045604 6.3377404 -0.074314341
5.8172069 6.338696 -0.072657928
5.2785449 6.3404856 -0.069673538
4.9646287 6.264924 -0.067507476
4.7182422 6.2585583 -0.066192396
4.4860935 6.2593307 -0.065035172
4.3235741 6.3508458 -0.064883269
3.6824024 6.3529773 -0.062013548
3.4806933 6.3536472 -0.06118248
3.2842381 6.3543005 -0.060407486
3.0925782 6.354939 -0.059686966
2.9053319 6.3555589 -0.059016876
2.7221386 6.3561683 -0.058394928
2.3665721 6.3573508 -0.057288129
2.1936035 6.3579245 -0.056799926
2.0234571 6.3584909 -0.056352004
1.8558691 6.3590465 -0.055943906
1.2063867 6.3612046 -0.054679945
1.0481153 6.3617311 -0.054450758
0.89107418 6.3622522 -0.054254226
0.57991213 6.363286 -0.053961713
0.42537108 6.3637986 -0.053863447
0.27134764 6.3643112 -0.05379669
-0.18970703 6.3658423 -0.053784635
-0.33819336 6.2653928 -0.052989502
-0.49014649 6.2658973 -0.053078383
-0.64265621 6.2664037 -0.053199232
-0.79813474 6.284071 -0.053495787
-1.1204492 6.3517795 -0.054470748
-1.2793262 6.3523059 -0.054723434
-1.4397949 6.352838 -0.055011138
-1.7663183 6.3539219 -0.055694275
-1.932832 6.354475 -0.056091614
-2.101836 6.3550353 -0.056528166
-2.2736034 6.3556051 -0.057005461
-2.4483886 6.356184 -0.057524186
-3.1838574 6.3586254 -0.060055923
-3.378535 6.359271 -0.060814511
-3.7836328 6.3606138 -0.062502287
-3.9949706 6.3613148 -0.063437119
-4.6706638 6.3635559 -0.066663206
-4.9119334 6.3643556 -0.067894898
-5.8992186 6.2838387 -0.072789229
-6.2918458 6.3859482 -0.075709224
-6.9324608 6.3880725 -0.079611659
18.092833 -21.757534 -0.87652165
19.000977 -21.759262 -0.89480984
26.397675 6.2675328 -0.84040618
23.849316 6.2741685 -0.76387846
17.045176 6.2952051 -0.56283748
13.906494 6.313807 -0.47307602
13.065508 6.3166199 -0.44952452
12.303877 6.3191671 -0.42844343
11.610097 6.3214893 -0.40947914
10.974775 6.3236132 -0.39234108
10.249492 6.2399192 -0.37169555
9.3449411 6.3267331 -0.34956208
8.4413376 6.3297558 -0.32681847
8.0317574 6.3311229 -0.31678656
7.6463671 6.3324108 -0.3075248
7.2826657 6.3336267 -0.29895896
5.7221189 6.3388376 -0.26451385
5.4511032 6.3397436 -0.2589843
4.6381836 6.2586679 -0.24129599
4.4132228 6.2657385 -0.23739631
4.247705 6.3509421 -0.23666649
4.0297947 6.3516712 -0.2330001
3.8184178 6.3523755 -0.22957854
3.4131835 6.3537269 -0.2234069
2.8424706 6.3556285 -0.21565932
2.6605761 6.356235 -0.21343689
2.4822948 6.3568287 -0.21138427
2.3073144 6.3574119 -0.20949036
2.1353319 6.3579831 -0.20774932
1.7993262 6.3591027 -0.20470718
1.6347948 6.3596497 -0.20339492
0.83784175 6.3622985 -0.19877395
0.6821484 6.3628173 -0.19821845
0.52723634 6.3633313 -0.19778083
0.37289062 6.3638439 -0.19745933
0.21899414 6.3643556 -0.19725372
0.065322265 6.3648658 -0.19716255
-0.088320307 6.365376 -0.19718704
-0.69663084 6.2836061 -0.19582763
-1.0163964 6.3513036 -0.19923599
-1.4947754 6.3528891 -0.20215622
-1.9900292 6.3545313 -0.20625915
-2.1599414 6.3550925 -0.20790863
-2.5085742 6.3562474 -0.21166503
-2.8708887 6.3574471 -0.21607055
-3.2495215 6.3586984 -0.22118965
-3.4458592 6.3593493 -0.22404175
-3.6474707 6.3600144 -0.22710067
-4.0682812 6.3614073 -0.23389579
-4.7516894 6.3636632 -0.2460041
-5.4559569 6.2992187 -0.25813368
-5.9972558 6.283989 -0.26906997
-6.3962207 6.3861132 -0.2799691
-6.713789 6.3871593 -0.28703591
-7.4006152 6.3894262 -0.30285093
-8.1694336 6.3919625 -0.32130295
-8.5905762 6.393352 -0.33169806
-9.0401754 6.394834 -0.34299958
-9.5217476 6.3964219 -0.35530868
-11.043535 6.3102317 -0.39397407
-11.849854 6.3966808 -0.4171173
-12.570918 6.3990564 -0.43693495
-13.364346 6.4016724 -0.45900732
-15.221767 6.4077916 -0.51157349
-16.095663 6.3228722 -0.53565383
-18.976688 6.4161534 -0.6204986
-22.562647 6.4335804 -0.72674179
-27.575762 6.4421616 -0.87716794
-15.871923 -22.341797 -0.84890318
-13.154775 -21.68515 -0.78563261
-11.088545 -21.674965 -0.7541458
-9.8000002 -21.676491 -0.73685771
-7.9693651 -21.684145 -0.71559972
-5.6694727 -21.690756 -0.69444901
-5.1138182 -21.691753 -0.69032943
-2.9466209 -21.697046 -0.67824447
1.7892578 -21.709517 -0.67474103
2.3180468 -21.710596 -0.67632061
2.8497655 -21.712887 -0.67833197
3.3848143 -21.714119 -0.68072462
6.137373 -21.726332 -0.69931751
7.2880759 -21.731489 -0.70998961
9.0848236 -21.730434 -0.72956288
9.7079487 -21.731768 -0.73726261
10.344755 -21.73313 -0.7455622
11.664326 -21.735954 -0.76410019
13.783447 -21.74584 -0.79749596
16.931669 -21.750036 -0.85378897
18.692442 -21.758677 -0.8885392
19.626249 -21.76045 -0.90769207
15.43209 -7.9342003 -0.53739256
24.647636 6.2714963 -0.78779531
22.400469 6.279017 -0.72060591
17.474854 6.2937684 -0.57532769
16.245371 6.2978821 -0.53969532
14.958789 6.2183981 -0.50179702
13.337852 6.3157091 -0.4571209
11.835645 6.3207335 -0.41561782
10.58083 6.3249292 -0.38183647
9.8905659 6.2411194 -0.36226156
8.5844727 6.3292761 -0.3303678
8.166172 6.3306737 -0.32005668
7.7729783 6.3319883 -0.31054619
7.4022555 6.3332262 -0.30175522
7.0517578 6.3343983 -0.29361418
6.7194824 6.3355079 -0.28606454
5.8155565 6.3385262 -0.26645499
5.5406446 6.3394456 -0.26079437
5.2770309 6.3403244 -0.25551689
4.9631934 6.2647681 -0.24757187
4.4847655 6.2591805 -0.23851135
4.3222852 6.3506956 -0.23795234
3.6812205 6.3528333 -0.22743087
3.0915039 6.3547983 -0.218898
2.7211132 6.3560324 -0.21416283
2.5416698 6.3566308 -0.21205367
2.1926465 6.3577929 -0.20831656
1.8549414 6.3589172 -0.20517792
1.2055078 6.3610764 -0.20054267
1.0472559 6.3616037 -0.19970413
0.57907224 6.3631601 -0.19791466
0.27053711 6.3641844 -0.19730903
0.11679687 6.3646946 -0.19718024
-0.036826171 6.3652062 -0.19716637
-0.19052733 6.365715 -0.19726668
-0.96375 6.3511291 -0.19897957
-1.2801563 6.3521791 -0.20071487
-1.6028808 6.3532472 -0.20295943
-1.9336816 6.3543429 -0.20573814
-2.4492676 6.356051 -0.21099098
-2.8091309 6.3572421 -0.21528465
-3.1848145 6.3584847 -0.22027992
-3.5792968 6.3597898 -0.22605102
-3.7846484 6.3604684 -0.22925575
-3.9960155 6.3611679 -0.23269126
-4.2139354 6.361887 -0.2363681
-4.4389939 6.3626304 -0.2403073
-4.9131055 6.3641968 -0.24904053
-5.9005857 6.2836695 -0.26699659
-6.2932715 6.3857713 -0.27771363
-8.0341406 6.3915162 -0.31800359
-8.4464455 6.3928757 -0.32812065
-8.8861322 6.3943262 -0.33910552
-9.3565722 6.3958774 -0.35106444
-9.8616896 6.3975425 -0.36411598
-10.83791 6.309557 -0.3884564
-13.089667 6.4007664 -0.45133698
-14.881396 6.4066696 -0.50185966
-15.928408 6.4063501 -0.53180104
-17.119804 6.4100366 -0.56624466
-18.477949 6.4145103 -0.60586786
-24.035868 6.4384327 -0.77076674
-9.2639942 -7.8613815 -0.376351
-14.957851 -21.787357 -0.81860954
-14.115136 -21.662256 -0.8008728
-13.389062 -21.674135 -0.78913206
-11.984277 -21.673901 -0.76715308
-10.011816 -21.676239 -0.73958647
-8.7718067 -21.683075 -0.72451824
-7.5768456 -21.684668 -0.71151161
-4.7478709 -21.692411 -0.68783677
-3.6615722 -21.694363 -0.68149948
-3.1254296 -21.696337 -0.67898941
-1.536162 -21.702631 -0.67392683
1.0865234 -21.708082 -0.67325741
1.6125586 -21.709154 -0.67429948
2.1405859 -21.710234 -0.67574459
3.2051075 -21.713705 -0.67987657
3.7428222 -21.714941 -0.6825465
6.5161033 -21.728027 -0.70264798
7.0928025 -21.730616 -0.70805967
7.6787791 -21.73324 -0.71397716
8.2749901 -21.735909 -0.72041059
9.4976854 -21.731318 -0.73461729
10.776338 -21.734053 -0.75142926
11.438622 -21.73547 -0.7608099
12.11958 -21.739576 -0.77096677
12.818418 -21.742207 -0.7818048
13.537598 -21.744915 -0.79342008
18.388203 -21.758095 -0.88241196
19.308876 -21.759848 -0.90112728
20.26997 -21.761675 -0.92118078
7.7626562 -7.9407196 -0.34397125
24.817295 -8.0602474 -0.80825239
19.395586 6.2873411 -0.63156211
17.92412 6.2922654 -0.58842313
16.640156 6.2965612 -0.55109859
15.304033 6.2172422 -0.5116716
14.521445 6.311748 -0.49045739
13.619551 6.3147669 -0.46500984
12.068037 6.3199558 -0.42196876
11.394492 6.3222094 -0.40363586
10.77669 6.324276 -0.38704872
9.6562595 6.3121567 -0.35734284
9.1873627 6.3272605 -0.34553993
8.3034277 6.3302145 -0.32341996
7.9021091 6.3315573 -0.3136493
7.5241208 6.3328195 -0.30462685
6.8288865 6.3351426 -0.28853211
6.5077538 6.3362145 -0.28134415
5.9103808 6.3382101 -0.26844192
5.0459766 6.2644906 -0.24916381
4.7965331 6.2581396 -0.24423485
4.397666 6.3504443 -0.23926826
3.9593945 6.3519053 -0.23184486
3.3484082 6.3539429 -0.22247039
2.7820604 6.3558297 -0.21490692
2.6014159 6.356432 -0.21274269
2.2502832 6.3576012 -0.20889984
1.5809667 6.3598275 -0.20299132
1.1001464 6.3614268 -0.19997123
0.63099611 6.362987 -0.19806106
0.47627929 6.3635011 -0.1976615
0.014638672 6.3650327 -0.19715774
-0.2882129 6.2650986 -0.19426742
-0.4399707 6.2656031 -0.19455597
-0.59226561 6.2661095 -0.19495827
-1.2267382 6.3520007 -0.20038901
-1.548291 6.3530674 -0.20254683
-1.711875 6.3536105 -0.20382224
-1.8776073 6.3541574 -0.20523407
-2.0457811 6.3547153 -0.20678642
-2.5673144 6.3564429 -0.21234412
-2.747793 6.3570395 -0.21451813
-2.9321191 6.3576498 -0.21686363
-3.3137109 6.358911 -0.22210838
-3.9244823 6.36093 -0.2315132
-4.3627634 6.3623791 -0.23895858
-5.0785937 6.3647447 -0.25221932
-5.3357224 6.3655944 -0.25728202
-5.54458 6.2995114 -0.25994712
-6.1919236 6.385438 -0.27551192
-6.4991989 6.3864512 -0.28224334
-7.5212793 6.3898239 -0.30569792
-8.3054104 6.3924093 -0.32463875
-8.7355661 6.3938293 -0.33532256
-10.219004 6.3987207 -0.37347037
-10.683828 6.3361044 -0.38475677
-12.824023 6.3998899 -0.44394529
-13.643955 6.4025927 -0.46684599
-19.491669 6.4178491 -0.63564765
-21.173124 6.4094357 -0.68524158
-25.699385 6.4439111 -0.82069087
-28.616621 6.4455905 -0.90861541
-26.359716 -7.7312078 -0.85089469
-14.372255 -21.671621 -0.80549145
-13.625488 -21.663021 -0.79271305
-12.214033 -21.67363 -0.77061504
-11.534346 -21.674435 -0.76052153
-10.871875 -21.675219 -0.75112164
-10.225204 -21.675985 -0.74237639
-9.5930758 -21.676739 -0.7342729
-8.9764643 -21.682802 -0.72691101
-7.1887107 -21.685184 -0.70765239
-6.6125779 -21.685951 -0.70227402
-5.4854784 -21.691084 -0.69304121
-4.3844528 -21.693064 -0.6855368
-3.3045702 -21.695004 -0.67975616
-2.7710254 -21.697739 -0.67755622
-0.83042967 -8.0426331 -0.2504656
-0.66182613 -21.706097 -0.67266625
-0.13779296 -21.705584 -0.67235047
0.38613281 -21.706656 -0.67247778
0.91053706 -21.707724 -0.6729973
1.436123 -21.708794 -0.67390794
2.4930174 -21.710951 -0.67692506
3.0258203 -21.713291 -0.67907375
3.5621288 -21.714525 -0.68160504
4.1028028 -21.715771 -0.68455368
4.6485252 -21.717028 -0.68793011
5.7578025 -21.719585 -0.69601011
6.8985348 -21.72974 -0.70619011
8.0740328 -21.73501 -0.71820205
8.6775875 -21.737715 -0.72500503
9.2889061 -21.730871 -0.73203641
9.9164057 -21.732212 -0.73993099
11.889716 -21.73871 -0.76750076
12.58206 -21.741318 -0.77808517
14.0279 -21.746758 -0.80160064
16.373075 -21.749281 -0.84325379
17.211767 -21.750414 -0.8591302
18.088125 -21.757524 -0.87642789
19.943193 -21.761055 -0.91431236
26.412422 6.2674842 -0.84085393
18.394297 6.2906919 -0.60216844
17.051767 6.2951841 -0.56302911
12.307744 6.3191552 -0.42855003
10.252421 6.2399106 -0.37176627
9.7227926 6.24401 -0.35792243
9.3475189 6.3267245 -0.34962934
8.4435549 6.3297472 -0.32687247
7.2845311 6.3336205 -0.29900244
6.9402537 6.3347702 -0.29106194
6.3028708 6.3368993 -0.27684745
6.0066504 6.3378892 -0.27047715
5.4525194 6.3397388 -0.25901383
4.8771777 6.2578712 -0.24575652
4.6394138 6.2586646 -0.24131858
4.4132128 6.2640328 -0.23735091
4.248877 6.3509398 -0.23668693
4.0309372 6.3516674 -0.23301925
3.614121 6.3530564 -0.22640114
3.4142284 6.353723 -0.22342323
3.2194238 6.3543725 -0.22064811
2.483242 6.3568249 -0.21139465
2.1362402 6.3579807 -0.20775908
1.9669824 6.3585434 -0.20616478
1.800205 6.3590989 -0.20471565
1.635664 6.3596458 -0.20340179
1.3123633 6.3607225 -0.20117439
1.1531738 6.3612509 -0.20025185
0.995332 6.3617759 -0.19945343
0.83867186 6.3622971 -0.19877869
0.68297851 6.3628149 -0.19822121
0.37372071 6.3638415 -0.19745971
0.21980469 6.3643527 -0.19725402
-0.23743163 6.2649317 -0.19419663
-0.38907227 6.2654343 -0.1944464
-0.69582027 6.2836032 -0.19582428
-1.8218163 6.3539734 -0.20474479
-2.3317871 6.3556628 -0.20969978
-2.5076365 6.3562436 -0.21165359
-2.686914 6.3568382 -0.21377036
-2.8699024 6.3574438 -0.21605873
-3.2484863 6.358696 -0.22117583
-4.0671387 6.3614025 -0.23387589
-4.9946775 6.3644662 -0.25059929
-5.2484083 6.3653049 -0.25554702
-5.4545507 6.2992139 -0.25810227
-5.7115917 6.2830453 -0.26301405
-5.9957032 6.2839832 -0.2690326
-6.3945994 6.386107 -0.27993247
-6.71207 6.3871546 -0.28699782
-7.0461817 6.3882556 -0.29460365
-7.7716208 6.3906493 -0.31166396
-8.1672554 6.3919554 -0.32124969
-8.5882912 6.3933444 -0.33164221
-11.846259 6.3966684 -0.41702026
-14.237832 6.4045506 -0.48358572
-15.21624 6.4077735 -0.5114153
-17.547724 6.4114466 -0.5786894
-20.610498 6.4215355 -0.66868687
-24.834843 6.4410629 -0.79471821
-9.1723042 -7.9100003 -0.37517181
-15.889013 -22.359795 -0.84966022
-14.643544 -21.69766 -0.81083369
-13.864931 -21.653141 -0.79643208
-13.158466 -21.684975 -0.78569126
-12.456894 -21.692465 -0.77483273
-10.440214 -21.675732 -0.74523437
-9.8033495 -21.676487 -0.73691863
-9.1824512 -21.682531 -0.7293666
-7.3837986 -21.684923 -0.70956647
-6.8046579 -21.685694 -0.70401531
-6.2351074 -21.689741 -0.69905758
-5.6724315 -21.690752 -0.69447368
-5.1167674 -21.691748 -0.69034928
-4.5672851 -21.692734 -0.68667388
-4.0233788 -21.69371 -0.68342954
-3.4842479 -21.694683 -0.68060863
-1.8892969 -21.701233 -0.67474449
-0.31333983 -21.707478 -0.6724664
0.21053711 -21.706293 -0.67239285
1.2598144 -21.708435 -0.67355758
2.3152344 -21.71059 -0.67630672
3.9211035 -21.715351 -0.68351859
5.5700974 -21.719154 -0.69453174
6.1343846 -21.726318 -0.69929081
6.7053223 -21.728876 -0.70438015
7.2849607 -21.731474 -0.70995498
7.8742771 -21.734114 -0.71604234
9.0815725 -21.730427 -0.72952634
10.341337 -21.73312 -0.74551618
10.99292 -21.734516 -0.75444937
11.660781 -21.735947 -0.7640425
13.053281 -21.74309 -0.78554869
16.098886 -21.748911 -0.83816326
16.927197 -21.750029 -0.85370612
17.787344 -21.75119 -0.87031859
18.687597 -21.758667 -0.88844109
19.62121 -21.760441 -0.90758771
20.596483 -21.762297 -0.92814362
27.382685 6.2642355 -0.87010276
24.660654 6.2714524 -0.78818786
14.96414 6.21838 -0.50195462
14.213281 6.3127809 -0.48173079
12.555019 6.3183274 -0.43536612
11.839229 6.3207211 -0.41571525
11.18496 6.3229098 -0.3979837
10.583886 6.3249207 -0.38191795
9.8933592 6.2411108 -0.36233771
9.5115232 6.3261766 -0.35383645
8.1683197 6.3306665 -0.32010993
7.40416 6.33322 -0.30180085
7.0535641 6.3343921 -0.29365569
6.721211 6.3355026 -0.28610328
5.8170409 6.3385215 -0.26648566
5.5420704 6.3394408 -0.26082304
5.2783985 6.3403196 -0.25554281
4.9645019 6.2647629 -0.24759674
4.7181153 6.2584009 -0.24277084
4.4859767 6.2591758 -0.23853263
4.3234668 6.3506908 -0.23797302
4.1032128 6.3514256 -0.23422134
3.6823144 6.352828 -0.22744727
3.4806151 6.3535008 -0.22439688
3.2841601 6.3541565 -0.22155632
3.0925097 6.3547959 -0.21891166
2.9052637 6.3554187 -0.21645431
2.7220702 6.35603 -0.21417442
2.3665233 6.3572145 -0.21011727
2.0234179 6.3583555 -0.20668365
1.8558301 6.3589149 -0.20518477
1.6905664 6.3594642 -0.20382683
1.5273827 6.3600059 -0.20260344
0.89104491 6.3621225 -0.19899085
0.73504883 6.3626404 -0.19839409
0.57989258 6.3631577 -0.19791657
0.42537108 6.3636694 -0.19755577
0.27134764 6.364182 -0.19731133
-0.036015626 6.3652024 -0.19716606
-0.18970703 6.3657126 -0.19726646
-0.33819336 6.265265 -0.19434944
-1.1204199 6.3516488 -0.19978118
-1.2792969 6.3521752 -0.20070983
-1.6020117 6.3532443 -0.20295212
-1.7662792 6.3537889 -0.20427237
-1.9327929 6.3543406 -0.2057312
-3.994873 6.3611646 -0.23267242
-4.4377732 6.362628 -0.2402871
-5.1622753 6.3650208 -0.2538507
-5.4228024 6.3658814 -0.25902924
-5.8990622 6.2836642 -0.26696754
-6.2916698 6.3857665 -0.27767915
-6.9322557 6.3878808 -0.29199097
18.092636 -21.757298 -1.5149397
19.000761 -21.759018 -1.5465438
19.948095 -21.760815 -1.5804389
7.7416892 -8.0464029 -0.59778976
23.84745 6.2736764 -1.3201604
21.729111 6.280808 -1.2109307
17.044189 6.2948422 -0.97273701
14.840243 6.3103561 -0.86334425
13.90581 6.3134995 -0.81761128
12.303329 6.3188901 -0.74047649
11.609609 6.3212228 -0.70770246
10.974326 6.3233581 -0.67808181
9.719717 6.2437863 -0.61847681
9.3446093 6.3265076 -0.60415107
6.9382615 6.3345871 -0.50297934
6.004951 6.3377185 -0.46741667
5.7219529 6.3386669 -0.45716545
4.875752 6.2577147 -0.42470571
4.6380663 6.2585106 -0.41703841
4.4119725 6.2639709 -0.41019058
4.2475977 6.3507895 -0.40903854
4.029707 6.3515186 -0.40270218
3.2183397 6.3542318 -0.38132873
3.0282323 6.354867 -0.37687132
2.8424022 6.3554883 -0.37272993
2.4822459 6.3566904 -0.36534271
2.3072655 6.3572741 -0.36206886
2.135293 6.3578477 -0.35906127
1.7992871 6.3589673 -0.35380349
1.6347558 6.3595166 -0.35153654
1.3114843 6.3605933 -0.34768751
1.1523144 6.361124 -0.34609565
0.9944824 6.3616476 -0.34471717
0.83782226 6.3621693 -0.34354988
0.3729004 6.3637156 -0.34127623
0.21899414 6.3642273 -0.34092093
-0.23823242 6.2648072 -0.33563858
-0.69662106 6.2834778 -0.33845589
-0.85965818 6.3506541 -0.34309325
-1.0163672 6.3511744 -0.34434593
-1.1743262 6.3516965 -0.34581146
-1.3337011 6.3522253 -0.34749159
-1.4947461 6.3527575 -0.34939247
-1.6576562 6.3532968 -0.35152054
-2.1599023 6.3549585 -0.35933676
-2.5085156 6.3561082 -0.36582708
-3.0579102 6.3579235 -0.37770408
-4.9958591 6.3643064 -0.43315986
-5.2496481 6.3651428 -0.44171485
-5.9970798 6.283812 -0.46503454
-6.7135839 6.3869715 -0.49609169
-7.7734179 6.3904538 -0.53873998
-8.1691799 6.3917518 -0.55531341
-8.5902834 6.3931346 -0.57328045
-9.0398531 6.3946095 -0.59280878
-10.03913 6.3978882 -0.63732803
-10.597929 6.3997202 -0.66280478
-11.043086 6.3099756 -0.68091565
-12.570352 6.3987708 -0.75515074
-13.363701 6.4013696 -0.79329741
-14.242022 6.4042492 -0.83601463
-15.220966 6.4074545 -0.88414478
-16.094755 6.3225207 -0.92576826
-22.560947 6.4331002 -1.2559847
-28.55518 6.6709509 -1.5699213
-28.686274 5.9753795 -1.5687387
-28.803637 5.2779822 -1.5677329
-28.90605 4.5787292 -1.566834
-29.284712 -6.0867791 -1.6013191
-28.354004 -7.3367224 -1.5679791
-23.467764 -18.345236 -1.5947183
-22.917109 -18.823195 -1.5877197
-9.1577339 -7.8994799 -0.64747733
-21.799452 -19.74156 -1.5745163
-21.232635 -20.18199 -1.5683106
-20.66082 -20.610132 -1.5623703
-20.084053 -21.025917 -1.5566837
-19.502558 -21.429501 -1.5512528
-19.020586 -21.941027 -1.5545896
-17.556679 -22.345678 -1.521396
-17.025372 -22.780375 -1.5225658
-15.859159 -22.323822 -1.46604
-13.860928 -21.652983 -1.3764033
-11.756514 -21.674158 -1.320081
-8.5684376 -21.683115 -1.2481958
-7.9692674 -21.683916 -1.2368076
-6.2321482 -21.689911 -1.2081925
-5.6695213 -21.690922 -1.2002776
-5.1138673 -21.691919 -1.1931535
-4.5644336 -21.692905 -1.1868013
-4.0205469 -21.693882 -1.181199
-2.946748 -21.697989 -1.1723055
-1.3599218 -21.704268 -1.1642567
-0.8348242 -21.706345 -1.1629516
-0.31058592 -21.708426 -1.1623228
0.73750973 -21.707829 -1.1628408
2.8498633 -21.713675 -1.1724527
3.9241502 -21.716152 -1.1814442
4.4680958 -21.717407 -1.1870362
5.0175781 -21.718676 -1.1933773
7.2879391 -21.731043 -1.2270987
7.8772264 -21.733679 -1.2376229
10.345049 -21.733803 -1.2886496
10.996778 -21.735205 -1.304091
12.351973 -21.741076 -1.3386838
13.057451 -21.74374 -1.3578625
13.783857 -21.746485 -1.3784103
14.533017 -21.749315 -1.4004278
15.30416 -21.748266 -1.4237247
16.103476 -21.74935 -1.4488217
18.692236 -21.758434 -1.5357094
7.9547558 -8.006629 -0.60424268
15.429013 -7.9326215 -0.92877346
22.398817 6.2785521 -1.2453825
20.233721 6.2020516 -1.1330149
18.877821 6.288672 -1.0652627
14.958017 6.2180724 -0.86725926
11.835146 6.3204637 -0.71830809
11.181181 6.3226633 -0.68768322
10.58042 6.3246827 -0.65993148
9.8901949 6.2408838 -0.626091
7.7727246 6.3317871 -0.53672254
6.1026559 6.3373914 -0.47101721
4.7167578 6.2582483 -0.41955107
4.4846582 6.2590246 -0.41222793
4.1019626 6.3512769 -0.40477699
3.6811426 6.3526855 -0.39307442
2.9042187 6.3552818 -0.3740831
2.7210546 6.3558922 -0.37014517
2.5415916 6.356493 -0.366501
2.3655565 6.35708 -0.36313546
2.1925976 6.357656 -0.36003944
2.0224707 6.3582249 -0.35720429
1.8549023 6.3587828 -0.35461622
1.2054882 6.3609457 -0.34660453
0.57905275 6.3630309 -0.34206206
0.424541 6.3635435 -0.34143943
0.27052733 6.3640561 -0.34101698
0.11679687 6.3645663 -0.34079513
-0.19051757 6.3655858 -0.34094399
-0.33899415 6.2651415 -0.33590454
-0.49092773 6.2656455 -0.33646902
-0.6434375 6.266151 -0.33723259
-0.79891598 6.2838182 -0.33912101
-0.96373045 6.3509998 -0.34390289
-1.1212305 6.351522 -0.34529617
-1.7671191 6.3536582 -0.35306403
-2.1026561 6.3547678 -0.35835212
-2.2744238 6.3553357 -0.36137602
-2.4492188 6.3559141 -0.3646636
-2.6273339 6.3565011 -0.36822852
-2.8090625 6.3571005 -0.37208313
-2.9947362 6.3577137 -0.3762413
-3.3794336 6.3589816 -0.38552642
-4.671699 6.3632407 -0.42261946
-4.9129782 6.3640356 -0.43042359
-5.163496 6.3648582 -0.43878248
-5.6204977 6.2825742 -0.45130056
-6.2930856 6.3855906 -0.47997856
-6.6054001 6.3866172 -0.49189734
-6.9338379 6.3876953 -0.50472707
-7.2800584 6.388833 -0.51855177
-8.4461622 6.3926611 -0.56709558
-8.8858099 6.394104 -0.58608049
-9.3562307 6.395647 -0.60674858
-9.8613186 6.3973031 -0.62930697
-10.405781 6.3990903 -0.65399992
-10.83747 6.3093019 -0.67136914
-12.32122 6.397954 -0.74326825
-13.089072 6.4004712 -0.78004241
-20.04003 6.4192309 -1.1265815
-24.033964 6.4379249 -1.3320663
-28.643555 6.2086325 -1.5691
-28.766014 5.5119114 -1.5680578
-28.873432 4.8132467 -1.5671231
-28.406532 -7.1056943 -1.5676571
-26.420401 -7.9816012 -1.4776045
-23.650976 -18.182188 -1.5971247
-21.988241 -19.59119 -1.5766544
-21.423143 -20.035812 -1.5703605
-20.27792 -20.887997 -1.5585595
-19.697939 -21.295624 -1.5530442
-19.11335 -21.691093 -1.5477835
-18.780195 -22.379433 -1.5640973
-16.670097 -23.067801 -1.5237001
-14.115117 -21.662241 -1.3842062
-11.984277 -21.673885 -1.3259199
-11.310536 -21.674686 -1.308887
-10.653486 -21.675463 -1.293027
-9.3842678 -21.676968 -1.2646077
-8.7717285 -21.682844 -1.2522247
-8.1688471 -21.683647 -1.2405226
-6.4213476 -21.685982 -1.2108431
-5.8571973 -21.690586 -1.2028413
-5.2993064 -21.691586 -1.1954534
-4.2022266 -21.693554 -1.1829933
-3.6616015 -21.694523 -1.1778859
-3.125576 -21.697279 -1.1735963
-2.5930176 -21.699385 -1.1699817
-1.0106543 -21.705648 -1.1633129
0.037744138 -21.706402 -1.1620954
0.56180662 -21.70747 -1.162539
1.086543 -21.708542 -1.1636614
1.6125878 -21.70962 -1.1654663
2.140625 -21.710695 -1.1679603
4.285254 -21.716984 -1.1850779
4.8327732 -21.718252 -1.1911681
5.3863087 -21.71953 -1.1980226
6.5159664 -21.727587 -1.214411
7.0926561 -21.730171 -1.2237682
7.6786327 -21.73279 -1.2339951
8.8791599 -21.730648 -1.2567651
9.4979782 -21.731979 -1.2697294
10.130078 -21.733339 -1.2837242
12.119922 -21.7402 -1.3325509
12.818798 -21.74284 -1.3512847
14.279306 -21.748354 -1.392867
18.388008 -21.757856 -1.5251204
19.308662 -21.759604 -1.5574608
7.7411227 -7.9187016 -0.59286022
28.403311 6.260232 -1.5571246
17.923037 6.2918844 -1.0169522
13.618906 6.3144665 -0.80367148
12.805537 6.3172007 -0.76445085
12.06751 6.3196826 -0.72928745
11.394023 6.3219481 -0.6976065
10.776259 6.3240247 -0.66893339
9.6543846 6.310935 -0.6174975
8.303154 6.3300047 -0.55896944
7.1668749 6.3338208 -0.51205695
6.8286815 6.3349557 -0.49867529
6.5075684 6.3360324 -0.48625296
5.9102244 6.3380356 -0.46395567
5.6313181 6.3389697 -0.45394033
5.3640332 6.3398657 -0.44460234
4.7964158 6.2579808 -0.42211959
3.5464451 6.3531361 -0.3895314
3.3483202 6.3537974 -0.38450399
3.1551366 6.3544445 -0.37982267
2.9664843 6.3550744 -0.37547117
2.7820117 6.3556895 -0.3714315
2.6013477 6.3562937 -0.36768943
2.2502441 6.3574643 -0.36104849
1.4190332 6.3602357 -0.34887671
1.100127 6.3612976 -0.34561744
0.47626951 6.3633714 -0.34162673
-0.13901366 6.3654151 -0.34086365
-0.28820312 6.2649732 -0.33575928
-0.43996093 6.2654772 -0.33625832
-1.0683105 6.3513465 -0.34480575
-1.226709 6.3518701 -0.34634078
-1.7118359 6.3534765 -0.35227346
-2.7477441 6.3568978 -0.37075827
-2.9320507 6.3575072 -0.37481314
-3.1205664 6.3581285 -0.37917975
-3.5116601 6.3594189 -0.38891959
-3.7150977 6.3600903 -0.39433143
-4.3626561 6.3622227 -0.41299841
-5.3355665 6.3654246 -0.44466749
-6.8218846 6.3873277 -0.50032133
-7.1619334 6.3884459 -0.5138011
-7.9013281 6.3908725 -0.5440622
-9.1949511 6.3951197 -0.59962255
-9.6879292 6.3967347 -0.62152165
-10.218613 6.3984766 -0.64546853
-11.264531 6.3181162 -0.69145429
-12.079765 6.3971629 -0.73180008
-12.823447 6.3995996 -0.76727092
-14.55289 6.4052658 -0.85124367
-16.49288 6.3278317 -0.94574112
-18.001074 6.4125538 -1.023042
-21.176708 6.4105225 -1.1845396
-28.599218 6.4416404 -1.5694727
-28.839111 5.0475645 -1.5674243
-28.457539 -6.8743877 -1.5673462
-26.30789 -7.7160025 -1.4677726
-18.098661 -7.779675 -1.0546718
-23.833603 -18.017778 -1.5995599
-23.286797 -18.50428 -1.5923803
-22.176395 -19.439419 -1.5788225
-21.612997 -19.888195 -1.5724411
-21.0446 -20.324614 -1.5663214
-20.471123 -20.748657 -1.5604657
-18.931767 -22.193081 -1.5617231
-16.849375 -22.923061 -1.5230958
-15.313212 -21.922855 -1.4316717
-14.372246 -21.671606 -1.3921853
-12.214004 -21.673613 -1.3319058
-11.534346 -21.674419 -1.3144586
-10.225204 -21.675972 -1.2831047
-9.5930662 -21.676722 -1.2690816
-7.7740817 -21.684174 -1.233253
-7.1886325 -21.684956 -1.2230748
-6.6124902 -21.685726 -1.2137551
-6.0457616 -21.690247 -1.2054955
-5.485527 -21.69125 -1.1978406
-4.9319921 -21.692244 -1.1909736
-3.8422461 -21.694199 -1.1795193
-1.7126367 -21.702868 -1.1655159
-1.1866113 -21.70495 -1.1637522
-0.66185546 -21.707031 -1.1626681
0.91055661 -21.708183 -1.1632131
3.0259278 -21.714079 -1.1737362
4.1029491 -21.716564 -1.1832066
4.6486912 -21.717825 -1.1890429
5.2001171 -21.719101 -1.195634
6.8983884 -21.729301 -1.2205377
8.0738668 -21.73456 -1.2412934
8.6774025 -21.737257 -1.2530388
9.9167089 -21.73288 -1.278917
10.558281 -21.734262 -1.2936192
12.582432 -21.741945 -1.3448645
14.783545 -21.747559 -1.407835
15.564668 -21.748617 -1.4318123
16.373407 -21.749716 -1.4574825
18.087929 -21.75729 -1.5147746
18.99584 -21.75901 -1.5463734
19.942959 -21.760807 -1.5802499
7.7417283 -8.0485277 -0.597875
23.859697 6.2736349 -1.3207959
19.936943 6.2851048 -1.1191444
18.393164 6.2903028 -1.0407052
17.050772 6.2948194 -0.97306442
13.910498 6.3134837 -0.81783921
13.06915 6.3163147 -0.77711171
12.307217 6.3188767 -0.7406593
11.613095 6.3212118 -0.70786476
10.977539 6.3233471 -0.67823118
9.7224407 6.2437768 -0.61859918
9.347187 6.3264976 -0.60426641
7.6480956 6.3322043 -0.53158021
7.2843065 6.3334265 -0.51677138
6.6134176 6.3356771 -0.49031639
6.0064745 6.3377137 -0.46747214
5.7234178 6.3386621 -0.45721853
5.452363 6.33957 -0.4476603
5.192256 6.3404417 -0.43874258
4.639297 6.2585068 -0.41707861
3.4141405 6.3535776 -0.38614944
3.0292284 6.3548646 -0.37689385
2.8433788 6.3554845 -0.37275046
2.4831836 6.356688 -0.36536002
2.3081834 6.3572702 -0.36208549
1.800166 6.3589649 -0.35381553
1.635625 6.3595142 -0.35154745
1.4731054 6.360055 -0.34950918
1.1531543 6.3611217 -0.34610304
-0.23742187 6.2648044 -0.33563659
-0.38906249 6.2653065 -0.33606896
-0.69581056 6.2834754 -0.33845159
-1.0155371 6.351172 -0.34433922
-1.1734766 6.3516932 -0.34580183
-1.4938867 6.3527536 -0.34938216
-1.656787 6.3532934 -0.35150909
-1.8217773 6.3538389 -0.35386908
-2.1589844 6.3549547 -0.35932058
-2.3317285 6.3555245 -0.36242965
-2.5075781 6.3561058 -0.36580786
-2.6868455 6.356698 -0.36946747
-2.8698535 6.3573008 -0.37341964
-3.2484081 6.358551 -0.38226447
-3.444746 6.3591981 -0.38719031
-3.6462986 6.3598642 -0.39247572
-3.8535643 6.3605456 -0.39814314
-4.2872362 6.3619752 -0.41071761
-4.7503123 6.3634996 -0.42513418
-4.9945507 6.3643026 -0.43311676
-5.4543943 6.2990451 -0.44608656
-5.7114353 6.2828736 -0.45457312
-7.0459666 6.3880639 -0.50917065
-7.7713766 6.3904467 -0.53865623
-8.1670017 6.3917441 -0.55522043
-8.5879974 6.3931274 -0.57318342
-9.0373926 6.3946009 -0.59270298
-9.5187693 6.3961802 -0.61396712
-10.036279 6.3978782 -0.63719869
-10.594833 6.3997107 -0.66266119
-11.039756 6.3099647 -0.68076229
-11.845742 6.3963952 -0.7207334
-13.359287 6.4013562 -0.79308319
-15.215429 6.4074378 -0.88386923
-17.546659 6.4110656 -1.0001334
-20.609072 6.4210935 -1.15566
-22.549892 6.4330649 -1.2554188
-28.685635 5.9790683 -1.5687442
-28.803076 5.281682 -1.5677378
-28.905527 4.5824313 -1.5668386
-28.506693 -6.6427488 -1.5670484
-28.354824 -7.3330722 -1.5679741
-28.188101 -8.0204763 -1.5690069
-23.470654 -18.342661 -1.5947565
-18.585556 -22.508955 -1.56276
-17.559521 -22.343361 -1.5213892
-15.876299 -22.341879 -1.4673599
-14.642666 -21.696341 -1.4013346
-13.864922 -21.653128 -1.3765297
-12.456992 -21.692623 -1.3392055
-11.760107 -21.674152 -1.3201677
-11.092031 -21.674946 -1.3035289
-10.440214 -21.675716 -1.2880423
-9.8033495 -21.676472 -1.2736522
-9.182353 -21.682295 -1.2606049
-7.9724216 -21.68391 -1.2368649
-5.1168065 -21.691914 -1.1931911
-4.5673337 -21.6929 -1.1868316
-4.0234079 -21.693874 -1.1812308
-2.4181054 -21.700077 -1.1689435
-1.889375 -21.702168 -1.1662627
-0.83758789 -21.706335 -1.1629568
-0.3133496 -21.708412 -1.1623229
0.21053711 -21.706755 -1.1621691
0.73472655 -21.707821 -1.1628362
1.2598242 -21.708897 -1.1641825
1.7865039 -21.70997 -1.1662128
5.5702929 -21.719957 -1.2004492
6.1342578 -21.725878 -1.2086099
7.8740916 -21.733664 -1.2375643
9.0818357 -21.731087 -1.2609257
9.7049122 -21.732426 -1.2742305
10.34164 -21.733793 -1.2885679
10.993271 -21.735197 -1.3040062
12.348301 -21.741064 -1.3385894
13.053652 -21.743725 -1.3577583
17.787714 -21.75164 -1.5043341
19.620985 -21.760195 -1.5686325
24.658651 6.270946 -1.362168
22.409706 6.2785168 -1.2459466
18.885799 6.2886448 -1.0656674
16.250586 6.2975135 -0.93305022
11.83874 6.3204517 -0.7184782
11.184502 6.3226523 -0.68783689
9.0330172 6.3275537 -0.59044528
8.5864449 6.3290539 -0.57107621
7.7747459 6.3317795 -0.53680581
6.405117 6.3363757 -0.4823516
6.1042185 6.3373852 -0.47107437
5.8168845 6.3383484 -0.46057472
5.5419335 6.3392701 -0.45078886
4.964375 6.2646017 -0.42792654
4.717998 6.2582431 -0.41958952
4.4858689 6.2590208 -0.41226378
4.1031055 6.3512731 -0.40481064
3.8895898 6.3519874 -0.39875603
3.0924315 6.3546543 -0.37835234
2.7220213 6.3558898 -0.37016547
2.5425487 6.3564892 -0.366519
2.0233691 6.3582215 -0.35721809
1.6905273 6.3593297 -0.35228103
1.5273535 6.3598752 -0.35016707
1.0480664 6.3614707 -0.34516251
0.89103514 6.3619919 -0.34392333
0.73503906 6.3625121 -0.34289312
0.42536131 6.3635411 -0.3414427
0.2713379 6.3640537 -0.34101927
0.11761718 6.364563 -0.34079537
-0.33818358 6.2651391 -0.33590209
-0.64262694 6.2661486 -0.337228
-0.96290034 6.350997 -0.34389648
-1.2792675 6.3520446 -0.34689444
-2.2734962 6.3553333 -0.36135796
-2.6263769 6.3564987 -0.36820915
-2.9937401 6.3577108 -0.37621787
-3.1837206 6.3583384 -0.38069236
-3.3783789 6.3589783 -0.38550064
-3.5781543 6.3596373 -0.39066336
-4.4376659 6.3624706 -0.41529334
-4.6704392 6.363236 -0.42257965
-5.8988867 6.2834897 -0.46140891
-6.6037207 6.386611 -0.49183327
-6.9320507 6.3876891 -0.5046556
19.693945 -18.584642 -2.0620992
21.092119 -17.197111 -2.0724478
21.535137 -16.709568 -2.075738
21.965956 -16.209999 -2.0789437
22.384325 -15.698735 -2.082063
23.181932 -14.642175 -2.0880289
23.560575 -14.097661 -2.0908711
23.925283 -13.542695 -2.093616
24.275801 -12.977761 -2.0962615
24.611776 -12.403176 -2.0988052
25.238789 -11.226641 -2.1035767
25.529335 -10.625514 -2.1058009
24.000057 -8.6556177 -1.9429013
24.431963 -7.5004773 -1.9462692
24.625116 -6.9140949 -1.9477921
26.963398 -6.1842003 -2.1066549
27.269657 -5.5653429 -2.119468
27.411102 -4.908329 -2.1206369
27.535156 -4.247499 -2.1216819
27.641621 -3.5833154 -2.122602
27.801414 -2.2469497 -2.1240625
27.854618 -1.5757669 -2.1246021
27.88994 -0.90327454 -2.1250141
27.906836 0.44359678 -2.1254528
27.88834 1.1169518 -2.125479
27.851913 1.7895483 -2.1253767
27.797646 2.4609113 -2.1251464
27.72541 3.1304955 -2.1247864
27.635429 3.7977893 -2.124299
26.376249 4.2756529 -2.0348473
25.101933 5.3233776 -1.9540969
24.954481 5.9248352 -1.953182
24.791601 6.5220065 -1.9521884
18.384356 6.2899389 -1.4796973
13.905136 6.3131933 -1.162945
11.60912 6.3209558 -1.0066193
10.248681 6.2394371 -0.91372424
9.7193556 6.2435532 -0.87971252
8.8773336 6.3278575 -0.83020115
8.4407711 6.3293295 -0.80342877
7.6458788 6.3320103 -0.75599951
7.282207 6.3332357 -0.73494613
6.6115332 6.3354969 -0.69733047
5.7217965 6.3384957 -0.65027159
4.8756247 6.257556 -0.60410106
4.6379395 6.2583542 -0.59319818
4.4107227 6.2622018 -0.58330017
4.2474899 6.350636 -0.58181727
3.8182421 6.3520761 -0.56439215
3.2182617 6.3540878 -0.54240477
2.8423436 6.3553476 -0.53017324
2.4821875 6.3565526 -0.51966536
2.3072166 6.3571372 -0.51500958
1.965996 6.3582773 -0.5068174
1.4721972 6.3599253 -0.49713171
1.1522949 6.3609934 -0.49228957
0.99446285 6.3615184 -0.49032897
0.68211913 6.3625584 -0.48730132
0.52720702 6.3630738 -0.48622465
0.065312497 6.3646092 -0.48470619
-0.23822264 6.2646799 -0.47741508
-1.0163476 6.3510437 -0.48980132
-1.3336816 6.3520932 -0.49427444
-1.494707 6.3526254 -0.49697882
-1.6576269 6.3531637 -0.50000584
-1.8226269 6.3537083 -0.50336415
-2.1598535 6.3548217 -0.51112258
-2.5084667 6.3559713 -0.52035469
-2.6877539 6.3565598 -0.52556145
-3.0578418 6.3577795 -0.53724855
-3.445703 6.3590565 -0.5507803
-3.6473045 6.3597178 -0.55830067
-3.8545897 6.3603992 -0.56636381
-4.2883105 6.3618226 -0.58425629
-4.7514548 6.3633423 -0.60476959
-4.9957228 6.3641443 -0.61612827
-5.2495017 6.364974 -0.62829465
-6.7133884 6.3867831 -0.70563841
-7.0475683 6.387877 -0.72434485
-7.400166 6.3890305 -0.74451476
-8.1689062 6.3915415 -0.78987217
-9.0395508 6.3943834 -0.84320587
-10.597509 6.3994675 -0.94276017
-12.569785 6.3984823 -1.0741069
-14.241318 6.4039292 -1.1891205
-15.220156 6.4071178 -1.257571
-16.093847 6.3221664 -1.316767
-20.546591 5.8586912 -1.6270502
-20.669336 5.3578453 -1.6260523
-22.77294 4.1729198 -1.7630994
-22.989706 2.5117669 -1.7611538
-23.072901 1.3988642 -1.760295
-23.096054 0.84151608 -1.7599975
-23.091631 -0.83132505 -1.7596346
-22.913731 -3.0545628 -1.760385
-22.838642 -3.6074686 -1.7607929
-22.751356 -4.1587524 -1.7612884
-22.651834 -4.7081513 -1.7618719
-22.540215 -5.2554502 -1.7625428
-21.415781 -6.0964723 -1.6956689
-20.3808 -6.3373585 -1.6253607
-20.233633 -6.831315 -1.6262988
-20.590977 -10.470276 -1.7591411
-19.416962 -13.031398 -1.7807986
-19.13958 -13.526421 -1.7847869
-18.831533 -14.002153 -1.7870599
-18.179159 -14.931621 -1.7915162
-17.120575 -16.273415 -1.7987869
-16.746826 -16.705761 -1.8013635
-15.968769 -17.546581 -1.8067416
-15.564775 -17.954628 -1.8095409
-14.727461 -18.744751 -1.8153558
-14.294482 -19.126408 -1.8183688
-12.165019 -20.053583 -1.7861627
-11.516142 -20.060326 -1.7614874
-10.88457 -20.066704 -1.7384655
-10.268896 -20.072741 -1.7170151
-9.6778412 -20.099483 -1.6988238
-8.7308693 -20.623606 -1.7054874
-7.2599411 -21.330147 -1.7158631
-5.66957 -21.691086 -1.7073327
-5.1138868 -21.692085 -1.6971992
-4.020576 -21.694042 -1.6801957
-2.9468846 -21.698931 -1.6676047
-2.4153905 -21.701031 -1.6628015
-1.3599805 -21.705202 -1.6561557
-0.31061524 -21.70936 -1.6534002
0.21331054 -21.707222 -1.6531476
1.7893358 -21.710442 -1.658916
3.9242871 -21.716946 -1.6805933
4.4682713 -21.718204 -1.6885476
5.5734763 -21.720772 -1.7076868
6.1371288 -21.725454 -1.7192024
6.708086 -21.728008 -1.7317135
9.0853806 -21.731752 -1.7937434
9.7085447 -21.733101 -1.8126724
