# .PCD v0.7 - Point Cloud Data file format
VERSION 0.7
FIELDS x y z
SIZE 4 4 4
TYPE F F F
COUNT 1 1 1
WIDTH 1531
HEIGHT 1
VIEWPOINT 0 0 0 1 0 0 0
POINTS 1531
DATA ascii
22.049541 -9.3908224 2.50529
22.676718 -9.0178242 2.5510719
23.402363 -8.0218067 2.5860968
17.374424 10.959682 2.1473861
17.453613 11.607697 2.1911681
17.104618 11.980827 2.1830254
15.243691 11.81342 2.0159993
14.362558 12.284277 1.9756489
14.909355 14.748237 2.192246
18.839092 22.627428 3.077863
17.944345 22.642412 3.0201037
16.249609 22.670788 2.9157884
15.444482 22.684273 2.8687384
14.875361 24.290409 2.977509
3.2391405 6.2664433 0.73739684
3.0466015 6.2598515 0.72775662
2.862119 6.2604194 0.71957976
2.7511327 6.4231839 0.73044205
1.3653516 6.3560247 0.67958146
1.2057812 6.3565202 0.67632598
0.89069337 6.3574982 0.67106825
0.27142578 6.3594232 0.6653856
-0.49733397 6.3618231 0.66705918
-0.65218747 6.3623066 0.66856563
-1.122246 6.3637786 0.67549926
-1.2814159 6.3642793 0.67863858
-1.4421679 6.3647819 0.68220502
-2.0719922 6.26581 0.68987548
-2.2412987 6.2663431 0.69568753
-2.4202247 6.2840605 0.70393687
-2.6238475 6.3513455 0.71835935
-12.058535 20.273973 2.4658799
-28.521338 -6.4011121 3.0556469
-27.978394 -6.9925232 3.0146782
-28.070766 -7.7399058 3.0438726
-28.205576 -8.5146065 3.0798864
-27.053646 -8.8846617 2.9766545
-10.871357 -7.5485764 1.3835276
-10.954247 -8.0047331 1.4182549
-10.967509 -8.4278297 1.4458909
-10.416553 -8.4119415 1.3996179
-10.045654 -8.5210323 1.377019
-9.6868944 -8.627203 1.355994
-16.561474 -21.780209 2.860249
-13.397334 -21.67705 2.6638634
-12.685225 -21.677748 2.6255565
-11.99289 -21.678431 2.5898204
-11.318789 -21.67909 2.5565128
-10.664736 -21.686405 2.526283
-10.022597 -21.687115 2.4974566
-9.3945799 -21.687807 2.4706969
-8.779521 -21.688488 2.4459186
-8.1763477 -21.689157 2.4230304
-7.0019431 -21.691814 2.3827622
-5.3051071 -21.694536 2.3346601
-4.2072654 -21.693861 2.3100247
-2.5979979 -21.69997 2.2846045
-2.0683789 -21.701975 2.2788947
-1.541123 -21.703712 2.2745109
-1.0155078 -21.704681 2.2713816
0.55692381 -21.707573 2.2699516
1.6076171 -21.708899 2.2755549
2.1355371 -21.709995 2.2804093
3.1998143 -21.7122 2.2942023
5.3841014 -21.731977 2.340436
6.5132909 -21.736845 2.3720813
10.122471 -21.730177 2.5059385
12.112968 -21.73966 2.6015074
12.811474 -21.742094 2.6380377
13.529014 -21.742531 2.6769409
5.5176072 -8.4080038 1.0512856
5.5044727 -7.5651898 0.97801268
6.3421092 -7.8864579 1.0579166
6.8525486 -7.7260537 1.0795463
7.0265136 -7.5471778 1.0779386
21.758974 -8.253561 2.432713
22.835556 -7.4228063 2.5100629
22.873056 -6.8292661 2.495337
18.578241 10.301711 2.2206645
17.346983 10.74477 2.1330485
17.427011 11.385251 2.1760468
15.258935 11.626472 2.0053587
14.465107 12.168263 1.9759783
19.150604 22.622211 3.0983875
18.244188 22.63739 3.0392613
17.37121 22.652006 2.9840577
15.714775 22.679743 2.88434
14.867471 23.836977 2.9367559
14.891386 25.210512 3.0607996
3.1101756 6.2596564 0.73066986
2.9242578 6.2602277 0.72228682
1.5816991 6.3553557 0.68462032
1.419873 6.3558564 0.68078369
1.2597558 6.3563528 0.67738187
0.94381833 6.3573332 0.67184448
0.78760743 6.3578176 0.66969132
0.47769532 6.3587823 0.66658551
0.32363281 6.359262 0.66562271
0.16993164 6.3597393 0.66504973
-0.13713866 6.3606973 0.66506666
-0.2908496 6.3611784 0.66565746
-0.44492185 6.3616595 0.66663712
-0.75489259 6.3626275 0.66977936
-1.0685449 6.3636103 0.67453015
-1.3874121 6.3646097 0.68094587
-1.7131933 6.365633 0.6891064
-2.3612401 6.2838736 0.70172679
-2.7433593 6.3517241 0.72325879
-12.505019 20.281471 2.4907286
-27.913475 -6.7339053 3.0016398
-27.959726 -7.4634557 3.025111
-27.632744 -8.0953655 3.0099976
-27.524277 -8.7901659 3.0204136
-12.210898 -7.0945721 1.4762723
-10.97086 -7.8798571 1.412003
-10.545351 -8.374198 1.4076598
-16.969179 -21.941093 2.8995318
-15.939951 -21.671482 2.8122351
-14.396172 -21.692715 2.7215753
-12.924561 -21.677515 2.6382592
-12.225703 -21.6782 2.6016669
-11.545586 -21.678869 2.5675519
-10.886065 -21.686161 2.5365555
-10.238857 -21.686874 2.5069988
-9.6061811 -21.687574 2.4795489
-8.3798141 -21.688931 2.4305959
-7.1985741 -21.691498 2.3891218
-6.0541501 -21.693335 2.354368
-5.493711 -21.694235 2.3393891
-3.849658 -21.695221 2.3033359
-2.7783399 -21.699287 2.2868507
-2.247793 -21.701296 2.2806828
-1.1937109 -21.704355 2.2722971
-0.66892576 -21.705322 2.2700462
-0.14492187 -21.706284 2.2691188
1.4288769 -21.708525 2.2742133
1.956123 -21.709621 2.2786131
3.0182812 -21.711823 2.2914753
3.5545115 -21.712933 2.2999778
6.3195019 -21.736008 2.3662632
6.8933496 -21.738485 2.3839552
7.4707518 -21.725212 2.4015775
8.6650295 -21.727451 2.4452391
9.2793455 -21.728601 2.4698606
10.549307 -21.734203 2.525475
12.572266 -21.741262 2.6253569
5.4272361 -8.4198256 1.0471696
5.6862497 -7.9510889 1.0218452
5.8525681 -7.7797799 1.0176889
6.793447 -7.7869687 1.0802472
6.9675097 -7.6077967 1.07841
7.1413083 -7.4293561 1.077237
22.253876 -9.2746248 2.5202539
22.999159 -8.3069878 2.556237
23.063007 -7.7061353 2.5419123
17.478525 11.820762 2.2057374
16.008924 11.399409 2.054404
15.26417 11.434094 1.9936699
14.86877 11.70854 1.9783663
14.165654 11.719594 1.9218925
14.265361 12.393977 1.9754374
14.456122 13.185205 2.0453343
14.791005 14.859868 2.1917219
18.547871 22.632301 3.0588708
17.663877 22.647104 3.0023675
15.988037 22.675171 2.900321
15.191191 22.688513 2.854279
14.859785 23.395754 2.8972924
14.883046 24.731586 3.0173504
3.1742578 6.2594585 0.73365754
2.9868653 6.2600346 0.72506315
2.1374121 6.3536367 0.70075089
1.9682226 6.3541594 0.69536483
1.637041 6.355185 0.68602353
1.1548145 6.3566775 0.67536908
0.99708003 6.3571687 0.67266786
0.53007811 6.3586187 0.66700059
0.068496093 6.3600564 0.66488355
-0.54701173 6.3619781 0.66750032
-0.70208985 6.362464 0.66913372
-1.8226172 6.3659782 0.69220227
-1.9586133 6.2654533 0.68621153
-2.1260741 6.2659807 0.69169033
-2.8645411 6.3521075 0.7284103
-3.0513768 6.3526969 0.73671067
-11.004922 20.334538 2.4170015
-12.27456 20.277605 2.477824
-27.746201 -6.4535542 2.9778709
-28.040287 -7.239481 3.0273077
-27.810722 -7.9007764 3.0222344
-27.826269 -8.6361313 3.045692
-12.100635 -7.2910228 1.4768105
-10.650908 -7.1398358 1.3404092
-10.576484 -7.8552203 1.3771914
-10.295977 -8.4473171 1.3921766
-9.5739746 -8.6606979 1.3495481
-17.90374 -22.761791 3.0272644
-15.404521 -21.65873 2.778347
-13.16624 -21.677277 2.651264
-11.105849 -21.679298 2.5463099
-10.456826 -21.686636 2.5167875
-9.8193455 -21.687338 2.4886374
-7.9849315 -21.689369 2.4160657
-6.8168063 -21.692112 2.3769169
-5.6831541 -21.69393 2.3443007
-4.0331345 -21.694527 2.3066969
-1.8987793 -21.702618 2.2773528
-1.3721191 -21.704025 2.2733605
-0.8469336 -21.704992 2.2706583
-0.32272461 -21.705957 2.2692854
1.2504003 -21.708155 2.2730265
2.8371973 -21.711447 2.288904
4.4575586 -21.727985 2.3186452
5.5635157 -21.732748 2.3450947
6.6976757 -21.73764 2.3777657
7.2722263 -21.724838 2.3948708
7.8605661 -21.725945 2.4152048
10.329883 -21.733437 2.5154712
12.335302 -21.740437 2.6129706
5.3376074 -8.4316072 1.0431654
5.5320506 -7.870914 1.0056856
6.3408689 -8.1548891 1.0798477
6.9084864 -7.6684923 1.0789571
7.0823536 -7.4898429 1.0775616
22.036875 -9.3968019 2.5043139
22.780087 -8.4394484 2.5394831
23.831787 -6.914741 2.5940008
16.237196 10.232454 2.0062861
17.452196 11.5958 2.1903574
15.009453 11.052561 1.9485148
15.244512 11.803454 2.0154281
14.512343 11.807563 1.9557457
14.368017 12.278122 1.9756633
14.543017 13.047875 2.0424383
14.915986 14.741982 2.1922767
18.855585 22.627153 3.0789521
17.097422 22.65659 2.967108
16.264414 22.670542 2.9166718
15.458808 22.684031 2.8695574
14.869756 22.99305 2.862412
14.874941 24.265915 2.9753008
3.0499804 6.2598405 0.72791046
1.8578417 6.3545012 0.69207394
1.6926367 6.3550129 0.6874783
1.5295215 6.3555169 0.68334013
1.3682715 6.3560162 0.67964369
1.0504589 6.3570037 0.67353773
0.27420899 6.3594146 0.66539562
-0.64937496 6.362298 0.6685347
-1.2785254 6.3642693 0.67857724
-1.4392382 6.3647733 0.68213713
-1.6017675 6.3652825 0.68613613
-1.902373 6.2652764 0.68446183
-2.4170897 6.2840509 0.70381773
-2.6206152 6.351337 0.71822995
-2.8020897 6.3519096 0.72573268
-10.788632 20.330908 2.4059882
-11.387441 20.262709 2.4297388
-12.046494 20.273771 2.465219
-12.725459 20.285173 2.5032268
-28.522446 -6.3883524 3.0554631
-27.974926 -6.9787369 3.0139775
-28.073997 -7.7276549 3.0438664
-28.2085 -8.5021191 3.0798035
-27.078316 -8.8797169 2.9789433
-11.094228 -7.3060436 1.3886253
-10.953095 -7.9965539 1.4176543
-10.126914 -7.7748427 1.3346231
-10.423379 -8.4099398 1.4000416
-9.6932907 -8.625308 1.356361
-15.675478 -21.661795 2.7951226
-14.906386 -21.682064 2.7505078
-13.41041 -21.677038 2.6645849
-10.034092 -21.687101 2.497957
-9.4058199 -21.687798 2.4711657
-8.1872072 -21.689142 2.4234383
-7.5950193 -21.690861 2.4024327
-7.0124607 -21.691797 2.3830943
-2.3796778 -8.0172052 0.87421781
-5.8733888 -21.693624 2.3493881
-4.2171388 -21.693825 2.3102171
-3.6765525 -21.695879 2.300313
-3.1402831 -21.697914 2.2918243
-2.6076465 -21.699932 2.2847221
-2.0779784 -21.701939 2.2789936
-1.550703 -21.703695 2.2745817
-1.0250586 -21.704664 2.2714262
-0.50057614 -21.705629 2.269603
1.0720898 -21.708515 2.2720671
1.5980371 -21.708876 2.2754805
2.6564453 -21.711073 2.2864943
3.1901269 -21.712177 2.2940528
3.7276464 -21.713287 2.3030066
5.3740039 -21.731934 2.3401773
5.9346871 -21.73435 2.3551815
6.5029297 -21.736801 2.3717651
8.2548532 -21.726681 2.4296105
9.4793749 -21.728973 2.4781826
10.110928 -21.730156 2.5054197
10.758672 -21.734934 2.5351791
12.798662 -21.74205 2.6373572
5.4953122 -7.5595484 0.97697157
6.3420701 -7.8934703 1.0584848
23.209286 -8.1800318 2.5724633
18.562246 10.282194 2.2182124
17.345507 10.733328 2.1322875
17.425575 11.373398 2.1752446
15.996133 11.578183 2.0642176
14.759844 11.80925 1.9759932
14.470595 12.162044 1.9759983
14.629726 12.910881 2.0396912
18.260361 22.637119 3.0403008
15.029511 22.827803 2.8570721
14.86705 23.813034 2.9346063
2.9275975 6.2602167 0.72243333
1.9144336 6.3543253 0.6937387
1.748457 6.3548408 0.68898571
1.5846679 6.3553457 0.68469387
1.2626562 6.3563447 0.67744017
1.1040039 6.3568363 0.6744566
0.94666016 6.3573246 0.67188722
0.79042965 6.3578095 0.66972733
0.63508785 6.3582916 0.66796875
0.17270507 6.3597307 0.66505706
0.019179687 6.3602104 0.66486466
-0.13435547 6.3606892 0.66505963
-0.4421289 6.3616495 0.66661561
-1.0656934 6.3636017 0.67447948
-1.3845019 6.3646011 0.68087995
-1.7102051 6.365623 0.68902403
-2.0121191 6.2656231 0.68791884
-2.1804492 6.2661514 0.69355237
-2.3581054 6.283864 0.70160979
-2.5598536 6.3511453 0.7158125
-2.9241016 6.3522954 0.73100996
-3.1123145 6.35289 0.73950833
-10.574238 20.327309 2.3952296
-11.167988 20.259026 2.4182456
-11.820635 20.269983 2.4529014
-12.492656 20.281267 2.4900305
-27.643583 -8.0853577 3.0107911
-27.539639 -8.7818842 3.021682
-26.199589 -9.0567074 2.8977954
-12.046992 -7.3866477 1.4772105
-10.859834 -7.4025812 1.3738829
-10.390654 -7.8429556 1.3608711
-10.552226 -8.3721848 1.4080909
-17.001825 -21.963388 2.903471
-15.161083 -21.670134 2.7646551
-13.65705 -21.676796 2.6782188
-12.937441 -21.677502 2.6389482
-12.238252 -21.678188 2.6023114
-11.557793 -21.678854 2.5681505
-10.897968 -21.68615 2.5371125
-10.250479 -21.686863 2.5075176
-8.3907127 -21.688917 2.4310019
-7.2090917 -21.691481 2.3894691
-2.4439549 -7.9931865 0.87375289
-6.064404 -21.693317 2.3546553
-2.7880175 -21.699249 2.2869775
-1.2032715 -21.704336 2.272347
0.36952147 -21.707228 2.2694972
2.4761133 -21.710701 2.2842417
3.5447752 -21.71291 2.2998099
4.6335545 -21.728745 2.3224869
5.1853318 -21.731121 2.3354409
5.7436228 -21.733528 2.349915
6.3091893 -21.735964 2.3659563
8.6540432 -21.72743 2.4448128
9.8950481 -21.729753 2.4959612
11.194394 -21.736454 2.5558488
11.86792 -21.738806 2.5890605
12.55956 -21.741219 2.6246893
13.270029 -21.742245 2.6627104
5.6779003 -7.9467444 1.0209684
5.8426461 -7.7736645 1.0165533
6.5290818 -7.8659921 1.0686275
6.964365 -7.6110315 1.0784374
22.242744 -9.2813931 2.5194566
22.920467 -8.921052 2.5710809
23.075312 -7.7214532 2.5436466
23.615059 -7.2732611 2.5830364
17.398691 11.153845 2.1604195
17.477129 11.808752 2.204915
14.874238 11.70228 1.9784095
14.183926 11.724233 1.9236751
14.203418 13.58499 2.0545566
14.797705 14.853552 2.19175
15.205449 22.688272 2.8551061
14.859385 23.372429 2.8952105
14.882607 24.706316 3.0150628
3.3736424 6.2660294 0.74392152
3.177705 6.2594461 0.73381835
2.8070116 6.2605877 0.71721965
2.7516308 6.5564933 0.74329329
2.1405175 6.3536272 0.70085323
1.9712793 6.3541508 0.69545835
1.6400195 6.355175 0.68609971
1.3168163 6.3561773 0.67854947
1.1576757 6.3566689 0.6754213
0.84333009 6.3576455 0.67041546
0.68770504 6.358129 0.66852081
0.53287107 6.3586102 0.66702527
-0.23586914 6.3610063 0.66540188
-0.69927734 6.3624554 0.66910094
-1.3299805 6.3644304 0.67967361
-1.4912597 6.3649368 0.68337309
-1.6543847 6.3654485 0.68751568
-1.8195995 6.3659673 0.69211364
6.4534569 -8.1535597 0.85078156
6.9028025 -7.5305305 0.83581829
22.591299 -8.7702351 1.9827766
22.788565 -8.2196941 1.9821004
23.021269 -7.0684018 1.9703435
18.056309 10.402612 1.7049718
18.561815 11.922309 1.804983
15.422548 12.155524 1.6066651
14.516562 12.020574 1.54206
14.369941 13.118066 1.5919456
4.9386716 6.3376789 0.65738416
4.465488 6.3391337 0.63442045
4.2408299 6.3398261 0.62406266
4.0232615 6.3404961 0.61439008
3.812207 6.3411455 0.60535902
3.6071484 6.3417778 0.59693265
2.9834666 6.2599053 0.56736785
2.8003905 6.2604718 0.56112945
2.6592479 6.3518877 0.56340361
2.1343067 6.3535113 0.54837704
1.6340722 6.355063 0.53687024
1.4716504 6.3555646 0.53375667
1.3110058 6.3560638 0.53098631
1.1519238 6.3565569 0.52855068
0.99420899 6.3570476 0.52644211
0.83766598 6.3575335 0.52465546
0.68208009 6.3580179 0.52318388
0.21926758 6.3594575 0.52062666
-0.24143554 6.3608966 0.52080947
-0.39537108 6.3613763 0.52147871
-0.54979491 6.3618584 0.52245373
-0.86083007 6.3628302 0.52533537
-1.017832 6.3633218 0.52725124
-1.1760741 6.3638177 0.52949035
-1.3357519 6.3643169 0.53205961
-1.4970899 6.3648224 0.53496736
-1.660293 6.365335 0.53822201
-1.8255858 6.3658524 0.54183471
-1.9615722 6.2653298 0.53715163
-2.129082 6.2658563 0.54144561
-2.2993751 6.2663922 0.54612702
-2.4795411 6.284112 0.55272961
-2.6849706 6.3514009 0.56418395
-3.2460644 6.353168 0.58372068
-3.8506737 6.3550739 0.60795945
-4.5112696 6.3571625 0.63778609
-4.9905958 6.3586774 0.66135418
-5.2440915 6.3594794 0.67440778
-6.3720798 6.3630509 0.7367776
-6.6883688 6.3640542 0.75536925
-7.1008496 6.4372578 0.78417188
-21.091366 16.505199 2.1912413
-21.487148 15.994119 2.1916149
-28.300722 -7.3199096 2.3917124
-28.184395 -8.0202417 2.3975437
-27.267988 -8.4759264 2.3363113
-19.790165 -7.7619104 1.7392802
-11.753457 -7.4814544 1.1399341
-11.357832 -7.6208901 1.1190803
-10.92708 -7.7206907 1.094682
-10.540839 -8.238163 1.0945801
-9.8076267 -8.4582224 1.0596343
-17.787764 -22.634609 2.3553565
-14.638847 -21.691397 2.1410935
-13.879453 -21.676558 2.1059406
-12.448125 -21.677961 2.045275
-11.762168 -21.678635 2.0179615
-9.8078613 -21.687109 1.9474199
-9.1843843 -21.687799 1.9270115
-6.8064551 -21.692289 1.8601435
-4.0235057 -21.695513 1.8053529
-2.418076 -21.701593 1.7865742
-1.8893456 -21.703533 1.782462
-1.3626269 -21.704502 1.779322
-0.83746094 -21.705471 1.7772261
-0.31323242 -21.706432 1.7761662
0.73488277 -21.708359 1.7771574
2.3153808 -21.711149 1.7864457
3.381953 -21.713364 1.7979716
3.9210351 -21.714479 1.8053703
4.4673729 -21.727591 1.8149018
5.0173044 -21.729958 1.8246837
5.5735254 -21.732351 1.8356487
6.1368065 -21.734776 1.8478281
6.7079391 -21.737238 1.8612614
7.2829981 -21.725498 1.8747638
9.7038574 -21.730061 1.9471397
11.662197 -21.738703 2.0184047
13.053486 -21.743572 2.0749855
13.777763 -21.743212 2.1060789
5.9061327 -7.9790196 0.81221753
6.4985251 -7.9467931 0.83991408
6.8443065 -7.5905986 0.83623564
13.775849 -7.9480615 1.3012507
22.380262 -8.8999348 1.9705888
23.009657 -8.5130739 2.0073271
19.265507 12.152571 1.8636668
18.096298 12.035124 1.7781508
15.593262 11.49292 1.5849028
15.423633 11.95287 1.5965235
14.108915 12.067322 1.5190012
4.5434666 6.3388944 0.63810027
4.3162498 6.3395953 0.62749952
4.0963283 6.34027 0.61759841
3.8831346 6.3409271 0.60835463
3.6761034 6.3415656 0.59972733
2.8620605 6.2602801 0.56319398
2.7205176 6.3516984 0.56534481
2.3651757 6.352797 0.55462688
2.0222657 6.3538589 0.54555494
1.8547851 6.3543768 0.54159683
1.0475879 6.3568816 0.52712065
0.89067382 6.3573685 0.52522641
0.42534178 6.3588176 0.52142727
0.27142578 6.3592949 0.5207777
-0.035693359 6.3602533 0.52038926
-0.34308594 6.3612127 0.52121675
-0.49733397 6.3616934 0.5220874
-0.80781245 6.3626652 0.52475768
-0.96442384 6.3631549 0.52656496
-1.1222168 6.3636479 0.52869356
-1.4421387 6.3646512 0.53394192
-1.905332 6.2651544 0.53578091
-2.0719335 6.2656779 0.53994644
-2.24125 6.2662101 0.54449403
-2.6237891 6.3512077 0.56223893
-3.1805956 6.352962 0.58128923
-3.5746191 6.3542047 0.59650677
-3.7797265 6.3548503 0.60495698
-3.9908299 6.3555169 0.61401153
-4.9067578 6.3584123 0.65712464
-5.1569333 6.3592033 0.66987562
-5.4171872 6.3600259 0.68353897
-6.579248 6.3637075 0.74890697
-7.1747751 6.2988214 0.78114361
-20.731503 16.499159 2.1678226
-21.438896 16.232786 2.2001786
-27.554565 -8.3180857 2.3549452
-26.895687 -8.8327856 2.316186
-10.670362 -8.1994848 1.1010171
-10.293096 -8.3122463 1.0824786
-9.9286127 -8.4217529 1.0652176
-16.56039 -21.778774 2.2385347
-13.397324 -21.677031 2.0849702
-11.99289 -21.678408 2.0270174
-10.664599 -21.686159 1.9772657
-9.3944721 -21.687569 1.9337627
-7.0020018 -21.69198 1.8649687
-4.2074509 -21.694817 1.8081038
-3.6669335 -21.696865 1.8003709
-2.5980957 -21.700911 1.7882078
-1.5411524 -21.704174 1.7802677
-1.0155274 -21.705141 1.7778208
0.032890625 -21.707069 1.7760359
2.1356249 -21.710779 1.7849107
2.6661718 -21.71188 1.7897712
3.7375586 -21.714098 1.8027339
4.2820115 -21.726793 1.811844
4.8299804 -21.729151 1.8212318
5.3839841 -21.731535 1.8317937
5.9447851 -21.73395 1.8435569
7.089941 -21.738882 1.8708388
8.2659864 -21.727352 1.9020011
8.8724022 -21.728497 1.9202876
10.122764 -21.730846 1.9614345
12.811865 -21.742727 2.064821
14.268984 -21.743752 2.1278954
5.7459569 -7.8970871 0.79905868
6.0871286 -7.9551206 0.81956053
6.4459372 -8.015563 0.84157193
6.612998 -7.8286719 0.83846736
6.9581347 -7.4737329 0.83547741
23.444101 -7.6206145 2.0169454
18.330048 10.750463 1.7386347
19.314688 11.963572 1.8588862
15.194453 11.577336 1.5629328
14.542764 12.8455 1.5875645
14.287812 13.247654 1.5941801
4.622334 6.3386517 0.6418643
4.1701856 6.3400431 0.62088209
3.9547656 6.3407059 0.61142087
3.5424609 6.3419766 0.59434873
2.9241893 6.2600884 0.56531185
2.7494628 6.276751 0.56065995
2.2506347 6.3531513 0.55145431
2.0796678 6.3536811 0.54698318
1.9113476 6.3542023 0.54289842
1.7454296 6.3547158 0.53918517
1.5816797 6.3552237 0.53583235
1.2597265 6.3562226 0.53016704
1.1011132 6.3567157 0.52783811
0.6322754 6.3581729 0.52277786
0.47768554 6.358654 0.52171737
0.016396483 6.3600907 0.52037108
-0.1371289 6.3605695 0.52052838
-0.59953123 6.3620148 0.52283245
-0.75488281 6.3624992 0.52421719
-0.91114253 6.3629875 0.52591628
-1.2271973 6.3639774 0.5302791
-1.3873925 6.3644791 0.53295684
-1.8595605 6.2996159 0.53740585
-2.0150976 6.2654972 0.5384897
-2.1834667 6.2660284 0.54290617
-2.5630274 6.3510175 0.5603441
-2.7433007 6.3515849 0.5660733
-3.7094727 6.3546281 0.60202312
-4.1338673 6.3559685 0.62034422
-4.3561521 6.3566718 0.63049406
-5.0709667 6.3589311 0.66545045
-5.8741503 6.3614726 0.70844144
-6.4719825 6.3633671 0.74260408
-6.7934375 6.3643875 0.76163942
-20.379267 16.493244 2.145041
-21.387489 16.47114 2.2086716
-27.440205 -8.0389595 2.3394678
-27.984945 -8.9372816 2.4036043
-10.840849 -7.396543 1.07376
-10.801415 -8.1603785 1.1076062
-10.050918 -8.384923 1.0709361
-9.6942482 -8.4924231 1.0544697
-16.964384 -21.934895 2.2688522
-14.396279 -21.692875 2.1301579
-12.924561 -21.677494 2.0649278
-12.225693 -21.678181 2.0362883
-10.885938 -21.685915 1.985305
-10.23873 -21.68663 1.9621751
-8.9867678 -21.688019 1.9207826
-2.4392188 -7.990253 0.68353313
-6.0541992 -21.693499 1.8427446
-5.4937501 -21.694393 1.8310231
-3.3122168 -21.69821 1.7958704
-2.2478905 -21.702236 1.7851368
0.90344727 -21.70867 1.7777015
1.9562011 -21.710405 1.783502
3.0183983 -21.712612 1.79357
4.0951953 -21.714838 1.8079859
5.1952538 -21.730722 1.8280772
6.3193846 -21.735563 1.8520039
6.8932028 -21.738033 1.865846
7.4709764 -21.725855 1.8797389
9.2796288 -21.729261 1.9331843
10.549609 -21.73481 1.9767107
11.206748 -21.737108 2.0009406
11.880605 -21.73947 2.0269673
12.572637 -21.74189 2.0548913
14.01539 -21.743473 2.1165655
5.5909371 -7.8178082 0.78637815
6.5542383 -7.8892875 0.83918303
6.7271776 -7.7109962 0.83724666
6.8996778 -7.5337296 0.83583951
23.427109 -7.8277926 2.0209317
18.041229 10.383442 1.7031184
18.564697 11.912726 1.8047566
14.940829 11.191882 1.5273664
19.466133 22.616692 2.4414859
5.1932516 6.3368974 0.67034012
4.9431052 6.3376651 0.65760618
4.7021484 6.3384061 0.64571774
4.2448144 6.3398123 0.62424344
4.0271287 6.3404837 0.61455858
3.8159568 6.3411331 0.60551679
3.6108007 6.3417668 0.59708035
3.370039 6.2658963 0.5821057
2.9868066 6.2598953 0.56748384
2.6624901 6.3518767 0.56350708
2.4842479 6.3524284 0.55807203
2.137373 6.3535028 0.54845703
1.8014746 6.3545427 0.54040402
1.3138964 6.3560538 0.53103334
0.99706054 6.357039 0.52647781
0.68489254 6.3580084 0.52320707
-0.23865233 6.3608866 0.5207991
-0.54700196 6.3618488 0.52243257
-0.7020703 6.3623343 0.52371216
-0.85799801 6.3628216 0.52530378
-1.1731933 6.3638091 0.52944672
-1.3328515 6.3643084 0.5320102
-1.4941504 6.3648138 0.53491241
-1.6573242 6.3653264 0.53816056
-1.8225781 6.3658438 0.54176635
-2.2962792 6.2663822 0.5460397
-2.4763672 6.284101 0.55263352
-2.8644824 6.3519659 0.57010484
-3.6399024 6.3544097 0.59915799
-3.8468847 6.355063 0.60779953
-4.2799025 6.356431 0.6269716
-4.5070996 6.3571477 0.63758802
-4.9861035 6.3586626 0.66112626
-5.2394238 6.3594646 0.67416424
-5.5030956 6.3602982 0.68813473
-6.0654783 6.3620791 0.71918958
-6.3665137 6.3630338 0.73645568
-7.6349316 6.2832632 0.80901229
-21.485292 16.00729 2.1921349
-28.302221 -7.3071036 2.3915689
-27.283144 -8.4675732 2.3372955
-11.959717 -7.2061033 1.1424187
-11.757099 -7.4765854 1.1399721
-11.363809 -7.6177325 1.119342
-11.061445 -8.2153997 1.1273348
-9.8140135 -8.4562941 1.0599289
-16.22332 -21.682451 2.2156334
-14.652519 -21.691313 2.1417146
-13.16624 -21.677258 2.0751076
-11.774355 -21.678623 2.0184388
-11.10584 -21.679277 1.9929545
-10.456709 -21.686388 1.9698329
-9.8192482 -21.687098 1.947801
-9.1955366 -21.687788 1.9273658
-7.9848437 -21.689133 1.8910023
-7.3962889 -21.691345 1.8750819
-6.8168554 -21.692274 1.8603953
-6.2460938 -21.693188 1.8470063
-3.4942381 -21.697519 1.7981269
-2.4276659 -21.701555 1.7866554
-1.8988965 -21.703516 1.7825294
-1.3721386 -21.704485 1.779369
-0.84695309 -21.705454 1.7772523
-0.32270506 -21.706415 1.7761793
0.72540039 -21.708342 1.7771326
1.2504492 -21.708935 1.7791319
1.777041 -21.710032 1.7822165
2.3057714 -21.71113 1.7863581
3.3722167 -21.713343 1.7978456
3.9112401 -21.71446 1.8052287
4.4574704 -21.727549 1.8147377
5.0073047 -21.729914 1.8244984
6.126533 -21.734732 1.8475965
6.6975293 -21.737192 1.861008
7.2724509 -21.725477 1.8744878
8.4595795 -21.727716 1.9077138
9.0697651 -21.728867 1.9264815
10.330166 -21.734039 1.9688826
11.64999 -21.738661 2.0179307
13.040556 -21.743526 2.0744398
14.51165 -21.744022 2.1388719
6.4954004 -7.9500275 0.83995634
6.8411913 -7.5937972 0.83625931
23.460371 -7.4253016 2.0133355
18.615126 11.112566 1.7737986
18.069746 12.006121 1.7750263
16.466797 11.523383 1.6444126
4.782959 6.3381572 0.64966154
4.3203025 6.339582 0.62768495
4.1002536 6.3402581 0.61777234
3.2425292 6.2662907 0.57726789
3.049912 6.2597003 0.56971222
2.865371 6.2602692 0.5633055
2.7237988 6.3516889 0.56545025
2.5443652 6.3522429 0.55986875
2.36833 6.3527884 0.55471605
2.1954002 6.353322 0.5499751
2.0253124 6.3538494 0.54562944
1.5294824 6.3553848 0.53483033
0.73757809 6.3578458 0.52367383
0.42813477 6.358808 0.52144194
0.27420899 6.3592877 0.52078629
0.12058593 6.359766 0.52043641
-0.032919921 6.3602448 0.52038878
-0.34029296 6.3612041 0.52120465
-0.64936525 6.3621697 0.52324265
-1.1193554 6.3636394 0.52865219
-1.4392188 6.3646417 0.53388882
-1.76625 6.3656669 0.54050153
-2.0688965 6.2656684 0.53986663
-2.2381737 6.2662005 0.54440838
-3.7759764 6.3548379 0.60479951
-4.4291501 6.3569021 0.6339041
-4.6615329 6.357636 0.64500988
-4.9023337 6.3583975 0.65690184
-5.1523438 6.3591876 0.66963834
-5.4124022 6.3600116 0.68328428
-5.6834278 6.3608694 0.6979121
-6.2627149 6.3627057 0.73045409
-6.5734863 6.3636894 0.74856609
-6.9002633 6.3647256 0.76805711
-7.1684179 6.2988005 0.78075713
-7.5082226 6.2828608 0.80101365
-20.712538 16.498842 2.1665895
-21.436171 16.245451 2.2006278
-28.130424 -7.0175271 2.3721135
-26.920088 -8.8278303 2.3179545
-11.476885 -7.5580387 1.124343
-10.677304 -8.1974106 1.1013635
-10.299805 -8.310236 1.0828044
-9.9351168 -8.4197969 1.0655198
-15.675478 -21.661774 2.1877031
-14.1562 -21.694338 2.1194627
-13.4104 -21.677019 2.0855317
-12.005254 -21.678398 2.0275078
-8.7904491 -21.688236 1.9147062
-7.595078 -21.691025 1.8803709
-7.0124998 -21.691959 1.865232
-2.3799901 -8.01826 0.68432951
-5.8734274 -21.693787 1.8388466
-5.3152146 -21.694679 1.8275157
-4.7629199 -21.692707 1.8171345
-3.1404004 -21.69886 1.7938588
-1.5507226 -21.704157 1.7803224
-1.0250781 -21.705124 1.7778541
-0.50058591 -21.706089 1.7764262
0.54740232 -21.708015 1.7766756
1.5981054 -21.709658 1.7810535
2.656543 -21.711861 1.7896739
3.190244 -21.712965 1.7955903
4.2721481 -21.726753 1.8116847
4.8200192 -21.729109 1.8210523
5.9345703 -21.733906 1.8433344
7.0794239 -21.738838 1.8705702
7.6599607 -21.72621 1.8848475
8.8613281 -21.728474 1.9199415
10.758985 -21.735542 1.9843065
12.799052 -21.742683 2.0642848
13.516093 -21.742924 2.0946774
5.7375584 -7.8927927 0.79837185
6.0871482 -7.9623566 0.82003081
6.4463573 -8.0232553 0.84208494
6.6098633 -7.8319016 0.83850414
6.9550095 -7.4769311 0.83549511
22.78204 -8.6530056 1.9939101
23.551064 -8.3004856 2.0430799
24.689453 -7.3833423 2.1084406
19.317314 11.953476 1.8586311
18.082216 12.43437 1.7954942
16.462559 11.915793 1.6627443
15.180556 11.55622 1.5609843
14.29248 13.24031 1.5940477
14.035419 13.646167 1.6016545
19.167227 22.621696 2.425926
4.8647461 6.3379068 0.65369904
4.6265821 6.3386393 0.64206833
4.3966112 6.3393464 0.63120633
3.9586327 6.340694 0.61158645
3.5461035 6.3419647 0.59449339
3.3077734 6.2660894 0.57972521
3.1135254 6.2595024 0.57199723
2.9275486 6.2600775 0.56542736
2.6048729 6.352056 0.5617137
2.2537694 6.3531413 0.5515399
1.7484277 6.3547063 0.53924912
1.5846386 6.3552141 0.53589004
1.4227734 6.3557158 0.53288132
1.2626269 6.356214 0.5302127
1.1039844 6.3567071 0.52787685
0.94664061 6.3571954 0.52586746
0.79040039 6.3576813 0.52417588
0.63507813 6.3581634 0.52279907
0.4804785 6.3586454 0.52173382
0.32640624 6.3591242 0.52097458
0.17270507 6.3596039 0.52052063
-0.13435547 6.3605609 0.52052289
-0.44211912 6.3615212 0.52174038
-1.0656641 6.363471 0.52789551
-1.2243164 6.3639688 0.53023392
-1.3844824 6.3644695 0.5329054
-1.5463574 6.3649774 0.53591734
-1.8595214 6.309638 0.53819245
-2.5597949 6.3510075 0.56024581
-3.112246 6.352746 0.5787909
-3.5026758 6.3539777 0.59362638
-3.9146483 6.3552766 0.61070389
-4.1299119 6.3559561 0.62016875
-4.8196092 6.3581367 0.65277493
-5.3229489 6.3597283 0.67854661
-5.8689842 6.3614569 0.70815474
-6.1606345 6.362381 0.72460049
-6.7874804 6.364368 0.76128018
-7.1011715 6.3435063 0.7790634
-27.497465 -8.0426331 2.3440516
-28.123104 -8.9679413 2.4151387
-11.591016 -7.4978337 1.1294717
-10.836816 -7.3868985 1.0730429
-10.92914 -7.8426976 1.1006101
-10.8125 -8.1613693 1.1083792
-10.426406 -8.2723665 1.0889561
-10.057422 -8.3829584 1.0712416
-9.7005854 -8.4905138 1.0547572
-16.996992 -21.957155 2.2718701
-15.161308 -21.670462 2.1638935
-13.657022 -21.676775 2.0962019
-12.238222 -21.678169 2.0367908
-11.557783 -21.678835 2.0100553
-10.250371 -21.686619 1.9625782
-8.9979095 -21.688007 1.9211274
-8.390605 -21.688681 1.9026942
-7.794951 -21.690708 1.8858098
-7.2091403 -21.691645 1.8702177
-6.0644531 -21.693481 1.8429692
-4.401865 -21.694077 1.8111405
-3.8596485 -21.696135 1.8030064
-2.2575097 -21.7022 1.7852165
-1.7294629 -21.703827 1.7813963
-1.2032909 -21.704798 1.7785732
-0.6784668 -21.705763 1.776792
1.9466308 -21.710384 1.7834303
3.5449023 -21.713701 1.8000993
4.6334567 -21.728306 1.8177433
6.8827438 -21.737989 1.865586
8.6542969 -21.728085 1.9135822
9.2683983 -21.729242 1.9328229
9.8953419 -21.730421 1.9535978
11.868261 -21.739426 2.0264835
12.559932 -21.741846 2.0543685
13.270292 -21.742651 2.0841103
14.756767 -21.744291 2.1500902
5.5828028 -7.8136516 0.78571361
6.5511036 -7.8925219 0.839221
6.8965626 -7.5369291 0.83585995
23.07543 -7.107059 1.9755082
18.912266 11.489826 1.8105528
18.567577 11.903183 1.8045325
14.927705 11.171921 1.5255257
15.422656 12.133752 1.6055686
14.539287 12.017976 1.5433583
13.926005 12.088418 1.5087923
14.379189 13.103477 1.5917009
14.12292 13.50798 1.59896
19.483154 22.616405 2.4423771
4.9475684 6.3376508 0.65783125
4.7064548 6.3383927 0.64592665
4.4737697 6.3391094 0.63480866
4.0310254 6.3404717 0.61472917
3.8197362 6.3411222 0.60567641
3.6144726 6.3417544 0.59722805
3.3735743 6.2658868 0.5822441
2.9901757 6.2598844 0.5676024
2.806953 6.2604508 0.56134611
2.6657715 6.3518667 0.5636096
2.4874609 6.3524189 0.55816758
2.1404784 6.3534927 0.54853666
1.9712499 6.3540154 0.54431534
1.4774902 6.3555474 0.53386384
1.3167969 6.3560467 0.53108048
0.68769532 6.3580008 0.52323121
0.53286129 6.3584809 0.52206051
0.37864256 6.3589616 0.52119857
-0.082236327 6.3603983 0.5204379
-0.23585936 6.360878 0.52079099
-0.38978514 6.3613577 0.52144897
-0.54419923 6.3618402 0.52241224
-0.69926757 6.3623261 0.52368635
-0.85517573 6.362813 0.52527219
-1.6543456 6.3653169 0.53809857
-1.9555566 6.2653108 0.53700364
-2.1229687 6.2658367 0.54128218
22.92251 -8.2680073 1.4422194
24.477177 -7.5154204 1.5154277
19.630009 10.080442 1.3060347
17.770079 10.817104 1.231254
18.402597 11.820056 1.2944705
8.326972 6.2432866 0.61596709
7.6433496 6.3291826 0.58733076
7.2796679 6.3303032 0.57096219
6.9355273 6.3313627 0.55579513
5.4484863 6.3359451 0.4945755
4.4653907 6.3389788 0.45891005
4.2407322 6.3396735 0.45141813
4.0231638 6.3403449 0.44442168
3.8121092 6.3409977 0.43788925
3.6070604 6.3416314 0.43179381
3.3664453 6.2657657 0.42097288
3.1706934 6.2591863 0.41526747
2.9833984 6.2597661 0.41040847
2.6591895 6.3517499 0.40754196
2.4810059 6.3523026 0.40361679
1.471621 6.3554339 0.38609588
1.1519042 6.3564286 0.38233048
0.68206054 6.3578897 0.37844878
0.52726561 6.3583722 0.3776094
0.3730664 6.3588505 0.37699339
0.21926758 6.3593302 0.37659988
0.065712892 6.3598099 0.37642363
-0.087802731 6.3602886 0.37646729
-0.24142578 6.3607669 0.3767311
-0.54978514 6.3617291 0.37792036
-1.1760449 6.363687 0.38301009
-1.9615332 6.2651982 0.38855162
-2.1290331 6.2657242 0.39165708
-2.299336 6.2662578 0.39504576
-2.4794922 6.2839751 0.39981872
-2.6849217 6.3512626 0.40810561
-2.8677635 6.3518362 0.41247022
-3.0546484 6.3524222 0.41717589
-3.2459862 6.353024 0.42223769
-3.4421289 6.353642 0.42767623
-4.2838378 6.3562884 0.45365599
-4.990459 6.3585148 0.47839171
-5.2439551 6.359313 0.48783416
-5.5078125 6.3601432 0.49795225
-6.3718944 6.3628702 0.53294951
-6.6881833 6.3638678 0.54639602
-7.6415038 6.2830853 0.58550996
-8.5803318 6.3868623 0.63306779
-9.0292578 6.3882804 0.65462279
-11.189834 6.3951154 0.76279598
-11.84832 6.3971977 0.79692686
-28.011641 -7.2451348 1.7124226
-19.790087 -7.7618847 1.2581432
-11.60582 -7.3874731 0.81423748
-10.050068 -8.2528915 0.76966339
-16.207714 -21.68125 1.6021168
-15.391259 -21.660028 1.5726341
-14.638955 -21.691557 1.5488161
-13.879443 -21.676538 1.523376
-13.15332 -21.67725 1.5006782
-10.444921 -21.686157 1.4246047
-9.8077536 -21.686867 1.4086921
-8.5733881 -21.688242 1.3802708
-7.9740133 -21.688908 1.3676535
-7.3857713 -21.691528 1.3561914
-5.6731052 -21.694269 1.3271493
-5.1173339 -21.695158 1.3192661
-4.567451 -21.694401 1.3121308
-4.0236816 -21.696463 1.3059978
-2.4181933 -21.702528 1.2924098
-1.362666 -21.70496 1.2871383
-0.83748043 -21.705927 1.2856214
-0.31323242 -21.706892 1.2848568
0.73490232 -21.708815 1.2855734
1.2600098 -21.709734 1.2870523
1.7866601 -21.710829 1.2892988
2.8470409 -21.713039 1.2960838
3.9211814 -21.715271 1.3059977
5.5734177 -21.731911 1.3278308
6.1366796 -21.734333 1.3366382
6.7077928 -21.73679 1.3463476
7.2832127 -21.726137 1.3561914
7.8717575 -21.727253 1.3677223
8.4707613 -21.72839 1.3802617
9.0812006 -21.729546 1.3938568
10.34209 -21.73468 1.4245695
10.99418 -21.736969 1.4416932
13.053838 -21.744204 1.5010422
6.119863 -8.6991882 0.62950349
5.8059764 -7.8437176 0.57757229
6.2632713 -8.0478573 0.6035614
6.6074023 -7.6933231 0.60020977
23.783525 -9.4579744 1.5148487
23.210772 -7.9561367 1.4521931
22.993368 -7.2664437 1.4272004
18.562635 11.092216 1.2798321
18.16876 11.46075 1.2713782
17.485487 11.628906 1.2428486
8.4700584 6.242846 0.62274855
8.0601559 6.2464361 0.60352403
7.4008007 6.3299308 0.5763762
7.0502539 6.3310089 0.5608151
6.4021482 6.3330045 0.53297406
6.1012988 6.3339324 0.52050567
5.5391603 6.3356657 0.49807861
5.0223145 6.3372598 0.47857207
4.7784958 6.3380117 0.46978194
4.5433593 6.338737 0.46157178
4.0962305 6.3401189 0.44674286
3.8830371 6.3407779 0.44005659
3.6760156 6.3414178 0.4338153
3.2389941 6.2661614 0.41747651
3.0464647 6.2595706 0.41201735
2.720459 6.3515592 0.40894622
2.5410838 6.3521161 0.40491453
2.3651268 6.3526602 0.40119186
1.8547461 6.3542447 0.39176789
1.5265234 6.3552628 0.38683286
1.2057129 6.3562603 0.38290235
1.0475683 6.3567524 0.38129637
0.27142578 6.3591681 0.37670761
-0.18927734 6.3606048 0.37661695
-0.4973242 6.3615665 0.3776564
-0.6521582 6.3620501 0.3785083
-1.1221973 6.3635187 0.38243362
-1.2813672 6.3640156 0.38421097
-1.4421093 6.3645196 0.38623062
-1.6046484 6.3650284 0.38849914
-1.7691991 6.3655438 0.39102355
-1.9052832 6.2650223 0.38756073
-2.2412012 6.2660761 0.39386168
-2.6237304 6.3510699 0.40669891
-2.8052635 6.3516412 0.41095138
-2.9907422 6.352222 0.41553923
-3.5745409 6.3540568 0.43148696
-4.6656737 6.3574905 0.46671951
-4.9066305 6.3582501 0.47533172
-5.9715233 6.3616071 0.51639861
-6.5790524 6.3635235 0.54172134
-7.5146875 6.2826834 0.57971692
-8.4345999 6.3864017 0.62615341
-8.8735056 6.3877888 0.64710158
-9.8473139 6.3908682 0.69479233
-10.390752 6.3925872 0.72203887
-11.61834 6.3964691 0.78495419
-12.911621 6.3167706 0.85072386
-27.784359 -6.9440265 1.6949931
-27.163202 -7.4896703 1.6676402
-27.965599 -8.4421635 1.7289143
-26.515995 -8.7080946 1.6518116
-11.474443 -7.5635777 0.81337875
-11.233125 -7.7997808 0.80938369
-11.034385 -8.0632935 0.80885208
-10.543711 -8.1021767 0.78699172
-14.89332 -21.68335 1.5568882
-13.397305 -21.67701 1.5082066
-11.31876 -21.67905 1.4474318
-10.022373 -21.686628 1.4139613
-2.3781152 -8.0248432 0.49536666
-5.8632517 -21.693964 1.3300207
-3.6670799 -21.697809 1.3023916
-2.5982323 -21.701851 1.2935929
-0.49106443 -21.706564 1.2850322
1.0816699 -21.70936 1.2864628
4.2819238 -21.72636 1.3106095
5.9446583 -21.733507 1.3335476
7.0897946 -21.738432 1.3532834
7.6708789 -21.726871 1.3636979
8.2662306 -21.728001 1.3758929
8.8726759 -21.729151 1.3891237
9.4912395 -21.730322 1.4034342
10.123086 -21.731516 1.4188881
10.771103 -21.736189 1.4357463
14.269248 -21.744167 1.5392876
15.032842 -21.745016 1.5645798
5.6500683 -7.7653074 0.56837171
6.3773241 -7.9302545 0.60229015
6.5492382 -7.7531881 0.60067427
20.264608 -21.766193 1.7601142
22.993387 -8.0926485 1.4426885
18.742304 10.392695 1.2683865
17.942997 11.11395 1.2491668
8.6163282 6.2423954 0.62972534
8.1943655 6.2436943 0.60972226
7.1670604 6.3306499 0.56596375
6.8287888 6.3316913 0.55115968
6.5075583 6.3326812 0.53741407
5.910078 6.3345218 0.51274443
5.3638182 6.3362064 0.4913339
4.6222167 6.3384943 0.46429503
4.3923926 6.3392048 0.4564479
4.1700778 6.3398919 0.44911742
3.9546776 6.3405571 0.44227371
3.7456055 6.3412027 0.43588468
3.3041992 6.2659588 0.41925186
2.9241307 6.2599506 0.40892136
1.9112988 6.3540692 0.39270872
1.7453905 6.3545842 0.39002335
1.5816406 6.355092 0.3875981
1.4198145 6.3555951 0.38542542
1.259707 6.356092 0.38350067
0.94377929 6.3570743 0.38036558
0.78756833 6.3575616 0.37914672
0.63225585 6.3580437 0.3781549
0.47767577 6.3585258 0.37738693
0.16992188 6.3594851 0.37651914
0.016406249 6.3599639 0.37641326
-0.1371289 6.3604412 0.3765274
-0.44489256 6.361402 0.37741759
-1.0685059 6.3633513 0.38188627
-1.227168 6.3638468 0.38358063
-1.3873535 6.3643475 0.38551757
-1.5492675 6.3648553 0.3877005
-1.7131152 6.3653679 0.39013779
-1.8606055 6.3031683 0.38896498
-2.0150585 6.2653666 0.38951889
-2.7432323 6.3514457 0.40947127
-2.9273338 6.3520231 0.41394347
-3.1156249 6.3526154 0.41876113
-3.3084569 6.3532205 0.42394301
-3.5062206 6.3538423 0.42950714
-3.7093945 6.3544817 0.43547636
-3.9183886 6.3551397 0.44187483
-4.3560448 6.3565154 0.45607039
-4.8238769 6.3579898 0.47234374
-5.3275585 6.3595767 0.49100798
-5.8739939 6.3612995 0.51245117
-7.1027246 6.339323 0.56345445
-7.8889647 6.3846784 0.60066098
-8.2920017 6.3859515 0.61943161
-9.180088 6.3887577 0.66194594
-11.395165 6.3957648 0.7733891
-12.072646 6.3979068 0.80865294
-28.031898 -7.4827175 1.7171552
-28.070288 -8.2235556 1.7311641
-26.903799 -8.5920038 1.6715263
-11.541875 -7.4731603 0.81379437
-11.300713 -7.7103105 0.80967724
-10.297373 -8.1772776 0.7782402
-9.9349709 -8.2881985 0.76574785
-15.939912 -21.67144 1.5922068
-12.225693 -21.678158 1.4729924
-10.238623 -21.686386 1.4193623
-8.9866695 -21.68778 1.3894235
-7.7843261 -21.690887 1.3639406
-2.4388573 -7.9890451 0.49437407
-6.0542479 -21.693659 1.3329985
-4.3921485 -21.695065 1.3100694
-1.1937597 -21.705271 1.2865669
-0.66895509 -21.706238 1.2852938
1.9562597 -21.711185 1.2901821
3.5547655 -21.714508 1.3022801
4.643291 -21.727913 1.3150022
5.1951561 -21.730282 1.3223524
6.3192477 -21.735117 1.3396587
6.8930664 -21.737585 1.3496726
8.0629883 -21.727617 1.3716395
8.6655664 -21.728756 1.3845136
11.20707 -21.737719 1.4474653
11.880938 -21.740088 1.4662904
14.015654 -21.743883 1.5310926
14.770918 -21.744724 1.5558037
6.1049414 -8.5365419 0.6211406
6.2667284 -8.3303242 0.61696225
6.3187985 -7.9905963 0.60292298
6.6624413 -7.636796 0.59981292
22.722578 -8.8326063 1.4428639
22.911024 -8.2751541 1.4417264
23.114746 -7.7234235 1.4423929
24.469639 -7.524765 1.515165
19.637264 10.073339 1.3062243
18.790546 10.219132 1.2659428
18.845381 10.846265 1.2869022
18.389952 11.800595 1.2932194
8.8863277 6.3276887 0.64564788
7.9935546 6.2946367 0.60217345
7.6501074 6.3291616 0.58763927
6.9415817 6.3313446 0.55605894
6.6147656 6.3323503 0.54196668
6.303916 6.3333087 0.52886963
5.4532714 6.3359308 0.49475998
5.1931052 6.3367329 0.48489165
4.9429784 6.3375053 0.4756822
4.7020216 6.3382478 0.46708161
4.4695115 6.3389664 0.45905074
4.2447166 6.3396597 0.45154968
2.6624413 6.3517399 0.40761551
2.309248 6.3528337 0.40006086
2.1373339 6.3533673 0.39673018
1.9681445 6.3538918 0.39368117
1.3138769 6.3559232 0.38412598
0.99703121 6.3569083 0.3808313
0.8404687 6.3573966 0.3795346
0.68487304 6.3578801 0.37846604
0.53006834 6.3583622 0.37762251
0.3758496 6.3588433 0.37700224
0.068496093 6.3598013 0.3764247
-0.23864257 6.3607583 0.37672424
-0.39256835 6.3612385 0.37720412
-0.54699218 6.3617206 0.37790558
-0.70206052 6.362205 0.37883085
-1.0149707 6.363184 0.38136399
-1.3328124 6.3641763 0.38483322
-1.6572851 6.3651934 0.3892816
-1.8225292 6.3657098 0.39188978
-1.9585253 6.2651887 0.38849822
-2.1259766 6.2657146 0.39159864
-3.438535 6.3536296 0.4275746
-3.8467968 6.3549151 0.43965468
-4.2798047 6.3562751 0.45352218
-4.5069919 6.3569913 0.46120176
-4.9859762 6.3585 0.47822723
-5.2392869 6.3592987 0.48765808
-6.3663378 6.3628521 0.53271574
-7.0148926 6.3648992 0.56060284
-7.2684274 6.2819061 0.56858259
-8.5725002 6.3868375 0.63269466
-9.0208883 6.3882537 0.65421599
-9.5011225 6.3897734 0.67766231
-10.57458 6.3931694 0.7313441
-11.178456 6.3950787 0.76220948
-11.835938 6.3971586 0.79627925
-27.301167 -8.4731541 1.6918479
-11.609404 -7.3826585 0.81426436
-11.368369 -7.6207938 0.81002605
-10.056572 -8.2508993 0.76988536
-17.859325 -22.705359 1.7097081
-16.222832 -21.681805 1.6026798
-14.652637 -21.691475 1.5492653
-13.166221 -21.677237 1.5010725
-12.460654 -21.677929 1.4798591
-11.774345 -21.678602 1.4600798
-11.10583 -21.67926 1.441656
-9.1954298 -21.687548 1.3941844
-7.3963375 -21.691511 1.3563898
-6.8169041 -21.692438 1.3457688
-6.2461524 -21.693352 1.3360802
-5.6832223 -21.694252 1.3272983
-5.1273336 -21.695143 1.3193907
-4.5773339 -21.694365 1.3122476
-1.3721679 -21.704943 1.2871696
-0.84697264 -21.70591 1.2856424
-0.32273436 -21.706875 1.2848613
0.2011914 -21.707836 1.2848306
0.72540039 -21.708797 1.2855557
1.2504883 -21.709713 1.2870213
1.7771094 -21.71081 1.289253
2.8373926 -21.71302 1.2960114
3.911377 -21.715248 1.3059038
4.4573827 -21.727114 1.312703
5.0071974 -21.729477 1.3197634
6.6973825 -21.736742 1.3461708
8.4598141 -21.728369 1.380028
10.330459 -21.734638 1.4242719
11.650303 -21.739277 1.4597539
13.040937 -21.744158 1.5006242
6.1207223 -8.7084665 0.62997985
5.7975583 -7.8394799 0.57707334
6.7754297 -7.5208116 0.59911317
13.770312 -7.9528818 0.94117415
23.784502 -9.4703941 1.5151711
22.696728 -8.4085655 1.4325258
18.838808 10.046342 1.2636099
18.570683 11.086052 1.2800523
17.46792 11.606242 1.2412374
7.4072948 6.3299103 0.5766682
6.4076953 6.3329873 0.53320724
6.1066012 6.3339167 0.5207234
5.8191013 6.3348026 0.50909942
5.5440135 6.33565 0.49826676
5.2802439 6.3364639 0.48816466
5.0268064 6.3372455 0.47873688
4.3201952 6.3394265 0.45403761
4.1001563 6.3401065 0.44686767
3.8868456 6.340766 0.44017288
3.6797071 6.3414068 0.43392378
2.8653026 6.2601323 0.40746978
2.7237401 6.3515506 0.40902159
2.5442967 6.3521061 0.40498412
2.3682811 6.3526506 0.40125686
1.529453 6.3552542 0.38687363
1.3682128 6.3557549 0.38478118
1.0504199 6.3567424 0.38132355
0.89348632 6.3572307 0.37994811
0.58251953 6.3581986 0.37788451
0.42813477 6.3586798 0.37718812
0.12057617 6.3596377 0.37646011
-0.18649414 6.3605962 0.37661117
-0.49453124 6.361557 0.37764281
-0.6493457 6.3620415 0.37849104
-0.80497068 6.3625274 0.37956586
-0.96157223 6.3630157 0.38086897
-1.2784668 6.3640079 0.38417768
-1.4391894 6.364511 0.38619199
-1.7662109 6.3655353 0.39097533
-1.9022949 6.2650127 0.38750839
-2.0688672 6.2655354 0.3905156
-2.4169824 6.2837787 0.39846602
-2.6204979 6.3510599 0.40662506
-2.9873631 6.3522124 0.41545349
-3.1770701 6.3528094 0.42038572
-3.3714452 6.3534198 0.42568785
-3.5708983 6.3540444 0.43137985
-3.7758887 6.3546891 0.43748474
-3.9868846 6.3553543 0.44402647
-4.2044139 6.3560381 0.45103377
-4.4290528 6.3567462 0.45853668
-4.9022169 6.3582368 0.47517258
-5.1522069 6.359024 0.4843843
-5.6832809 6.3606973 0.50483578
-6.2625489 6.3625259 0.52837431
-6.9000487 6.3645368 0.55557418
-7.1682129 6.2986078 0.56475782
-7.507998 6.2826629 0.57941163
-8.0157423 6.3850784 0.60652661
-8.4269142 6.3863773 0.62578946
-8.8653021 6.387763 0.6467067
-11.606279 6.396431 0.78432828
-12.344423 6.4198527 0.82349914
-12.897285 6.3167243 0.84995937
-27.77244 -6.928225 1.6940837
-27.971142 -8.430582 1.7290263
-10.550547 -8.1000948 0.787238
-10.17957 -8.2132244 0.77412611
-14.906826 -21.682716 1.5573097
-13.41039 -21.676996 1.5086098
-12.69791 -21.677694 1.4868977
-10.67624 -21.6859 1.4305885
-10.033867 -21.686613 1.4142467
-7.5951366 -21.691191 1.3602158
-7.012568 -21.692125 1.3492658
-5.8734665 -21.693947 1.3301789
-4.7631249 -21.693661 1.3145207
-3.6768749 -21.697771 1.3024882
-3.1405468 -21.699802 1.2976795
-2.6078613 -21.701813 1.2936598
-0.50059569 -21.706547 1.2850415
0.023369141 -21.70751 1.2847586
0.5474121 -21.708471 1.2852223
2.6566405 -21.712643 1.2946447
3.7279198 -21.71487 1.3039972
4.2720604 -21.726315 1.3104945
5.3737888 -21.731052 1.3248956
5.934443 -21.733463 1.3333838
7.079277 -21.738388 1.353096
9.4799414 -21.730299 1.4031667
12.799414 -21.743311 1.4932896
6.092041 -7.968751 0.59366345
6.546123 -7.7563839 0.60070097
18.744892 10.383371 1.2682528
18.720097 10.968185 1.2841123
8.6242476 6.2423711 0.63010204
7.9094825 6.3283648 0.5995186
7.5309372 6.3295293 0.58223617
7.1733885 6.3306317 0.56624234
6.834785 6.3316717 0.55141842
5.6360936 6.3353667 0.50185895
5.3685741 6.3361907 0.49151611
4.8646288 6.3377471 0.47285599
4.6264648 6.3384819 0.46444321
3.7493455 6.3411918 0.43599701
3.113457 6.2593632 0.41375747
1.9143358 6.3540606 0.39275971
1.4227442 6.3555865 0.38546309
1.103955 6.3565764 0.38184357
0.79039061 6.3575516 0.37916702
0.32639647 6.3589969 0.37685072
0.019179687 6.3599553 0.37641403
-0.1343457 6.3604326 0.37652418
-0.28804687 6.3609138 0.37685394
-1.224287 6.3638372 0.38354859
-1.5463183 6.3648467 0.38765806
-1.7101269 6.3653584 0.39009154
-2.0120313 6.265358 0.38946363
-2.3580077 6.2835941 0.39721528
-2.7399414 6.3514347 0.40939361
-2.9239745 6.3520136 0.41386017
-3.1121776 6.3526053 0.41867173
-3.5025976 6.3538308 0.42940336
-3.7056639 6.3544693 0.43536451
-4.5816212 6.3572245 0.46378204
-5.0662794 6.3587542 0.48118606
-5.3228221 6.3595624 0.49082869
-5.5899997 6.3604035 0.50116271
-6.160459 6.3622026 0.5241403
-7.3838086 6.2822709 0.57378036
-7.8818946 6.384655 0.60033357
-8.284482 6.3859272 0.61907744
-8.7132912 6.3872819 0.6394127
-9.1714935 6.388731 0.66152662
-9.6628418 6.390285 0.68564099
-10.191669 6.3919573 0.71200913
-11.383447 6.3957267 0.77278227
-28.033413 -7.4699383 1.7170509
-28.075912 -8.2118196 1.7312901
-11.545459 -7.4683585 0.81381696
-11.304296 -7.7055655 0.8096931
-10.679336 -8.0608644 0.79189515
-10.304004 -8.1752529 0.77847075
-9.9413862 -8.2862282 0.76596481
-16.992226 -21.950989 1.6430171
-15.161543 -21.670786 1.5653212
-14.410029 -21.692951 1.5413508
-13.657022 -21.676754 1.5163323
-12.937412 -21.67746 1.4941002
-10.897724 -21.685654 1.4364122
-8.9978027 -21.687769 1.3896747
-8.3905172 -21.688444 1.3763407
-7.209199 -21.691811 1.3528736
-2.4432127 -7.9907665 0.49454588
-6.0645018 -21.693642 1.3331606
-5.5039158 -21.69454 1.3246672
-4.4020605 -21.695026 1.3101822
-1.7294922 -21.704285 1.2886398
-1.2033203 -21.705254 1.286598
-0.15441406 -21.707182 1.2847712
1.4194726 -21.710066 1.2876512
1.9466991 -21.711164 1.290128
2.4762793 -21.712267 1.2933728
3.5450194 -21.714489 1.3021852
5.1851172 -21.730242 1.3222114
5.7433786 -21.732641 1.3304075
6.3089356 -21.735073 1.3394847
6.8826075 -21.737541 1.3494819
8.0521975 -21.727594 1.3714155
9.8956537 -21.731087 1.4132203
10.538135 -21.735369 1.4296336
11.19502 -21.737675 1.4471357
12.560292 -21.742474 1.4861168
13.270547 -21.743055 1.5076146
14.757051 -21.744709 1.5553422
6.2670603 -8.3383303 0.61735272
6.4878807 -7.8163581 0.60121018
6.6593356 -7.6399779 0.59983289
19.916386 -21.76565 1.7461128
22.89954 -8.2823095 1.441233
23.113827 -7.7343392 1.4425468
18.427685 11.195427 1.2761406
18.377344 11.781233 1.2919747
8.8944626 6.3276639 0.64604032
7.6569138 6.3291411 0.58794814
6.9476757 6.331326 0.55632508
6.6205468 6.3323321 0.54221296
6.3094335 6.3332915 0.52909958
5.7294626 6.3350787 0.50553709
5.4581056 6.335916 0.4949452
4.7063379 6.3382339 0.46723312
4.4736619 6.338953 0.45919174
3.6144042 6.341608 0.43200821
2.8068945 6.260313 0.40605193
2.6657128 6.3517303 0.40768996
2.4874022 6.352282 0.40375441
2.1404297 6.3533573 0.39678755
1.9711914 6.3538837 0.39373413
1.8044434 6.3543997 0.39095291
1.4774609 6.3554153 0.3861731
1.1576366 6.3564105 0.38238981
0.99988282 6.3568997 0.38085601
0.84329098 6.357388 0.37955642
0.53286129 6.3583527 0.3776361
0.22482422 6.359313 0.37660933
-0.23585936 6.3607502 0.37671751
-0.38978514 6.3612309 0.37719268
-0.54418945 6.361712 0.37789199
-0.69924802 6.3621964 0.3788121
-0.85516602 6.3626838 0.3799597
-1.0121192 6.3631744 0.38133636
-1.6543067 6.3651834 0.3892366
-1.8195214 6.3657012 0.39183989
-1.9555273 6.2651787 0.38844451
-2.1229198 6.2657046 0.39154005
6.2614841 -7.9110236 0.36938232
6.4321971 -7.7355127 0.36833128
6.6021676 -7.5610561 0.36750486
23.444384 -9.1014166 0.92075419
22.987431 -7.6697574 0.88722485
13.703281 6.220695 0.55098039
