# .PCD v0.7 - Point Cloud Data file format
VERSION 0.7
FIELDS x y z
SIZE 4 4 4
TYPE F F F
COUNT 1 1 1
WIDTH 1481
HEIGHT 1
VIEWPOINT 0 0 0 1 0 0 0
POINTS 1481
DATA ascii
-5.8215818 6.3571081 0.31559241
-6.4141407 6.3591371 0.33068335
-6.7325487 6.3602281 0.33908942
-7.4216309 6.3625889 0.35790396
-7.7961426 6.3638706 0.36845237
-8.1936331 6.3652344 0.37986854
-8.973115 6.3011312 0.4014295
-9.4266701 6.2856665 0.4148162
-10.101026 6.3887901 0.43757972
-11.27707 6.3928232 0.47460243
-12.674033 6.3976135 0.5197863
-22.804033 6.4209518 0.86736459
-13.084853 -7.5209098 0.55255896
-12.866269 -7.8140883 0.55112892
-16.114697 -21.688925 0.9892742
-15.305137 -21.67252 0.97138417
-13.06664 -21.67535 0.92661184
-12.367715 -21.682247 0.91389275
-11.684248 -21.683203 0.90178639
-9.1125193 -21.689175 0.86131859
-7.905664 -21.691444 0.84526938
-6.1707711 -21.694218 0.82577538
-5.0548534 -21.698755 0.81570286
-3.4246581 -21.703911 0.80445427
-2.8900683 -21.705048 0.80167854
-1.8304101 -21.707294 0.79756767
-1.3040625 -21.708412 0.79621983
-0.7791211 -21.709526 0.79534352
-0.2551074 -21.710985 0.79493749
0.79291993 -21.713474 0.79550314
1.8449023 -21.715967 0.79792911
2.3748436 -21.725977 0.80017036
2.9071093 -21.728407 0.80260873
3.4429004 -21.73086 0.80553257
3.9829588 -21.733332 0.80895269
4.5278907 -21.735825 0.81287467
5.632246 -21.728624 0.82182151
7.3469629 -21.732382 0.83990455
7.9365721 -21.733671 0.84710819
9.1500196 -21.739937 0.86356711
10.413681 -21.744747 0.8827039
4.1864548 -7.7573771 0.32273337
4.5010448 -7.8793712 0.33223015
4.6585741 -7.7167687 0.3300164
5.210371 -8.1781807 0.35502419
14.612383 -21.758959 0.95960534
16.190351 -21.762114 0.99307013
17.022352 -21.763777 1.0115758
17.889874 -21.769657 1.0316306
19.726913 -21.773014 1.0756805
21.157606 -8.3596191 0.83289158
21.357363 -7.8483539 0.83306098
15.057822 6.2905478 0.59747076
14.099336 6.2937779 0.56529993
9.9716501 6.3157959 0.43214867
7.7365036 6.3233385 0.36582267
7.3678708 6.3245811 0.35550499
7.0193067 6.3257604 0.34595099
6.5980663 6.2410607 0.33251107
6.2904391 6.2444286 0.32451576
5.5136619 6.3285165 0.30730048
5.2512889 6.3294044 0.30110282
4.2959571 6.332634 0.28016546
4.0768847 6.333375 0.27576452
3.8644922 6.334094 0.27165747
3.6581933 6.3347912 0.2678231
3.2620506 6.3361325 0.26091635
2.7026465 6.338027 0.25226372
2.5239747 6.338634 0.24979012
2.3486915 6.3392272 0.247508
2.176455 6.3398118 0.24540931
2.0070312 6.3403854 0.24348533
1.840166 6.3409519 0.24173179
1.3344727 6.2588744 0.23429908
0.72449219 6.3519235 0.23406333
0.56970704 6.3524499 0.2335076
0.41555664 6.3529735 0.23309089
0.1084668 6.3540173 0.23266594
-0.044843748 6.3545384 0.23265709
-0.50592774 6.3561072 0.23344429
-0.97261715 6.3576975 0.23547493
-1.4500293 6.3593225 0.23880179
-1.7769629 6.3604369 0.24178413
-1.9437011 6.3610067 0.24351753
-2.1129785 6.3615832 0.24541999
-2.2849998 6.3621702 0.24749854
-3.0065234 6.364635 0.25771078
-3.1968553 6.3652844 0.26078454
-3.3919139 6.365952 0.26408911
-3.7374902 6.2661862 0.26712409
-4.9154491 6.3540087 0.29411596
-5.1658692 6.3548646 0.29983863
-5.6979589 6.3566856 0.31254143
-5.9816208 6.357655 0.3195945
-7.2631054 6.3620443 0.35350457
-8.4266891 6.3660312 0.38665885
-8.863369 6.3660278 0.39952919
-9.2116108 6.2849302 0.40827429
-10.410742 6.389852 0.44722572
-11.0008 6.3918748 0.46581167
-13.113505 6.3991222 0.53422308
-14.714296 6.3208227 0.58631384
-15.952548 6.4014463 0.62932485
-17.148485 6.4055505 0.67021078
-21.896864 6.4178391 0.83541083
-24.590126 6.5673852 0.93185234
-13.181758 -7.3910336 0.55329567
-12.962559 -7.6849046 0.55171883
-12.383144 -7.7510667 0.5348618
-12.684189 -8.8185577 0.56559837
-17.286474 -21.651114 1.0143497
-16.47414 -21.686636 0.99709904
-14.871787 -21.673069 0.96233755
-14.115751 -21.674025 0.94698018
-13.382998 -21.674952 0.93263876
-7.5762496 -21.692068 0.84123355
-5.8561521 -21.695498 0.82274467
-4.7476463 -21.700005 0.81326908
-4.2023044 -21.702219 0.80931813
-1.5360839 -21.70792 0.79675698
-1.0105664 -21.709038 0.79567283
-0.48625976 -21.710436 0.79506016
0.037617188 -21.711679 0.79490805
0.5615527 -21.712925 0.79521978
1.6122167 -21.715414 0.79723305
2.6718359 -21.727333 0.80147296
3.2060058 -21.729774 0.80418158
4.2867966 -21.734722 0.81108314
4.8348341 -21.737228 0.81529015
5.3859668 -21.728085 0.81958592
5.9461813 -21.729313 0.82480246
6.5138474 -21.730556 0.83057743
7.6751461 -21.733101 0.84385228
8.2705469 -21.734404 0.85140616
9.4975386 -21.741259 0.86862689
10.77709 -21.746132 0.88857764
4.4609766 -8.0059347 0.3355445
15.832783 -21.761398 0.98528832
20.268877 -21.774004 1.0891522
21.61833 -8.8088293 0.85467368
21.42664 -8.1337605 0.83908802
22.12336 -7.7930026 0.8587603
14.509218 6.2923975 0.57901311
13.607187 6.2954369 0.54892129
12.793906 6.2981796 0.52208978
11.397206 6.3109884 0.47697517
10.778906 6.3130736 0.45734182
8.7351856 6.3199682 0.3947393
8.3075876 6.3214111 0.3821975
7.5279293 6.3240428 0.35995948
6.422998 6.2416525 0.32790184
5.6329002 6.328114 0.31017569
5.3657422 6.3290162 0.30378562
5.1092091 6.3298841 0.29782248
4.6245508 6.331522 0.2870588
4.3948631 6.3322997 0.28220358
4.1726952 6.3330503 0.27766868
3.9574218 6.3337779 0.27343497
3.7484961 6.334486 0.26948205
3.5454102 6.3351746 0.2657949
3.3477049 6.3358445 0.26235601
2.9666698 6.3371339 0.25617865
2.4256248 6.3389659 0.2484922
2.25208 6.3395543 0.24631339
1.4042284 6.2586365 0.2348365
0.79304683 6.3516908 0.23435204
0.6379199 6.3522177 0.23373619
0.48349607 6.3527427 0.23325782
0.32964844 6.3532653 0.2329171
0.17613281 6.3537879 0.23271263
-0.13052735 6.3548303 0.23271126
-0.28403321 6.3553529 0.23291329
-0.43789062 6.3558764 0.23325141
-0.74741209 6.3569298 0.23434165
-0.90345699 6.3574619 0.2350965
-1.2189941 6.3585362 0.23703681
-1.378916 6.3590808 0.23822807
-1.5405663 6.3596334 0.23957206
-1.7041308 6.360189 0.24107231
-1.8698535 6.3607545 0.24273247
-2.0379686 6.3613291 0.24455956
-3.305244 6.3656554 0.26260155
-3.5030859 6.3663306 0.26603842
-4.5705662 6.3528271 0.286529
-5.0541797 6.3544822 0.29726493
-5.8549118 6.3572226 0.31642082
-6.4507422 6.3592625 0.33164054
-8.6682911 6.366859 0.39377129
-9.0277052 6.3013172 0.40307167
-10.734472 6.3909616 0.45739019
-11.352431 6.3930807 0.47700828
-12.026133 6.3953919 0.49868599
-12.764492 6.3979235 0.52275032
-13.578154 6.4007154 0.5495882
-16.602177 6.4036756 0.65148675
-19.348349 6.4092383 0.74623418
-25.110752 6.3450804 0.94825107
-13.059092 -7.5554438 0.55237329
-14.446367 -21.673609 0.9536283
-13.703535 -21.674545 0.9388454
-12.983047 -21.675459 0.92505163
-12.286406 -21.682364 0.91242272
-10.941025 -21.684242 0.88923603
-10.29293 -21.68515 0.87883258
-9.0402927 -21.689312 0.86030281
-8.4325972 -21.690454 0.8520301
-6.104404 -21.694489 0.82512122
-3.8997753 -21.703447 0.80733222
-3.3616307 -21.704044 0.80410361
-2.8274705 -21.705181 0.80138218
-1.7683984 -21.707428 0.79738641
-1.2422949 -21.708544 0.79608941
-0.19357422 -21.711132 0.79492146
0.85458982 -21.713619 0.79559517
1.3799316 -21.714865 0.79663044
1.9069629 -21.716112 0.79812747
2.9699316 -21.728699 0.80292791
3.5061426 -21.731152 0.80591053
4.0467381 -21.733624 0.80938816
4.5922556 -21.73612 0.81336874
5.1435838 -21.738642 0.81787056
5.6980858 -21.728769 0.8224355
6.2624121 -21.730005 0.82795978
8.6091213 -21.737873 0.85600835
4.3062696 -7.9255228 0.33023292
4.5196681 -7.8601389 0.33195794
4.6769724 -7.6977849 0.32977241
17.122118 -21.763973 1.0138603
18.897364 -21.771498 1.0554817
21.28793 -8.3413563 0.83708763
22.371241 -7.542923 0.86435676
14.939619 6.290946 0.59348196
12.372959 6.2995996 0.50833154
11.518203 6.2186875 0.47924063
9.4038868 6.3177123 0.41477776
8.4928608 6.320786 0.38760445
6.9795604 6.3258934 0.3448725
6.5608201 6.2411866 0.33152717
6.2549996 6.2445483 0.32359886
5.7544336 6.3277025 0.31314018
4.9701562 6.3303537 0.29466498
4.495254 6.3319592 0.28430426
4.269834 6.3327222 0.27963111
4.0515819 6.3334603 0.27526709
3.4343066 6.3355503 0.263843
3.0491893 6.336854 0.25746635
2.6814551 6.338099 0.25196236
2.5031934 6.3387046 0.24951179
2.3282714 6.3392954 0.24725181
2.1563866 6.3398805 0.24517341
1.1591504 6.259469 0.23306724
0.86176753 6.3514562 0.23466881
0.7062695 6.3519859 0.23399146
0.39748046 6.3530345 0.23305015
0.090429686 6.3540783 0.23265739
-0.062851563 6.3546009 0.23266472
-0.21625976 6.3551221 0.23280753
-0.36996093 6.3556457 0.23308662
-0.52410156 6.3561692 0.23350014
-0.67884767 6.3566957 0.23405342
-0.83447266 6.3572264 0.23474662
-0.99109375 6.3577585 0.23557976
-1.308164 6.35884 0.23768425
-1.4690137 6.3593869 0.23896003
-1.9634863 6.3610754 0.24373329
-2.1330273 6.3616529 0.24565619
-3.4151659 6.3660302 0.26449224
-3.6159668 6.3667164 0.26806784
-3.97083 6.2669835 0.27162468
-4.4684668 6.352479 0.28435296
-4.7021484 6.3532777 0.2893827
-4.944365 6.3541064 0.29476768
-5.1959472 6.3549671 0.30053687
-5.4577341 6.3558631 0.30671868
-5.7306738 6.3567967 0.31334603
-6.9573536 6.3609986 0.34513801
-7.3049803 6.3621874 0.35466391
-8.8635054 6.3280702 0.39872733
-10.477656 6.3900819 0.44931999
-11.073388 6.3921237 0.46811637
-11.721533 6.3943467 0.4888514
-13.209091 6.3994508 0.53737813
-14.070488 6.4024048 0.56597161
-15.011797 6.3982186 0.59744912
-16.085419 6.4019017 0.63384694
-18.684443 6.4108214 0.72321951
-20.268837 6.412251 0.77833062
-22.132128 6.4186473 0.84368658
-21.56665 -7.7500625 0.83903265
-12.731347 -8.0193958 0.55088323
-12.112666 -8.0441723 0.53235513
-12.685312 -8.8727636 0.56676841
-17.188446 -21.654097 1.0121982
-16.37788 -21.68725 0.99499226
-12.592988 -21.681932 0.91799796
-9.9372559 -21.68565 0.87332845
-9.312314 -21.688799 0.8641668
-8.699297 -21.689951 0.85559881
-8.0979586 -21.691084 0.84769183
-7.5073829 -21.692196 0.84041172
-6.3540626 -21.693474 0.82760704
-4.68332 -21.700266 0.8127802
-1.4742285 -21.708052 0.79660559
-0.94890624 -21.709169 0.79557562
-0.42461914 -21.710583 0.79501992
0.099140622 -21.711826 0.79492134
1.6741992 -21.715563 0.79740649
2.2023339 -21.716814 0.7991758
2.7344432 -21.727621 0.80176657
4.350986 -21.735014 0.81154746
5.4514551 -21.728228 0.82016897
6.5811715 -21.730703 0.83129281
7.7445993 -21.733253 0.84471089
-3.8962598 6.2665796 0.10386764
-5.1059861 6.3544946 0.11474495
-5.6329393 6.3562913 0.11954933
-6.2073145 6.3582492 0.12507866
-6.5152731 6.3592978 0.12815468
-7.9219041 6.3640952 0.14303626
-8.3273439 6.3654785 0.14754066
-8.7594042 6.3669529 0.15243003
-9.0994329 6.2843213 0.155662
-10.857256 6.3911276 0.17734154
-12.925077 6.3981833 0.20300667
-13.7558 6.4010181 0.21356666
-14.467509 6.3122387 0.22218436
-15.691406 6.4002085 0.23854178
-16.852636 6.4041696 0.2537722
-18.173086 6.4086766 0.2712487
-12.854531 -7.5226593 0.20965019
-12.726699 -7.8660216 0.21059807
-18.515362 -21.823769 0.40285835
-14.291308 -21.673788 0.36543968
-13.553251 -21.674721 0.35983071
-12.837099 -21.675629 0.35459968
-12.144345 -21.682314 0.34981757
-4.2284961 -7.9960423 0.127322
-10.161055 -21.685097 0.33708748
-8.9141407 -21.689722 0.33008522
-7.7145214 -21.691977 0.3240754
-7.1302733 -21.693075 0.32142523
-6.5549903 -21.693632 0.31899849
-5.4294138 -21.698195 0.31484076
-4.330215 -21.70265 0.31151161
-2.1876073 -21.707001 0.30710074
-1.1340332 -21.709236 0.30599996
-0.60948241 -21.710922 0.30572563
0.43835938 -21.713413 0.30570319
0.96283203 -21.714655 0.30596015
1.4884765 -21.715902 0.30639365
2.0159278 -21.717154 0.30701119
2.5467284 -21.726337 0.30791816
3.080039 -21.728777 0.30891624
3.6171288 -21.731232 0.31010032
4.1586814 -21.733711 0.31148016
4.7053709 -21.736206 0.3130503
8.1298733 -21.734745 0.32664269
8.7348433 -21.738939 0.32978049
9.3510742 -21.741293 0.33313957
9.980361 -21.743696 0.33676809
10.623897 -21.746155 0.34067726
4.375586 -7.9584908 0.12784034
12.650087 -21.748755 0.35415518
14.097539 -21.750797 0.36485741
14.860439 -21.759237 0.37090003
15.644365 -21.760799 0.3772541
16.456123 -21.762419 0.38404959
20.038652 -21.772997 0.41655111
11.998945 -7.9577799 0.20268181
23.665674 6.2646737 0.34459496
21.568085 6.2698889 0.31616402
16.718496 6.2029748 0.25100562
15.769834 6.2878036 0.23897193
14.735097 6.2913122 0.22552757
12.977284 6.2972703 0.20304161
12.076826 6.2246289 0.19124535
11.474541 6.2690406 0.18404976
10.919209 6.312345 0.17753562
10.338711 6.3143139 0.17052558
9.802002 6.3161325 0.16413765
9.3037987 6.3178234 0.15830223
8.4053516 6.320869 0.14803596
7.9979978 6.3222494 0.14350578
6.816494 6.2401352 0.13008568
5.9789062 6.3267689 0.1225315
5.427402 6.32864 0.11735488
5.1684766 6.3295188 0.11502556
4.4480567 6.3319626 0.10892364
4.0073438 6.3334579 0.10549767
3.5925684 6.334868 0.10251152
3.3936424 6.3355417 0.10116821
3.0104785 6.3368444 0.098752365
2.6443651 6.3380871 0.096669383
2.4668262 6.3386889 0.095743179
2.121289 6.3398619 0.094103925
1.9527148 6.3404355 0.093385234
1.7866113 6.3409996 0.092731625
1.4415137 6.2583799 0.090400614
1.1269629 6.2594495 0.089524843
0.98590821 6.3509068 0.090467222
0.82961911 6.3514366 0.090162963
0.51973629 6.3524899 0.089717254
-0.094472654 6.3545785 0.08945778
-0.40166992 6.3556247 0.08964096
-1.0235058 6.3577414 0.090644069
-1.1816113 6.3582773 0.091032408
-1.5023632 6.3593698 0.091979213
-1.6654491 6.3599243 0.092542268
-1.9981836 6.3610582 0.093852915
-2.1683104 6.3616366 0.094605632
-2.3412793 6.3622265 0.095426783
-2.5173731 6.3628244 0.096319199
-3.0675683 6.3646994 0.099452816
-3.2593846 6.3653526 0.10066284
-3.4560351 6.3660226 0.10196335
-3.6221972 6.3044715 0.10234451
-3.8041894 6.2662659 0.10318474
-4.9953122 6.3541174 0.11377105
-5.2489157 6.3549805 0.11602142
-5.5129004 6.3558812 0.11843124
-5.7882419 6.3568211 0.12101539
-6.0760446 6.3578014 0.12378936
-6.3775392 6.3588305 0.12676872
-7.0272555 6.3610449 0.13342308
-8.1453419 6.3648582 0.14550804
-8.9186325 6.3007226 0.15370552
-10.037177 6.38833 0.16747504
-11.861816 6.3945556 0.18968453
-12.584023 6.3970203 0.19870827
-13.378838 6.3997326 0.20876151
-15.222138 6.3986073 0.2324279
-16.322441 6.4023609 0.24679999
-18.993525 6.4114771 0.28217703
-17.890713 -21.673063 0.39558569
-17.020155 -21.662378 0.38778129
-16.210039 -21.68849 0.38111961
-13.876064 -21.674313 0.36226004
-13.150517 -21.675228 0.3568804
-12.449131 -21.681885 0.35192847
-9.8069916 -21.685595 0.33501121
-9.18501 -21.689211 0.33154777
-6.8078318 -21.693682 0.32005149
-5.6752343 -21.697197 0.3156884
-5.1199021 -21.699448 0.31383231
-2.9527831 -21.705379 0.30834541
-2.4212303 -21.706507 0.30744103
-1.8924414 -21.707626 0.30672094
-1.3658692 -21.708744 0.30618185
-0.31666991 -21.71162 0.30565009
1.2563574 -21.715351 0.30618066
3.9191601 -21.732613 0.31084967
4.4634962 -21.735102 0.31232902
5.5666795 -21.729109 0.31573889
7.8669529 -21.734165 0.32536033
8.466836 -21.737915 0.32837546
9.701045 -21.742632 0.33513495
12.341894 -21.74832 0.35199133
4.5951757 -7.6607809 0.12574501
13.770664 -21.750336 0.36236197
14.522734 -21.758564 0.36823326
16.094404 -21.761696 0.38099509
16.922764 -21.76335 0.3880654
17.786142 -21.768911 0.39569616
19.614014 -21.772226 0.41249031
21.603867 -8.0085707 0.32432058
27.206991 6.1986742 0.39278007
22.15 6.1841259 0.32369712
20.542793 6.2733631 0.30234656
17.269121 6.1989317 0.25828162
15.176952 6.289813 0.2312519
14.205889 6.2931051 0.21870704
13.334307 6.2960596 0.20756644
12.546777 6.298728 0.19761589
11.67457 6.2178941 0.18618675
10.589091 6.3134632 0.17353523
9.5191889 6.3170919 0.16081397
8.5934181 6.3202305 0.15015526
7.7809763 6.3229856 0.1411303
7.4099021 6.324244 0.13712685
7.0590916 6.3254333 0.13341972
6.6353221 6.2407508 0.12822166
6.1072655 6.326334 0.12377457
5.8199706 6.3273082 0.12101059
5.5450487 6.3282394 0.11843597
5.0281639 6.3299937 0.11379173
4.5492282 6.3316212 0.10974487
4.3220506 6.3323898 0.10791862
3.8890331 6.3338609 0.10462173
3.2846973 6.3359132 0.10045806
3.0934374 6.3365612 0.099255137
2.9065917 6.3371959 0.098138653
2.1965039 6.3396082 0.094441757
1.6947656 6.3413119 0.092393875
1.5135156 6.2653198 0.090727538
1.1958398 6.2592149 0.089699402
1.0401171 6.2597461 0.089321285
0.89844728 6.3512034 0.090289988
0.7427246 6.3517332 0.090017013
0.58785152 6.3522592 0.089796595
0.43363279 6.3527832 0.089630887
0.27992186 6.3533053 0.089517593
-0.026826171 6.3543491 0.089445494
-0.18018554 6.3548703 0.08948791
-0.64240235 6.3564429 0.089930572
-0.95415038 6.3575034 0.090491638
-1.5932617 6.3596787 0.092286222
-1.7574902 6.3602366 0.092882611
-1.9239551 6.3608055 0.093541719
-2.0929101 6.3613791 0.094264984
-2.2645898 6.3619652 0.095055923
-2.4392676 6.3625598 0.095916212
-2.6172557 6.3631663 0.09684898
-2.9843652 6.3644166 0.098946378
-3.1741796 6.3650632 0.10011833
-3.3686426 6.365726 0.10137787
-3.5681932 6.366405 0.10272995
-3.9210057 6.2666636 0.10405251
-4.1464648 6.284585 0.10598259
-4.646338 6.3529272 0.11078903
-4.8864942 6.3537464 0.1128257
-5.1358104 6.3545971 0.11501014
-5.6652927 6.3564014 0.11985306
-5.9474607 6.3573632 0.12254257
-6.2427635 6.3583703 0.12542976
-6.5524707 6.359426 0.12853096
-6.8781052 6.3605371 0.13186988
-7.2212987 6.3617077 0.13546699
-7.5839648 6.3629441 0.13934928
-8.8120899 6.3671336 0.15303138
-9.1551266 6.2845116 0.15631019
-9.8039646 6.3875351 0.16470954
-10.344062 6.3893771 0.17114219
-12.257051 6.3959031 0.19460945
-13.018447 6.3985033 0.20418693
-14.598378 6.3201022 0.22391975
-15.820635 6.4006491 0.24023017
-16.998955 6.4046688 0.25569969
-19.608036 6.3257751 0.29002371
-21.664776 6.4165854 0.31804878
-12.683212 -7.8889327 0.21024834
-16.569073 -21.683622 0.38413063
-15.746836 -21.671947 0.37708151
-14.962276 -21.672939 0.37071052
-13.467978 -21.674829 0.35920006
-12.06376 -21.682426 0.34926796
-4.1930566 -7.9836993 0.12693596
-10.729472 -21.684301 0.34055427
-10.08623 -21.685205 0.3366442
-7.6453319 -21.692106 0.32375205
-7.0622263 -21.693203 0.32113791
-6.487998 -21.693901 0.31873024
-5.9224219 -21.696196 0.31657112
-4.2663279 -21.702909 0.31133828
-3.7253125 -21.705103 0.30999306
-3.1883984 -21.704878 0.3088015
-2.6553807 -21.706011 0.30781502
0.49995115 -21.713556 0.30572486
1.0245508 -21.714802 0.30600014
2.6092479 -21.726625 0.30802575
3.6805468 -21.731524 0.31025505
6.4469237 -21.731045 0.31906867
7.0219626 -21.732309 0.32148156
7.6061034 -21.733593 0.32411963
10.055243 -21.743984 0.33721411
10.700527 -21.746447 0.34115517
11.3604 -21.746933 0.34536278
4.2161913 -7.6173162 0.1225486
12.732832 -21.748871 0.35474738
14.95124 -21.759418 0.37162498
15.7383 -21.760986 0.37802804
16.553448 -21.762611 0.38488379
18.281748 -21.76981 0.40015388
19.197538 -21.771469 0.40858465
20.153183 -21.773203 0.41762626
12.017715 -7.9212537 0.20260535
25.850283 6.2572718 0.37437978
19.603174 6.2765479 0.28973639
18.103106 6.2816319 0.26972649
16.718691 6.2570362 0.25127465
14.621055 6.291698 0.22405417
12.884755 6.2975831 0.20187156
10.848506 6.3125839 0.17667671
10.273438 6.3145347 0.16974312
9.7415428 6.3163376 0.16342491
7.9517479 6.3224058 0.14299674
7.5710254 6.3236976 0.13885552
6.7779489 6.2402658 0.12968543
5.9451466 6.3268833 0.12220665
5.6648927 6.3278341 0.11955009
4.89083 6.3304601 0.11260445
4.6519728 6.3312707 0.11059044
4.4213572 6.3320541 0.10870895
4.1983299 6.3328114 0.10695168
3.982285 6.3335438 0.10531113
3.772666 6.3342552 0.1037783
3.3705957 6.3356199 0.10101555
3.1772559 6.3362765 0.099775389
2.9885156 6.3369174 0.098621137
2.6233106 6.3381577 0.09655609
2.4461815 6.3387594 0.095639266
1.7672362 6.3410645 0.09265884
1.4228418 6.2584434 0.090343095
1.2650098 6.2589817 0.089883119
0.96748042 6.3509693 0.090428621
0.81131834 6.3514991 0.090130538
0.65609372 6.3520274 0.089887768
0.50161129 6.3525524 0.089698255
0.34770507 6.353076 0.089560546
0.19415039 6.3535972 0.089475855
-0.57410157 6.3562107 0.089834668
-0.72912109 6.3567395 0.090065226
-1.0420117 6.3578038 0.090687715
-1.2002734 6.3583407 0.091081463
-1.3600098 6.3588853 0.091533735
-1.6847656 6.3599901 0.092612073
-1.8502051 6.3605542 0.093243562
-2.0180469 6.3611255 0.093938366
-2.1884668 6.3617063 0.094698787
-2.3617969 6.3622961 0.095527872
-2.538291 6.3628979 0.096428908
-2.7182519 6.3635106 0.097404175
-2.9020019 6.3641357 0.098457105
-3.2822363 6.3654308 0.10081001
-3.8285937 6.2663488 0.10336365
-4.039824 6.2670679 0.10495453
-4.3148146 6.3517981 0.10808647
-4.7794433 6.3533826 0.11191101
-5.5446677 6.3559899 0.11872612
-6.1107516 6.3579197 0.12412933
-6.7323532 6.3600388 0.13036613
-7.4213963 6.3623886 0.13759926
-7.7958984 6.363667 0.14165412
-8.6164351 6.366466 0.15080254
-8.9728022 6.3009067 0.15433311
-9.4263277 6.2854371 0.15947853
-10.100644 6.388546 0.1682305
-10.664726 6.390471 0.17500633
-11.276611 6.3925595 0.18246177
-12.673457 6.3973255 0.19983299
-13.477607 6.4000692 0.21001747
-14.162363 6.3111987 0.21825126
-17.72621 6.4071522 0.26531592
-20.838057 6.413763 0.30689964
-24.808184 6.343524 0.36043969
-27.99789 6.4438171 0.40440649
-17.784424 -21.669199 0.39459404
-16.924589 -21.66688 0.38700354
-15.305146 -21.672504 0.37346718
-13.789629 -21.674423 0.36160299
-12.367568 -21.682001 0.35136071
-11.684111 -21.682959 0.34670523
-11.018095 -21.683895 0.34236962
-9.1125975 -21.689348 0.33115593
-8.5034962 -21.690493 0.32794532
-7.3183689 -21.692722 0.32225898
-6.7403512 -21.693808 0.31976691
-5.6096091 -21.697466 0.31545767
-5.055078 -21.699711 0.31362554
-3.9634373 -21.704136 0.31056374
-3.4247363 -21.704376 0.30929527
-2.8901367 -21.705513 0.30822486
-2.3589454 -21.70664 0.30734718
-1.8304394 -21.707758 0.30664724
-1.3040918 -21.708876 0.30612829
0.26874998 -21.713007 0.30566031
1.8449707 -21.716747 0.30679116
2.9070506 -21.727985 0.30857337
4.5278025 -21.735395 0.31251961
5.0784082 -21.737915 0.31422341
5.6324024 -21.729252 0.31597587
6.7671871 -21.731747 0.32038918
7.347168 -21.733025 0.32292885
8.5380077 -21.738188 0.32874656
9.1502733 -21.740526 0.33202231
10.413984 -21.745352 0.33938101
11.067812 -21.74785 0.34348992
12.423652 -21.748434 0.35256079
4.6134472 -7.6420212 0.12565139
14.612226 -21.758741 0.36893776
16.190155 -21.761889 0.38180077
17.022167 -21.76355 0.38892645
17.889423 -21.769096 0.39661917
18.788721 -21.770727 0.4047901
21.654081 -7.9573932 0.32473654
27.090811 6.2530661 0.39135918
21.962725 6.1990271 0.3212252
16.131836 6.2865782 0.24370842
15.057021 6.2902207 0.22969566
12.459169 6.2990255 0.19651709
11.595703 6.2181625 0.18521094
11.117549 6.3116736 0.17995338
8.9863186 6.3188987 0.15463553
8.5428123 6.3204026 0.14958458
8.127099 6.3218126 0.14493385
7.0190916 6.3255701 0.13300239
5.7870312 6.3274207 0.12069999
5.5135059 6.3283482 0.1181443
5.251152 6.329237 0.11576179
4.9990525 6.3300939 0.11353813
4.756289 6.3309164 0.11146316
4.5221386 6.3317127 0.109524
4.2958493 6.332479 0.10771248
3.4574609 6.3353257 0.10159225
3.0712597 6.336637 0.099120632
2.1764061 6.3396764 0.094350353
2.0069921 6.3402514 0.093611598
1.8401269 6.3408179 0.092936933
1.6755176 6.3413782 0.092325591
1.4947461 6.2653842 0.090667188
1.3344531 6.2587452 0.090078883
1.1774805 6.2592783 0.089651793
0.72448242 6.3517957 0.089989163
0.56968749 6.3523202 0.089775234
-0.19821289 6.3549314 0.089496993
-0.35186523 6.3554554 0.089597322
-0.50592774 6.355979 0.089750133
-0.81613278 6.3570347 0.090217359
-1.1302832 6.3581042 0.090899959
-1.289336 6.358645 0.09132652
-1.4499999 6.3591919 0.091809995
-1.9436718 6.3608713 0.093623199
-2.284961 6.3620348 0.095153347
-2.4600098 6.3626294 0.096022263
-2.6384082 6.3632383 0.096963577
-2.8204296 6.3638587 0.097981945
-3.1967871 6.3651404 0.10026191
-3.3918262 6.3658056 0.10153145
-3.5919921 6.3664856 0.10289558
-3.7373924 6.2660389 0.10270088
-4.1721482 6.2846727 0.10618149
-4.6741209 6.3530221 0.11102272
-4.9153223 6.3538437 0.11307594
-5.1657224 6.3546972 0.11527535
-5.4262695 6.3555856 0.11763267
-5.6978126 6.3565111 0.12015899
-6.2783689 6.3584924 0.12578079
-6.5898924 6.3595543 0.12891136
-6.9175096 6.360671 0.13227867
-7.2628903 6.3618493 0.13590813
-7.6279883 6.3630943 0.13982597
-8.0149803 6.3644137 0.14406241
-8.4264154 6.3658175 0.14865364
-9.2112694 6.2847018 0.1569645
-9.8653021 6.3877439 0.16543388
-11.000351 6.3916159 0.17908317
-11.641835 6.393805 0.18696052
-12.342861 6.3961964 0.19568229
-15.951679 6.4010949 0.24194343
-18.510389 6.4098291 0.27573571
-21.895273 6.4173727 0.32116631
-26.675966 6.4393053 0.38628089
-16.474257 -21.68681 0.38335562
-15.653232 -21.672066 0.37630898
-14.115751 -21.674007 0.36408469
-13.382988 -21.674936 0.35856971
-11.983427 -21.682539 0.34872109
-10.653076 -21.684408 0.34007743
-9.385273 -21.688833 0.33264977
-8.7708101 -21.689989 0.32932943
-7.5763083 -21.692236 0.32343039
-6.9943161 -21.693329 0.32083428
-5.8564258 -21.696465 0.31633338
-5.298955 -21.698725 0.31441092
-4.2024903 -21.703169 0.31117088
-3.125576 -21.705011 0.30867684
-2.5929492 -21.706142 0.30771232
-1.5361035 -21.708384 0.30633506
-1.0105957 -21.709499 0.30591926
-0.48626953 -21.711216 0.3056916
0.037617188 -21.71246 0.30563086
1.0862695 -21.714949 0.306045
1.6122558 -21.716196 0.30652168
2.6717772 -21.726912 0.3081359
4.2867088 -21.734291 0.31183112
5.3861227 -21.72871 0.31511605
6.5140524 -21.731192 0.31934044
7.6753807 -21.733746 0.3244448
8.8785839 -21.739487 0.33054495
9.4978027 -21.741852 0.33396873
10.777383 -21.74674 0.34163857
4.4590626 -8.0024824 0.12895058
12.815849 -21.748989 0.35533926
14.273516 -21.751049 0.36620948
18.387432 -21.77 0.40111822
21.328495 -8.690733 0.32419059
17.94039 6.2821827 0.26756829
16.648985 6.2848253 0.25049523
15.515674 6.2886658 0.23565803
13.606533 6.2951379 0.21103187
11.396738 6.3107262 0.1833744
10.778477 6.3128233 0.17582634
10.208828 6.3147531 0.16897056
9.6816111 6.3165402 0.1627198
8.3073139 6.3212008 0.14693809
7.9058204 6.3225622 0.14249259
7.5276852 6.3238449 0.13838829
7.1705565 6.3250561 0.134589
6.7396188 6.2403955 0.12929024
6.4228125 6.2414722 0.12606484
5.9115624 6.3269982 0.12188392
5.1090817 6.3297205 0.11449996
4.8622851 6.3305578 0.11236061
4.1725974 6.3328991 0.10675278
3.9573338 6.3336291 0.10512482
3.7484081 6.3343382 0.1036045
3.545332 6.3350267 0.1021875
3.3476269 6.3356981 0.10086632
2.9666016 6.3369923 0.098491438
2.7825487 6.3376169 0.097428896
2.6023047 6.3382297 0.096445389
2.2520311 6.3394198 0.09469787
2.0814159 6.3399987 0.09392906
1.9134473 6.3405685 0.093225628
1.7478906 6.3411317 0.092587203
1.090371 6.2595739 0.089437634
0.32963866 6.353137 0.089547649
0.17613281 6.3536582 0.089469604
0.022783203 6.3541808 0.089443125
-0.13051757 6.354702 0.089468837
-0.43788084 6.3557482 0.089677043
-0.74739254 6.3568006 0.090095975
-1.0605469 6.3578672 0.090731502
-1.2189746 6.3584046 0.091131359
-1.3788867 6.3589487 0.091590419
-1.5405371 6.3595004 0.09210632
-1.7041016 6.3600559 0.092682339
-2.2087011 6.3617759 0.094793163
-2.3823829 6.3623657 0.095630109
-2.5592577 6.3629684 0.09653946
-2.7396581 6.363584 0.097523801
-3.3051758 6.3655076 0.10095955
-3.6473632 6.2657309 0.10205124
-4.0650878 6.2671542 0.10514778
-4.3412499 6.3518872 0.10829765
-4.8077927 6.3534775 0.11215133
-5.3100195 6.3551903 0.11657242
-5.5765719 6.3560987 0.11902397
-5.8547363 6.357048 0.1216507
-6.7708397 6.3601708 0.13076195
-7.1081738 6.3613219 0.13427299
-7.8413672 6.3638206 0.14215156
-8.2416992 6.3651867 0.14658287
-8.6679983 6.3666406 0.15138817
-10.734053 6.390708 0.17584586
-11.351982 6.3928146 0.1833895
-12.025615 6.3951159 0.19172263
-12.763916 6.3976331 0.20097297
-14.271923 6.3115721 0.21966103
-15.469131 6.3994493 0.23564216
-28.371273 6.4450927 0.40953025
-12.899014 -7.4628339 0.20976798
-16.02001 -21.689701 0.37952217
-15.213281 -21.672621 0.37272498
-14.446357 -21.673592 0.36664206
-13.703535 -21.67453 0.36095694
-12.983037 -21.675442 0.35565665
-12.286289 -21.682114 0.35079688
-11.604951 -21.683071 0.34617972
-10.292822 -21.684914 0.33787742
-9.6603909 -21.688314 0.33420417
-9.0403709 -21.689482 0.33076361
-5.5440917 -21.697729 0.31523201
-4.9903517 -21.699976 0.31342429
-4.4425097 -21.702196 0.31181708
-3.8999608 -21.704393 0.31040612
-2.8275292 -21.705645 0.30811349
-2.2966504 -21.706772 0.30725533
-1.7684375 -21.70789 0.30657494
-0.19358398 -21.711908 0.30563194
0.85460937 -21.714399 0.30589041
2.4372461 -21.72584 0.3077355
4.0466795 -21.733196 0.31117943
4.5921483 -21.735687 0.31270912
5.6982517 -21.729399 0.31621268
7.4159961 -21.733175 0.32324028
8.0068455 -21.734474 0.32605401
8.6093359 -21.738457 0.32911873
9.2230368 -21.740803 0.33242592
10.48997 -21.745642 0.33984962
12.505644 -21.748549 0.3531388
13.944355 -21.75058 0.36367667
14.702041 -21.758921 0.36964592
16.286308 -21.762079 0.3826133
17.121933 -21.763744 0.38979498
26.749462 6.2542233 0.38668403
21.962938 6.2663388 0.32148811
18.565546 6.2800632 0.27587974
14.938828 6.2906213 0.22816306
13.992715 6.2938266 0.21596962
12.372421 6.2993197 0.19543007
11.517705 6.2184253 0.18424232
11.044912 6.3119187 0.17906669
9.9093161 6.3157687 0.16540779
9.4035444 6.3174829 0.15946312
8.9326754 6.3190794 0.15401816
8.0799122 6.3219724 0.14441094
7.3257127 6.3245287 0.13622902
6.9793553 6.3257041 0.1325898
6.5606346 6.2410035 0.12745903
5.4821091 6.3284545 0.11785637
4.4951367 6.3318043 0.10930404
4.2697263 6.3325696 0.10750747
3.839834 6.3340282 0.10426292
3.6342578 6.3347254 0.10280082
3.4342284 6.3354039 0.10143737
3.2393162 6.3360658 0.10016731
2.863291 6.3373423 0.09788841
2.6813965 6.3379612 0.09686958
2.1563475 6.3397436 0.094259717
1.9872656 6.3403187 0.0935276
1.820664 6.3408847 0.092861481
1.6563281 6.3414426 0.092257537
1.1591113 6.2593408 0.089605249
1.0036719 6.2598691 0.089239806
0.86174804 6.3513279 0.090221174
0.70625973 6.3518567 0.089960322
0.090429686 6.35395 0.089447856
-0.21626952 6.3549924 0.089504927
-0.36994138 6.3555164 0.089612193
-0.52408201 6.356041 0.089772411
-0.83445311 6.3570971 0.090250164
-1.1489062 6.3581676 0.090948328
-1.7964159 6.3603711 0.093032606
-2.6596191 6.3633103 0.097080454
-3.2194531 6.3652158 0.10040604
-3.6158886 6.3665671 0.10306145
-3.970742 6.2668324 0.10442588
-4.7020311 6.3531175 0.11125511
-4.9442282 6.3539438 0.11332626
-6.015625 6.3575964 0.12320106
-6.6275291 6.3596826 0.12929344
-6.9571385 6.3608055 0.13269036
-7.3047652 6.3619909 0.13635276
-8.0620117 6.3645749 0.14458351
-8.8652344 6.3293018 0.15332848
-9.2678614 6.2848973 0.15762305
-13.208467 6.3991504 0.20659447
-14.069804 6.4020896 0.21758628
-17.29834 6.4056921 0.25965461
-18.68329 6.4104185 0.27803823
-22.130507 6.4181762 0.32434914
-21.566563 -7.7500253 0.32258108
-12.596631 -7.9345384 0.20955558
-18.099325 -21.705046 0.39780602
-17.188711 -21.654438 0.38916573
-16.378027 -21.687422 0.38254416
-15.559999 -21.672182 0.3755413
-14.781631 -21.673168 0.36927131
-12.592841 -21.681684 0.35293937
-11.903349 -21.682652 0.34817588
-4.1487303 -8.0093622 0.12696876
-10.576836 -21.684513 0.33960944
-9.3123922 -21.688972 0.33224952
-8.0980272 -21.691254 0.32591528
-6.9265137 -21.693457 0.32054389
-5.7905273 -21.69673 0.31609565
-5.2338085 -21.698988 0.31419593
-4.6835251 -21.701218 0.31250221
-4.1387205 -21.703426 0.31100562
-1.4742578 -21.708515 0.30627692
0.099140622 -21.712606 0.30563346
0.62319332 -21.713848 0.30577308
1.1480175 -21.715097 0.30609518
1.6742675 -21.716343 0.3065905
2.7343848 -21.727198 0.30824867
3.2689648 -21.729639 0.30931252
7.1583786 -21.732609 0.32208121
8.3414936 -21.73521 0.32770088
9.5714941 -21.742134 0.33438927
-4.1207809 6.2843442 -0.063465193
-4.8576856 6.3534861 -0.067542493
-5.6327734 6.3561192 -0.071724169
-6.2071481 6.3580689 -0.075040966
-7.540029 6.3625965 -0.083319321
-8.7591009 6.3667331 -0.091449581
-9.0991211 6.2840977 -0.09338852
-12.171689 6.3953342 -0.1161193
-12.924492 6.3978906 -0.12179054
-18.171944 6.4082837 -0.16272902
-19.416132 6.324707 -0.17245261
-23.511484 6.4223971 -0.2058364
-26.016659 6.4365158 -0.22634438
-29.046854 6.4467978 -0.25127798
-18.514101 -21.822268 -0.24168678
-17.494541 -21.658651 -0.23512977
-16.663506 -21.679525 -0.23092483
-15.053105 -21.672808 -0.22285263
-14.291288 -21.673775 -0.21925208
-13.553242 -21.674707 -0.21588942
-12.83709 -21.675615 -0.21275535
-12.144209 -21.682068 -0.20987777
-10.805918 -21.683954 -0.2046054
-10.160937 -21.684862 -0.20224579
-9.5316114 -21.688734 -0.20007606
-8.3088865 -21.691031 -0.19616607
-5.4296384 -21.699154 -0.18890633
-4.8770895 -21.701391 -0.18784675
-4.3304005 -21.7036 -0.18690628
-3.7888281 -21.705791 -0.18608658
-3.2513475 -21.70521 -0.18535179
-2.7179198 -21.706341 -0.18474494
-1.6599023 -21.708584 -0.18386795
-1.134043 -21.709698 -0.18359329
0.43838868 -21.71419 -0.18341979
1.4885449 -21.716684 -0.18383271
2.0160058 -21.717934 -0.18420516
2.5466895 -21.725918 -0.18473877
3.0799901 -21.728352 -0.18533751
4.7052832 -21.735779 -0.18781669
5.2578611 -21.7383 -0.18888046
5.8141699 -21.73028 -0.18997337
6.3800879 -21.731527 -0.19127372
6.9541211 -21.732798 -0.19270843
9.3513279 -21.741884 -0.19988312
10.624208 -21.746759 -0.20440406
11.283261 -21.749285 -0.20693953
14.097802 -21.751215 -0.21891639
16.455957 -21.762192 -0.23041579
20.038115 -21.772408 -0.24986106
11.996562 -7.9561934 -0.12161659
29.247168 6.2499914 -0.2525779
23.663837 6.2641854 -0.20673522
21.566553 6.2694397 -0.1896759
19.792997 6.2754846 -0.17535973
18.267569 6.2806835 -0.16313766
12.97668 6.2969809 -0.12181358
12.076289 6.2243567 -0.11473663
11.472451 6.2679062 -0.1104029
10.918779 6.3120923 -0.10651268
9.80165 6.3158984 -0.098475188
8.4050779 6.3206568 -0.088814087
7.9977441 6.3220434 -0.086097717
7.6143746 6.3233495 -0.083587185
7.2525001 6.3245835 -0.081266858
6.4956737 6.2410421 -0.076072462
5.1683397 6.3293552 -0.069010161
4.9193554 6.3302011 -0.067704849
4.4479489 6.3318076 -0.065349199
4.224082 6.3325696 -0.064286195
4.007246 6.3333077 -0.063293301
3.7968848 6.3340235 -0.062366944
3.3935645 6.3353977 -0.06069557
3.0104101 6.3367004 -0.059246521
2.6443067 6.3379478 -0.057996824
2.4667675 6.338552 -0.057440795
2.2925098 6.3391452 -0.056928635
2.1212401 6.3397279 -0.056457978
1.9526757 6.3403015 -0.056027371
1.7865624 6.340868 -0.0556353
1.6030957 6.2648849 -0.054611586
1.4414843 6.2582517 -0.054235686
1.1269531 6.2593212 -0.05371147
0.98578125 6.3501344 -0.054268263
0.82960933 6.3513074 -0.054093473
0.21217772 6.3534079 -0.053685453
0.058847655 6.3539305 -0.053662565
-0.40166992 6.3554955 -0.053780362
-1.0234863 6.3576112 -0.054382782
-1.181582 6.3581467 -0.054615326
-1.3411328 6.3586903 -0.05488205
-1.8306054 6.3603525 -0.055894546
-2.168252 6.3615012 -0.056758422
-2.517334 6.3626881 -0.057787094
-2.6968455 6.3632984 -0.05836685
-2.8801367 6.3639207 -0.058992308
-3.2593067 6.3652086 -0.060392685
-3.8041015 6.266118 -0.061909027
-4.0145507 6.2668333 -0.06285347
-4.2432814 6.2847605 -0.064043276
-4.751123 6.3531251 -0.066997372
-4.9951854 6.3539538 -0.068258055
-5.2487793 6.3548145 -0.069607235
-5.7881055 6.3566465 -0.0726033
-6.0758786 6.3576245 -0.074269332
-7.027041 6.3608532 -0.080047682
-7.3785739 6.3620458 -0.082279585
-8.1450777 6.3646483 -0.087297283
-8.5649805 6.3660741 -0.090126649
-8.9183102 6.3005004 -0.092214279
-9.3680267 6.2850099 -0.095271222
-10.595683 6.3899851 -0.10449669
-11.861299 6.3942819 -0.11379982
-12.583447 6.3967333 -0.11921211
-15.221309 6.3982687 -0.13944252
-16.321543 6.4020042 -0.14806572
-17.567656 6.4062328 -0.15792137
-20.626074 6.4126048 -0.18241782
-22.552353 6.4191427 -0.19802727
-27.631332 6.4419947 -0.23961151
-17.890703 -21.673052 -0.23734047
-15.397372 -21.672373 -0.22451836
-13.876055 -21.674297 -0.21734275
-11.763389 -21.682608 -0.20832771
-10.443682 -21.684462 -0.20326468
-9.1850777 -21.689384 -0.19892082
-7.9754977 -21.691658 -0.1951831
-6.237793 -21.695889 -0.19065329
-4.5709667 -21.702627 -0.18730575
-4.0272169 -21.704826 -0.18642929
-2.9528418 -21.705841 -0.18499939
-2.421289 -21.706966 -0.1844606
-1.8924804 -21.70809 -0.18402587
-1.3658984 -21.709204 -0.18370247
-0.84079099 -21.710318 -0.18348846
-0.31667969 -21.712397 -0.18338676
0.73132813 -21.714886 -0.18349381
1.2563964 -21.716133 -0.18370673
2.3117383 -21.718637 -0.18445358
3.3795898 -21.729721 -0.18571837
4.4633985 -21.734673 -0.18738671
5.0132618 -21.737185 -0.18839797
6.6997557 -21.732235 -0.19205832
7.2787304 -21.733515 -0.19356529
7.867197 -21.734814 -0.1952053
8.4670601 -21.738495 -0.19702156
9.07792 -21.740837 -0.19897048
10.338418 -21.745663 -0.20334831
4.3439355 -8.1041012 -0.077652968
13.046152 -21.749722 -0.21419372
13.770927 -21.750751 -0.21741217
14.522607 -21.758347 -0.22092773
16.094229 -21.761471 -0.22858603
16.922577 -21.763119 -0.23280761
20.589853 -21.77541 -0.25309348
24.710712 6.2606187 -0.21528205
22.14835 6.1836658 -0.19420959
20.541395 6.272933 -0.18138763
17.268095 6.1985645 -0.15493995
12.546221 6.2984471 -0.11855888
10.033418 6.3151083 -0.10012116
9.0401268 6.3184934 -0.093146361
7.7807422 6.3227844 -0.0846714
7.409668 6.3240476 -0.08227028
6.3257618 6.2439489 -0.075060807
5.5449023 6.3280711 -0.071055375
5.2812986 6.3289685 -0.069614641
4.7842383 6.3306613 -0.067014083
4.5491114 6.3314624 -0.065841369
4.3219433 6.3322372 -0.06474594
3.4806933 6.3351011 -0.061044998
3.2846289 6.3357687 -0.060270231
3.093369 6.3364196 -0.059548948
2.9065332 6.3370557 -0.05887863
2.7237401 6.337678 -0.058256455
2.5446777 6.3382874 -0.057680663
2.3690135 6.3388844 -0.057149429
2.196455 6.3394723 -0.056660309
2.0267284 6.3400497 -0.056212232
1.3529687 6.2585521 -0.054076001
1.1958301 6.259088 -0.053815383
0.74271482 6.351604 -0.054005507
0.58784181 6.3521299 -0.053873975
0.43363279 6.3526549 -0.053774338
0.1264746 6.3536987 -0.053668823
-0.026826171 6.3542209 -0.053663254
-0.18017578 6.3547425 -0.05368904
-0.48778319 6.3557882 -0.053833082
-0.64239258 6.3563147 -0.053953856
-0.7977832 6.356842 -0.054105911
-1.1116601 6.3579102 -0.054508436
-1.2705274 6.3584495 -0.054760054
-1.4309863 6.3589954 -0.055045392
-2.0928514 6.3612452 -0.056555327
-2.439209 6.3624215 -0.057545166
-2.6172071 6.3630261 -0.058104552
-2.7987792 6.3636436 -0.058710251
-2.9842968 6.3642735 -0.059363935
-3.3685644 6.3655796 -0.06082176
-3.7132127 6.2658091 -0.061510544
-4.1463575 6.284431 -0.063585207
-4.6462207 6.3527684 -0.066467814
-5.135664 6.3544312 -0.068999097
-6.2425876 6.3581882 -0.075250469
-6.8778906 6.3603463 -0.079114683
-7.5837302 6.3627429 -0.083601989
-7.9680271 6.3640475 -0.086120531
-8.3764057 6.3654332 -0.08884941
-8.8117771 6.3669128 -0.091810606
-9.1548042 6.284287 -0.093777232
-9.8035936 6.3872972 -0.098816529
-10.343672 6.3891296 -0.10267586
-13.858496 6.4010606 -0.12891868
-15.819775 6.4003 -0.14412254
-16.997969 6.4043002 -0.15340294
-18.339218 6.4088511 -0.16406426
-19.606737 6.3253541 -0.17398734
-21.663221 6.4161243 -0.19080818
-23.779823 6.4233069 -0.20802329
-26.34123 6.4376168 -0.2290033
-18.374315 -21.782383 -0.24066818
-17.390244 -21.654863 -0.23454788
-16.569317 -21.683962 -0.23047309
-14.962255 -21.672924 -0.22241776
-13.467958 -21.674814 -0.21551093
-12.754277 -21.675716 -0.21240562
-4.193037 -7.983676 -0.076157607
-10.729345 -21.684063 -0.20431983
-10.086113 -21.684965 -0.20197693
-9.4583693 -21.688871 -0.19982979
-8.2384768 -21.691162 -0.19595528
-7.6454101 -21.692274 -0.19424514
-7.0622754 -21.693371 -0.19267388
-5.3643751 -21.699419 -0.18877594
-4.2665133 -21.703857 -0.18680435
-3.7254686 -21.706049 -0.18599555
-3.1884668 -21.705341 -0.18527481
-2.1255176 -21.707594 -0.18420433
-1.0723339 -21.709829 -0.18356819
-0.5478906 -21.711847 -0.18342018
-0.023974609 -21.713091 -0.18337509
0.49999022 -21.714336 -0.18343124
2.609199 -21.7262 -0.18480094
3.6804686 -21.731096 -0.18613823
4.7699118 -21.736074 -0.18793823
5.3231931 -21.738598 -0.1890129
5.8803024 -21.730427 -0.19012053
6.4471188 -21.73168 -0.19143577
7.0221777 -21.732946 -0.19288635
7.6063375 -21.734238 -0.19446838
8.8068943 -21.739799 -0.19809173
9.4246092 -21.742168 -0.20012543
10.055527 -21.744579 -0.20232169
10.70084 -21.747053 -0.20468864
11.360605 -21.747326 -0.20721374
13.448496 -21.750292 -0.21596625
15.738134 -21.760763 -0.22680312
17.399092 -21.764067 -0.23532836
18.281269 -21.769243 -0.24007697
19.197031 -21.770893 -0.24513252
20.152636 -21.772612 -0.25056478
12.015996 -7.9201245 -0.12153953
21.427647 -8.2037344 -0.19377242
28.852715 6.2513351 -0.24932387
21.343222 6.2702012 -0.18786865
19.601885 6.2761374 -0.1738224
18.102001 6.2812486 -0.16181755
16.715849 6.2559729 -0.15073486
14.620312 6.2913795 -0.13441879
10.848057 6.3123326 -0.10599678
10.273046 6.314292 -0.10183769
9.2472162 6.3177867 -0.094581909
8.7866993 6.3193564 -0.091404185
8.3558493 6.3208237 -0.088483579
7.2112889 6.3247242 -0.081006393
6.4590235 6.2411656 -0.075854488
6.2292676 6.3167405 -0.074917063
5.6647363 6.327662 -0.071724392
5.1385741 6.3294554 -0.068851396
4.4212499 6.3318982 -0.065220408
4.1982126 6.3326573 -0.064165495
3.9821973 6.3333936 -0.063181378
3.772578 6.3341064 -0.062261503
3.3705077 6.3354759 -0.060605314
3.1771972 6.336134 -0.059860229
2.9884472 6.3367758 -0.059168622
2.8039258 6.3374047 -0.058525085
2.4461327 6.338623 -0.057378922
2.2722266 6.3392138 -0.056870956
2.101289 6.3397961 -0.056405716
1.7671973 6.3409324 -0.055591047
1.5841894 6.2649498 -0.054573059
1.4228222 6.2583151 -0.054201353
1.1086328 6.2593832 -0.053685226
0.96747071 6.3508396 -0.054253083
0.81129879 6.3513694 -0.054073945
0.5015918 6.3524232 -0.05381424
0.34769529 6.3529468 -0.053731918
0.19415039 6.3534689 -0.053681716
0.040810548 6.3539906 -0.053662412
-0.11249023 6.3545117 -0.053674161
-0.26597655 6.3550329 -0.053716812
-0.57409179 6.3560815 -0.053897016
-0.72910154 6.3566089 -0.054034881
-1.0419922 6.3576732 -0.054407425
-1.2002441 6.3582101 -0.054644089
-1.3599805 6.3587537 -0.054915924
-1.5214062 6.359303 -0.055221558
-1.850166 6.3604198 -0.055941924
-2.3617578 6.3621593 -0.057311933
-3.479414 6.3659568 -0.061267089
-3.6234765 6.2655029 -0.061124649
-3.8285058 6.2661996 -0.062015686
-4.3147068 6.3516431 -0.06484665
-4.779326 6.35322 -0.067140885
-5.0244923 6.3540525 -0.068411708
-5.2792578 6.354918 -0.069771424
-5.8212595 6.3567591 -0.072793275
-6.1105857 6.3577414 -0.074470744
-6.4137793 6.3587708 -0.076273724
-7.0673633 6.36099 -0.080300905
-7.4211717 6.3621912 -0.0825518
-8.1930761 6.3648133 -0.08761894
-8.6161423 6.3662486 -0.09047424
-8.9724798 6.3006859 -0.092589796
-9.4259768 6.2852063 -0.095683821
-10.100254 6.3883042 -0.10092849
-11.276152 6.3922958 -0.10946663
-11.942754 6.3945594 -0.11440673
-12.67288 6.3970361 -0.11988746
-13.476992 6.3997655 -0.12599801
-14.16165 6.3108811 -0.13093475
-17.725145 6.4067674 -0.15917113
-22.800547 6.4199853 -0.20004249
-19.119375 -22.182158 -0.24731766
-17.784433 -21.669189 -0.23674423
-16.924833 -21.667219 -0.23219351
-16.114941 -21.689266 -0.22821128
-15.305107 -21.672489 -0.22407004
-11.017968 -21.683655 -0.20541015
-9.1126556 -21.689522 -0.19868453
-8.5035639 -21.690664 -0.19675857
-6.1713085 -21.696157 -0.19049972
-5.6098633 -21.698427 -0.18927696
-4.5067673 -21.702888 -0.18719703
-2.358994 -21.7071 -0.18440162
-1.8304687 -21.708221 -0.18398368
-0.77915037 -21.710449 -0.18346779
0.26875976 -21.713783 -0.18339385
3.4427538 -21.730009 -0.18580459
3.9828026 -21.732477 -0.18659416
5.0783105 -21.737482 -0.18853012
5.6325779 -21.729879 -0.1895787
6.1960254 -21.731123 -0.1908419
6.7673631 -21.732386 -0.19222839
7.9370604 -21.734968 -0.19541557
9.1505175 -21.741116 -0.19920853
13.857597 -21.750874 -0.21780151
14.612089 -21.758526 -0.22134735
15.387548 -21.760065 -0.22507492
16.190001 -21.761662 -0.2290657
17.021992 -21.763317 -0.2333522
17.888975 -21.768538 -0.2379505
27.088427 6.2525144 -0.23478293
24.423553 6.2615967 -0.21293716
21.959101 6.1980052 -0.19270308
18.73753 6.2790818 -0.16689147
17.116669 6.1990819 -0.15374389
14.097959 6.293159 -0.13038383
12.458613 6.2987461 -0.11789802
11.595215 6.2178965 -0.11111519
11.1171 6.3114157 -0.10796326
9.9708986 6.315321 -0.09967605
9.4608002 6.3170605 -0.096072614
8.5425386 6.320189 -0.089744106
8.1268454 6.3216038 -0.086952738
7.7360153 6.322937 -0.084378511
6.5976758 6.2406945 -0.076695405
6.2900877 6.244072 -0.07484825
6.0726562 6.326273 -0.074058071
5.7868652 6.3272471 -0.072413102
5.2510056 6.3290734 -0.069451369
4.9989257 6.3299303 -0.068117522
4.295752 6.3323255 -0.064621732
4.0766993 6.3330712 -0.063607864
3.8643064 6.3337951 -0.062660672
3.4573827 6.3351793 -0.060950775
2.8848338 6.3371301 -0.058802869
2.7025194 6.33775 -0.058186796
2.176367 6.3395419 -0.056605987
2.006953 6.3401184 -0.056162491
1.8400879 6.3406849 -0.055757444
1.6754882 6.3412452 -0.055391617
1.3344238 6.2586155 -0.054043729
1.0218652 6.2596803 -0.05356323
0.88007808 6.3511362 -0.054148939
0.72447264 6.351666 -0.053988647
0.10845703 6.3537607 -0.053667143
-0.044843748 6.3542819 -0.053664703
-0.19821289 6.3548036 -0.053693619
-0.35184568 6.3553257 -0.053754576
-0.81611323 6.356904 -0.054125976
-1.4499707 6.3590598 -0.055082243
-1.6124023 6.3596115 -0.055407941
-1.9436327 6.3607373 -0.056170121
-2.1128905 6.3613133 -0.056608886
-2.2849121 6.361897 -0.05708801
-3.391748 6.3656592 -0.060914077
-3.7373145 6.2658911 -0.061615903
-3.9457519 6.2665977 -0.062540509
-4.1720505 6.2845187 -0.063705675
-5.6976562 6.356339 -0.072089382
-5.9812794 6.3573022 -0.073715053
-7.6277537 6.3628931 -0.083888628
-8.8648634 6.3670936 -0.092174448
-9.8649416 6.3875046 -0.099251933
-10.409941 6.3893552 -0.10315231
-11.641357 6.3935351 -0.11216576
-12.342304 6.3959141 -0.11739731
-13.112285 6.3985276 -0.12321708
-14.712773 6.3201694 -0.1352372
-17.146494 6.4048047 -0.15457802
-21.893681 6.4169064 -0.19267508
-24.05415 6.4242382 -0.21026741
-26.673672 6.438745 -0.23173706
-12.633096 -7.9075212 -0.12586723
-15.653222 -21.67205 -0.22577697
-14.871767 -21.673037 -0.22198142
-14.115742 -21.673994 -0.21844108
-12.675 -21.68132 -0.212097
-9.3853416 -21.689009 -0.19958587
-8.1682425 -21.691294 -0.1957476
-5.2991796 -21.699682 -0.18864822
-4.7480664 -21.701912 -0.18761703
-4.2026758 -21.704115 -0.18669975
-3.6619139 -21.70434 -0.18589187
-3.1256542 -21.705475 -0.18519935
-2.5930078 -21.706606 -0.18462242
-2.0634081 -21.707729 -0.18415596
-1.5361328 -21.708845 -0.18379425
-1.010625 -21.709957 -0.18354507
0.037617188 -21.713238 -0.18337272
1.0863086 -21.715727 -0.18362419
2.140332 -21.718231 -0.18430732
2.6717381 -21.726486 -0.18486694
3.7439744 -21.731386 -0.18623199
4.2866306 -21.733864 -0.18708694
4.8346481 -21.736366 -0.18806098
7.0903516 -21.733095 -0.19306298
8.2710543 -21.735704 -0.19640534
8.878828 -21.740076 -0.19832641
9.4980659 -21.742445 -0.20037788
11.439316 -21.747437 -0.20752349
12.816093 -21.749393 -0.2132003
13.533925 -21.750414 -0.2163462
14.273808 -21.751465 -0.21971549
19.307148 -21.771091 -0.24575065
20.267763 -21.77282 -0.25118139
21.427284 -8.1339998 -0.19355957
28.468418 6.252645 -0.24615547
21.124092 6.2709484 -0.18609558
16.648046 6.2844687 -0.15028235
15.514853 6.288331 -0.14138183
12.792744 6.2976074 -0.12041976
11.895605 6.2168751 -0.11335418
10.208437 6.3145127 -0.10137428
9.6812496 6.3163095 -0.097624205
9.1914358 6.317977 -0.094194181
8.7345705 6.3195333 -0.091048963
7.9055662 6.3223596 -0.085490339
7.527441 6.3236475 -0.083027191
6.422627 6.2412915 -0.075634077
6.202949 6.32583 -0.074821398
5.365459 6.3286829 -0.070070341
4.8621678 6.3303967 -0.067411043
4.6243262 6.3312073 -0.066211849
4.1725001 6.3327451 -0.064045712
3.7483299 6.334188 -0.062159117
3.5452538 6.3348813 -0.061307982
3.3475487 6.3355527 -0.060513761
3.1547754 6.3362098 -0.059776686
2.9665332 6.3368506 -0.059090119
2.602246 6.3380909 -0.057861861
2.4255176 6.3386927 -0.057316054
2.0813768 6.3398643 -0.056353301
1.9134082 6.3404355 -0.05593086
1.5653125 6.2650132 -0.054535598
1.4041797 6.258379 -0.054167785
1.2465332 6.2589135 -0.053895872
1.0903614 6.2594442 -0.053658292
0.63788086 6.3519602 -0.053913575
0.32962888 6.3530087 -0.053724363
0.022792969 6.3540525 -0.053661115
-0.13052735 6.3545737 -0.053676069
-0.59226561 6.3561425 -0.0539122
-0.74738282 6.3566709 -0.054053344
-1.3788574 6.3588181 -0.054950025
-1.5405078 6.3593674 -0.055259246
-2.3823242 6.3622289 -0.057373732
-2.5592089 6.3628297 -0.057919081
-2.7395995 6.3634424 -0.058509368
-2.923789 6.3640685 -0.059145734
-3.1121678 6.3647079 -0.059833448
-3.647285 6.2655845 -0.061225891
-4.0649805 6.2670045 -0.063083492
-4.3411427 6.3517332 -0.064973451
-4.5703416 6.3525109 -0.066090316
-4.8076854 6.3533163 -0.067285538
-5.053916 6.3541527 -0.068566054
-5.3098826 6.3550229 -0.069938354
-5.5764256 6.3559275 -0.071408309
-5.8545899 6.3568711 -0.07298515
