# .PCD v0.7 - Point Cloud Data file format
VERSION 0.7
FIELDS x y z
SIZE 4 4 4
TYPE F F F
COUNT 1 1 1
WIDTH 1538
HEIGHT 1
VIEWPOINT 0 0 0 1 0 0 0
POINTS 1538
DATA ascii
0.029658202 21.840708 2.7816143
-2.6235352 21.885977 2.8073332
-3.7052343 21.904438 2.82936
-4.2531347 21.913792 2.8429995
-4.6772556 21.33309 2.7814989
-4.9168162 20.094885 2.6347644
-5.4363475 20.103754 2.6523559
-7.6251073 20.219374 2.752152
-9.3243752 20.170143 2.8300617
-9.9658108 20.259348 2.875495
-10.585977 20.269943 2.9124155
-11.830996 20.212959 2.9828558
-12.551376 20.303518 3.0400424
-13.965185 20.327671 3.1409957
-14.657314 20.269236 3.1856983
-16.217216 20.287897 3.3078973
-16.662714 19.843801 3.300107
-14.822627 -6.8128366 2.0776482
-14.778759 -7.2295914 2.095351
-14.560927 -8.015769 2.1168904
-13.803681 -8.0389175 2.0344226
-14.464931 -8.8982334 2.1629
-13.092187 -8.9521532 2.0199411
-19.372255 -21.659315 3.7008903
-15.908779 -21.673857 3.4241486
-12.900244 -21.684816 3.2135112
-10.214443 -21.689594 3.053359
-9.5825386 -21.690796 3.0200918
-8.9638968 -21.691973 2.9892595
-8.3556442 -21.688564 2.9601319
-7.760859 -21.691023 2.9340515
-7.1761327 -21.693438 2.9100986
-6.6005468 -21.695814 2.8882046
-4.9201365 -21.702524 2.8341568
-4.3726368 -21.703703 2.8197069
-2.7587109 -21.707163 2.7868423
-2.2279491 -21.707333 2.7791529
-1.6998925 -21.708601 2.7732532
-1.1737499 -21.709858 2.7689891
-0.64893556 -21.711113 2.7663448
-0.12479492 -21.71236 2.7653165
0.924375 -21.729279 2.7699301
1.4505273 -21.731691 2.7738891
2.508867 -21.736546 2.7867291
3.5769141 -21.725538 2.8041966
2.4338868 -8.3433094 1.1068856
2.5373926 -7.9768515 1.0660844
2.7124803 -7.8650327 1.0595815
2.9193749 -7.8454113 1.066121
11.236279 -21.747271 3.1175618
12.608183 -21.759338 3.2028677
13.320566 -21.760777 3.2494597
14.054404 -21.762262 3.2993741
14.811602 -21.763794 3.3528345
15.594179 -21.765375 3.4100823
16.408506 -21.772352 3.472199
19.03162 -21.777067 3.6833954
19.981045 -21.779606 3.764302
10.205937 -7.9129357 1.6447394
18.563408 -9.3469601 2.6470063
19.149549 -8.5101452 2.6688595
19.314579 -8.031147 2.6640682
19.315655 -7.490191 2.6385098
20.289413 -6.7611241 2.7237387
13.32207 12.16821 2.2979181
12.332607 11.822763 2.1758339
10.841182 12.014531 2.0610154
10.573252 12.301907 2.0659311
10.837783 13.243205 2.1794436
16.019012 22.752451 3.5438876
15.183877 22.711378 3.4793966
14.147256 22.307753 3.3642642
13.411191 22.320282 3.3163681
12.695322 22.332476 3.2717013
12.092744 22.520405 3.2555239
11.510371 22.735771 3.2455459
11.438662 25.5879 3.5696599
3.4021094 21.783188 2.807919
2.8667383 21.792316 2.7993624
2.3343065 21.801399 2.7924778
1.8041601 21.810438 2.7872472
0.74829102 21.828449 2.7816851
-0.30583006 21.84643 2.7826149
-1.3631054 21.86447 2.790046
-1.8944824 21.873537 2.7962215
-2.4285157 21.882648 2.8040643
-2.9658885 21.891819 2.8135934
-4.0532517 21.910376 2.8378341
-4.604619 21.91979 2.8526154
-5.2465916 20.100515 2.6457522
-6.3025193 20.118542 2.6850684
-6.8697262 20.206478 2.7181406
-7.4217968 20.215902 2.7427077
-9.0912886 20.127861 2.8128242
-9.7061615 20.176664 2.8515582
-10.989062 20.276829 2.9373019
-11.59166 20.20887 2.9671245
-12.303847 20.299284 3.0231228
-12.991269 20.311029 3.070678
-13.701103 20.323158 3.1216009
-14.435283 20.335703 3.1761153
-15.136846 20.269438 3.2218935
-14.977178 -6.7253003 2.0909593
-14.402187 -6.8894143 2.0333097
-14.750595 -7.4987044 2.1074386
-14.91748 -8.0422859 2.158385
-13.587421 -8.1949062 2.0208566
-13.284443 -8.913517 2.0374539
-19.729004 -21.672279 3.7325559
-18.786005 -21.664282 3.6520233
-17.908466 -21.688253 3.5821486
-17.032862 -21.672428 3.5106163
-15.402822 -21.6745 3.3864796
-14.629404 -21.675478 3.3304787
-13.885215 -21.683455 3.2792697
-11.767774 -21.686386 3.1423967
-11.099716 -21.68791 3.1028855
-10.447773 -21.68915 3.066088
-9.8108006 -21.690361 3.0319057
-7.975986 -21.690134 2.9432852
-4.5710936 -21.703276 2.824753
-3.4876561 -21.705603 2.7998638
-1.3649609 -21.709402 2.7703545
-0.83971679 -21.710659 2.7671199
-0.31541014 -21.711906 2.7655053
0.20860352 -21.713154 2.7655005
1.2589941 -21.730816 2.7722609
1.7862109 -21.733229 2.7772579
2.8479395 -21.7381 2.7922075
3.9206152 -21.726288 2.8117359
1.7408788 -7.5438614 0.98603076
2.1848047 -7.7416234 1.0244793
3.2236524 -7.7164683 1.0650743
3.3733788 -7.5568576 1.0539759
10.99539 -21.746939 3.1035645
11.663135 -21.74786 3.1429577
13.059052 -21.76025 3.2321379
13.784892 -21.761715 3.280822
14.533359 -21.763229 3.3329611
15.306455 -21.764795 3.3887994
16.11038 -21.771791 3.4494221
16.939648 -21.773352 3.5134299
17.800772 -21.774973 3.5819795
18.696308 -21.776171 3.6553476
18.922939 -9.1664925 2.6778846
19.925703 -7.9286609 2.7312462
20.274433 -6.954453 2.7298186
13.662724 10.58155 2.2009146
12.671514 10.312519 2.0807326
13.508554 11.546616 2.2632873
13.489824 12.105989 2.3084362
12.348545 11.631782 2.1605475
11.741621 11.607417 2.102767
11.202773 11.622449 2.0559075
10.744541 11.699368 2.0230527
10.921543 13.109128 2.1730669
11.125537 14.746238 2.3526261
16.330879 22.768196 3.5685329
15.483974 22.725948 3.5023129
14.420381 22.303101 3.382524
13.676475 22.315769 3.3334069
11.734599 22.682451 3.2525082
11.215498 23.023943 3.2617092
11.640918 27.151937 3.7624648
2.7758105 14.603452 1.8931842
2.3745215 14.375051 1.8556042
2.5276172 21.7981 2.7947862
0.41298828 21.834169 2.7812779
-0.64159179 21.85216 2.7842693
-1.1703613 21.861181 2.7882092
-1.7009277 21.870234 2.7937834
-2.7700293 21.888475 2.8099291
-3.8540916 21.906977 2.832902
-4.4034376 21.916355 2.8470309
-4.688086 20.729635 2.70678
-5.0577831 20.09729 2.6393852
-6.1081247 20.115225 2.6773651
-6.6713376 20.203091 2.7097025
-7.7784176 20.221992 2.7594118
-8.3479881 20.23172 2.7874212
-10.133329 20.262209 2.8852978
-11.365751 20.224184 2.9546335
-12.738809 20.306719 3.0530074
-13.440264 20.318701 3.1026788
-14.858007 20.264675 3.2002795
-16.440205 20.291712 3.3260827
-14.810693 -6.9257345 2.0823181
-14.444042 -8.0757113 2.1075799
-13.568115 -8.0217276 2.0074375
-13.466972 -8.8656063 2.0534365
-20.173935 -21.774082 3.7804375
-19.108828 -21.649744 3.6777005
-17.342314 -21.672035 3.535064
-14.907773 -21.675123 3.3504207
-13.420693 -21.684095 3.2478209
-12.708027 -21.685083 3.2010934
-11.34081 -21.68745 3.1169422
-10.040791 -21.689924 3.0440414
-9.4126072 -21.691118 3.0114453
-8.1924314 -21.689238 2.9528069
-7.0183396 -21.694088 2.9039297
-5.8799314 -21.698782 2.8632021
-4.7703319 -21.702847 2.8300362
-3.1466796 -21.706333 2.7933977
-2.6137695 -21.707476 2.7846172
-2.0837598 -21.70768 2.7773831
-1.5562989 -21.708944 2.7719305
-1.0305566 -21.710201 2.7681072
-0.50600582 -21.711452 2.7659051
1.0677148 -21.729937 2.7708478
2.1228125 -21.734772 2.7812979
1.661787 -8.4631586 1.0984428
1.6350878 -7.3804612 0.96276009
1.9280566 -7.8058305 1.0240209
2.4910059 -8.3347406 1.1078995
2.7016211 -8.3036547 1.1121117
2.7091992 -7.6909494 1.0385079
2.9729686 -7.8314223 1.0668547
3.1684473 -7.7754655 1.0693387
3.3192871 -7.6144834 1.0579102
3.4671385 -7.4571209 1.0473676
10.756582 -21.746607 3.0899231
11.418291 -21.747522 3.1282997
12.800361 -21.759726 3.2152505
13.518428 -21.761177 3.2627285
14.258428 -21.762672 3.3135898
15.816211 -21.77124 3.4272146
19.286446 -21.777752 3.7048979
20.247128 -21.780317 3.7873623
18.721395 -9.2726259 2.6607773
19.294785 -8.4231167 2.6813161
19.142939 -7.2787023 2.6083176
19.199423 -6.7745819 2.5929778
12.723046 10.170161 2.0744617
13.505049 11.340036 2.2459402
11.499648 11.170385 2.0417984
11.585889 11.810661 2.1071081
10.774687 13.344265 2.1843584
10.908203 14.197309 2.2802341
10.915185 14.939159 2.3563805
14.961592 22.700724 3.4626074
11.947988 22.606562 3.2565441
11.386797 22.863684 3.2530432
2.7213182 21.794796 2.7973175
2.18958 21.803867 2.7908897
1.1318262 21.821909 2.7829525
0.60460937 21.8309 2.7814305
-0.44963866 21.848886 2.7832446
-1.5077441 21.866938 2.7915659
-2.0397754 21.876019 2.7981937
-2.5746777 21.885143 2.8064952
-4.2029881 21.912933 2.841682
-4.6735058 21.542309 2.8074296
-5.3887305 20.102942 2.6506822
-5.9148536 20.111923 2.6699135
-6.4489942 20.121044 2.6910071
-7.5740819 20.218502 2.7497597
-9.270215 20.169218 2.8270702
-9.8504782 20.136435 2.854969
-10.528857 20.268967 2.9089437
-11.77081 20.211931 2.978884
-14.639951 20.339197 3.1916361
-15.34832 20.273048 3.2384493
-16.143251 20.286634 3.3018973
-16.587393 19.842514 3.2938221
-14.738496 -7.6149774 2.1128192
-13.781523 -8.4361086 2.0579336
-18.547344 -21.675533 3.633265
-16.803602 -21.672722 3.4926763
-15.982167 -21.673761 3.4296777
-13.685078 -21.683729 3.2656288
-10.920429 -21.688251 3.0925865
-9.639492 -21.690685 3.0230174
-9.0197363 -21.691868 2.9919696
-8.4103708 -21.688335 2.962621
-7.8146191 -21.6908 2.9363382
-7.2290235 -21.69322 2.9121954
-4.970283 -21.702417 2.8355603
-4.422246 -21.703596 2.820946
-1.7478613 -21.708483 2.7737234
-0.1725293 -21.712248 2.7653427
0.35148436 -21.713493 2.7657778
1.4025488 -21.73147 2.773464
3.5279002 -21.725431 2.8031785
1.6416211 -7.730526 1.0065075
1.8236231 -7.671659 1.0042814
2.0106347 -7.6346703 1.0054981
2.4148242 -8.3461866 1.1065621
2.7136133 -7.9248099 1.0668285
3.0984278 -7.7988491 1.0687733
10.519902 -21.746279 3.0766382
11.175771 -21.747187 3.1140258
12.538526 -21.749067 3.197279
13.986611 -21.762123 3.2946866
15.521777 -21.765232 3.4046798
16.333466 -21.772211 3.466444
17.171124 -21.773787 3.5316522
18.041454 -21.775425 3.601505
18.947178 -21.77684 3.6763012
19.892832 -21.779369 3.7566993
18.511015 -9.3716125 2.6424668
20.285654 -6.8094621 2.7252386
13.500908 11.135966 2.2289095
13.341435 12.132221 2.2966506
11.039023 11.604397 2.0398221
10.564062 11.655862 2.0034635
10.626328 13.582048 2.1963124
16.096718 22.756355 3.5500045
11.551533 22.693161 3.2430816
11.067285 23.104599 3.2627554
2.9153514 21.791489 2.8000708
1.8523339 21.809616 2.787652
0.79627925 21.827631 2.7817967
0.26928711 21.83662 2.7813048
-1.3147949 21.863647 2.7895641
-1.8459667 21.872707 2.7955911
-2.3797557 21.881819 2.8032827
-3.4577637 21.900215 2.8237417
-5.1992383 20.099707 2.6441362
-6.2537599 20.11771 2.6831124
-6.819941 20.205629 2.716001
-7.3710837 20.215038 2.7403846
-7.9325585 20.224628 2.7668326
-9.0892477 20.241875 2.8259196
-10.301982 20.265093 2.8952959
-11.532148 20.207853 2.9632497
-12.927802 20.309948 3.0662134
-14.367393 20.334541 3.1709993
-16.28952 19.837423 3.269114
-14.983359 -6.6885295 2.0897658
-14.337891 -6.8199492 2.0221083
-14.754648 -7.4599776 2.1056693
-14.323896 -7.6816711 2.0700529
-14.212764 -8.0695972 2.0815353
-13.758759 -8.257082 2.0436385
-13.333008 -8.9036818 2.0418983
-19.819227 -21.675558 3.7406111
-18.86624 -21.660498 3.6583591
-17.98831 -21.687744 3.588583
-17.109901 -21.672331 3.5166745
-15.474511 -21.674406 3.391773
-14.69875 -21.67539 3.3354332
-13.224316 -21.68437 3.2347548
-12.517256 -21.685349 3.1889074
-11.829531 -21.6863 3.1461253
-11.159892 -21.687796 3.1063678
-10.506533 -21.689037 3.0693309
-8.6317768 -21.692602 2.973428
-8.030097 -21.689909 2.9456422
-4.0763865 -21.704338 2.8125772
-3.5366113 -21.705498 2.8008471
-2.4688866 -21.706755 2.7823792
-1.9398047 -21.708025 2.7757308
-0.88751954 -21.710545 2.7673488
-0.36310545 -21.711794 2.7655835
0.68558592 -21.728186 2.768661
1.2110449 -21.730593 2.7718871
3.8712499 -21.726181 2.8106129
1.7178711 -8.4542189 1.0987264
1.9259667 -7.5827446 0.99639577
2.1626368 -7.727993 1.0220429
2.7183397 -8.1719618 1.0968451
3.3598731 -7.5712523 1.0549511
12.285224 -21.748718 3.1812367
13.717919 -21.761581 3.2762477
15.235019 -21.764648 3.3835549
16.036337 -21.771654 3.443809
17.720917 -21.774822 3.5755358
18.875702 -9.194952 2.6740563
19.441406 -8.3353271 2.69402
19.894979 -7.9670911 2.7294273
20.230049 -7.5401449 2.7496274
20.270693 -7.0029655 2.73138
13.713183 10.572524 2.205297
12.684433 10.276751 2.0791402
13.507734 11.49466 2.2589147
12.3525 11.584299 2.1567748
11.226826 11.596209 2.0556295
10.695419 12.171199 2.0635715
10.942471 13.075666 2.1715026
10.711328 13.445771 2.1893964
11.155546 14.718661 2.3521307
15.559707 22.729662 3.5081441
11.262675 22.992165 3.2607131
10.927919 23.742584 3.3287551
11.610527 26.917292 3.7334805
3.1098535 21.788172 2.8030446
2.5761132 21.797276 2.7954025
1.5158496 21.815359 2.7850845
0.46094725 21.833349 2.7812941
-0.065996096 21.842339 2.781832
-1.1221093 21.860359 2.7877798
-1.6525488 21.86941 2.79321
-3.2604883 21.896847 2.8195095
-3.8042576 21.906128 2.8317015
-4.6845312 20.927876 2.7313139
-5.5313768 20.105377 2.6557405
-6.6218262 20.202246 2.7076275
-8.2956734 20.230827 2.7847829
-9.432724 20.171993 2.8360934
-10.077216 20.26125 2.8820004
-10.700214 20.271894 2.9193981
-11.340097 20.282822 2.9595311
-11.951338 20.215012 2.9908571
-12.675996 20.305647 3.0486481
-13.375341 20.317593 3.0980098
-14.098251 20.329943 3.1508627
-16.813711 19.846378 3.3127556
-14.770761 -7.3060441 2.0987337
-14.281435 -7.9436259 2.0812993
-13.646064 -8.0274115 2.016355
-13.51207 -8.8528023 2.0573423
-12.99746 -8.9711943 2.0113714
19.026474 -8.2562466 2.1681218
19.940536 -7.5318594 2.228225
21.105713 -7.3951197 2.3378005
14.816962 11.897383 1.9864132
14.375507 12.1249 1.9658939
14.02998 12.425073 1.9590863
11.193544 10.920935 1.6347713
11.395849 12.245854 1.7486657
10.304589 12.204409 1.6697232
10.456327 13.671271 1.7992151
16.437988 22.602116 2.9214947
15.627812 22.615913 2.8736849
14.84329 22.62928 2.8290408
14.082314 22.642241 2.7873502
13.343007 22.654839 2.7484543
11.343916 22.903601 2.6718087
11.295176 25.874071 2.951247
2.0646191 6.3344903 0.69645852
1.8969824 6.3350577 0.69128454
1.5685742 6.3361673 0.68234229
1.4073437 6.3367143 0.67854577
1.2478125 6.337255 0.67518193
0.93300778 6.3383231 0.6697132
0.46843749 6.3398991 0.66454566
0.31487304 6.3404226 0.66360986
0.16165039 6.3409443 0.66306251
-0.14445312 6.3419867 0.66312814
-0.29413086 6.265883 0.65572226
-0.44540039 6.2592154 0.6559577
-0.75043947 6.2602568 0.65909779
-0.91738278 6.3518119 0.67087257
-1.5547071 6.3539934 0.68380499
-1.7183594 6.3545561 0.68812978
-1.8842089 6.355125 0.69291371
-2.9395409 6.3587556 0.73229957
-12.551279 20.30332 2.4952142
-15.419296 20.274055 2.6626534
-15.800468 -7.2622757 1.8178128
-14.597217 -7.5826664 1.7195129
-13.656299 -7.9530773 1.6520013
-13.926044 -8.5667391 1.7091491
-13.425146 -8.7120018 1.6729952
-18.468447 -21.679626 2.9771183
-16.727489 -21.6728 2.8618927
-15.90877 -21.673838 2.8105032
-9.5826263 -21.690971 2.4788754
-8.9639645 -21.692146 2.4535708
-8.3560247 -21.689571 2.4297605
-7.7612205 -21.692024 2.4083476
-7.1764646 -21.694431 2.3886859
-6.6008396 -21.696798 2.3707187
-6.033535 -21.699131 2.3543713
-5.4737401 -21.701811 2.3396466
-4.9202538 -21.703003 2.3262982
-4.3727245 -21.704176 2.3144338
-3.2926757 -21.706491 2.2950463
-1.6999609 -21.709393 2.2763422
-1.173789 -21.710646 2.2728386
-0.64895505 -21.711899 2.2706697
-0.12481445 -21.713148 2.2698264
0.92435545 -21.728855 2.2734823
1.450498 -21.731264 2.2767346
1.9784179 -21.733685 2.2813287
2.5088184 -21.736115 2.287272
3.0422657 -21.738562 2.2945905
1.7845898 -7.4348173 0.79927528
2.074326 -7.8067956 0.84440178
2.3385155 -8.0164089 0.87292361
2.5365429 -7.974174 0.87473714
2.8463964 -8.2533503 0.91263205
3.2433496 -7.5759711 0.86147726
12.608056 -21.759125 2.6288543
13.320439 -21.760563 2.6670971
14.054267 -21.762043 2.7080655
14.811455 -21.763571 2.7519455
17.248583 -21.773371 2.9037325
19.980869 -21.779436 3.0896795
10.204521 -7.9118371 1.3497955
18.869698 -8.9371071 2.1825998
19.925663 -7.7267375 2.2340562
19.281454 -6.9465189 2.1424029
14.654775 10.451128 1.881596
16.646278 12.48813 2.1753621
13.306298 12.153796 1.8838714
11.778466 12.436301 1.7905536
10.943252 12.127664 1.7075903
10.773633 13.164802 1.7782726
10.54166 13.53499 1.793388
16.739424 22.596979 2.9397106
15.125772 22.624468 2.8449228
13.609463 22.650297 2.7622881
12.175556 22.67473 2.6904111
11.315986 27.047001 3.0648448
2.1262403 6.3342829 0.69846028
1.9576659 6.3348527 0.69311011
1.7915527 6.3354144 0.68823963
1.6276562 6.3359685 0.68383306
1.4657714 6.3365164 0.67987603
0.67873043 6.3391852 0.66645181
0.37067381 6.3402324 0.66390526
0.064257808 6.3412762 0.662916
-0.088779293 6.3417974 0.66300189
-0.23904297 6.265696 0.65545797
-0.3906543 6.2662125 0.6563071
-1.1751953 6.3526936 0.67534369
-1.3345996 6.35324 0.67862689
-1.495664 6.3537908 0.68234456
-2.160918 6.3560748 0.70177788
-2.6889355 6.3578925 0.72161537
-2.8720019 6.3585224 0.72934133
-13.700967 20.322956 2.5621502
-15.875742 -7.1287894 1.8192049
-14.821621 -7.0900536 1.7175225
-14.613643 -7.4290786 1.7137048
-13.888476 -7.9258633 1.6716082
-13.604755 -8.6598072 1.6858395
-13.117549 -8.8015327 1.6513128
-19.728994 -21.672262 3.0636425
-18.786318 -21.66464 2.9975903
-17.908594 -21.688433 2.9402275
-17.032831 -21.672411 2.8814733
-5.994463 -8.0182562 1.0465306
-15.402822 -21.674482 2.7795911
-14.629384 -21.675463 2.7336156
-11.767646 -21.68614 2.5792034
-11.099794 -21.688093 2.5468345
-9.1875391 -21.691723 2.4625518
-7.9763575 -21.691137 2.4159288
-6.238955 -21.698286 2.3601315
-5.6764255 -21.700596 2.344795
-4.5712008 -21.703753 2.318579
-4.0270801 -21.70492 2.3076458
-3.4877441 -21.706074 2.2981527
-2.9525096 -21.707218 2.2900586
-2.4206738 -21.707663 2.2832785
-1.8917773 -21.708931 2.2779474
-1.365 -21.71019 2.2739575
-0.31541991 -21.712694 2.2699783
0.73334962 -21.727978 2.2726302
1.7861816 -21.732801 2.2795012
2.3156054 -21.735229 2.2849517
3.3836424 -21.740129 2.2999673
3.9207323 -21.726913 2.3079126
1.7846972 -7.7337518 0.82969612
1.9542187 -7.6237478 0.82271522
2.2495313 -7.9709172 0.86578816
2.4704101 -8.0090265 0.87614781
2.882412 -7.9591184 0.88488686
3.0373926 -7.7942705 0.87445593
3.1889942 -7.6334958 0.86480141
11.66334 -21.748259 2.5797536
12.348661 -21.74921 2.6144478
13.058926 -21.760036 2.6528759
15.306298 -21.76457 2.7814794
17.800293 -21.774405 2.9399741
19.630791 -21.7785 3.0649841
19.646503 -8.3721266 2.2324474
19.491806 -7.216218 2.1727352
15.561152 12.051853 2.0575006
13.490742 12.106801 1.8948681
12.081553 11.38028 1.7350122
15.411513 22.619598 2.8612111
12.430791 22.670383 2.7027347
11.734492 22.682243 2.6696031
1.2045898 6.3374014 0.67433906
1.046914 6.337935 0.67151147
0.42653319 6.3400431 0.66425174
0.27307618 6.3405643 0.66342187
-0.18622071 6.3421283 0.66325748
-0.33545896 6.2660246 0.65595341
-0.48681641 6.259357 0.65629464
-0.96010739 6.3519559 0.67154092
-1.1175879 6.3524966 0.67425346
-1.4368848 6.3535905 0.6809417
-1.7633495 6.3547111 0.68938774
-1.9298145 6.3552823 0.69430029
-2.2705078 6.356452 0.70558614
-2.804961 6.3582916 0.72646338
-14.165136 20.330883 2.5902655
-14.857851 20.264465 2.6267297
-15.633681 20.277719 2.6765811
-14.846553 -6.9425049 1.7132846
-14.519111 -7.2213378 1.6951175
-14.584863 -7.6985106 1.7239881
-14.57125 -8.6147947 1.7695025
-13.787188 -8.6068478 1.6990212
-19.108789 -21.649723 3.0186141
-18.229336 -21.686384 2.9615119
-17.342304 -21.672018 2.9015422
-16.501318 -21.673086 2.8475268
-15.690624 -21.674116 2.7970934
-14.154707 -21.682821 2.7068317
-12.015068 -21.685793 2.5916133
-11.340899 -21.687634 2.5583746
-10.683212 -21.688881 2.5273647
-10.040889 -21.690102 2.4985378
-6.4454293 -21.697439 2.3661017
-5.8802052 -21.69976 2.3501956
-4.7704391 -21.703325 2.3229156
-3.1467676 -21.706804 2.2928445
-2.6138184 -21.707943 2.2856326
-1.5563378 -21.709734 2.2752542
-1.0306054 -21.710991 2.2721164
-0.5060156 -21.71224 2.2703085
0.018046875 -21.713488 2.2698228
0.54249024 -21.727106 2.2719553
1.5942285 -21.731924 2.2778547
2.1227832 -21.734344 2.2828157
2.6538963 -21.73678 2.2891309
3.1883299 -21.739233 2.2968199
1.8671386 -7.5592375 0.81395316
2.1619823 -7.9261947 0.85883594
2.4062011 -8.0510254 0.87839758
2.9814453 -7.8537436 0.87815893
10.756777 -21.747 2.5362215
13.518281 -21.760962 2.6779871
15.022187 -21.763996 2.7644331
18.366201 -21.775461 2.9778531
20.246973 -21.780146 3.1086013
19.010605 -8.8511868 2.192117
18.873652 -8.239275 2.1527638
19.936806 -7.5805597 2.2296655
19.978729 -7.0495625 2.2146771
14.955234 10.814531 1.9292663
16.57995 12.609697 2.1774924
14.83042 11.854694 1.9847217
14.068193 12.403865 1.9606118
13.16085 12.180752 1.8745883
12.085645 11.739597 1.7612869
11.926387 12.157768 1.780322
11.424004 12.222099 1.748855
10.755606 12.078535 1.6906719
10.346601 12.199651 1.6721816
10.710761 13.265087 1.7822628
10.477744 13.637063 1.7977395
15.700498 22.614676 2.8779027
13.409472 22.653706 2.7518847
11.985713 22.677961 2.6813707
11.385332 22.860727 2.6697214
11.262841 24.052303 2.7763207
11.292324 25.713242 2.9357193
1.9121288 6.3350067 0.69173622
1.7466503 6.3355656 0.68699425
1.5833398 6.3361173 0.68271047
1.1041015 6.3377423 0.67249078
0.94721675 6.3382745 0.66992682
0.79145509 6.3388019 0.66776907
-0.13052735 6.341939 0.66309118
-0.58368164 6.2596879 0.65719229
-0.90312499 6.3517632 0.6706565
-1.060166 6.3523002 0.67321891
-1.7033691 6.3545051 0.68771613
-1.8690039 6.3550739 0.69245827
-2.2077246 6.3562369 0.70338494
-2.5581348 6.3574419 0.71635658
-2.738457 6.3580632 0.72366369
-2.9225879 6.3586969 0.73155129
-10.528769 20.26878 2.3876081
-11.770703 20.211735 2.4450104
-12.489023 20.302258 2.4917014
-13.182353 20.314096 2.5314693
-13.898594 20.32633 2.5740445
-14.639804 20.338991 2.6196356
-16.143114 20.286421 2.7101376
-15.819297 -7.2288809 1.8181485
-14.555859 -7.971375 1.7348254
-13.972841 -8.5532331 1.7125829
-13.469872 -8.6989965 1.6761801
-12.988222 -8.8392248 1.6423154
-19.460957 -21.662523 3.0440934
-18.547646 -21.675894 2.9821975
-17.671171 -21.689949 2.9245856
-14.427412 -21.682444 2.7224879
-12.964648 -21.684475 2.6410346
-12.264794 -21.685446 2.6043372
-11.58374 -21.686394 2.5701306
-10.272754 -21.689663 2.5087774
-9.6395702 -21.690865 2.4812813
-8.4107418 -21.689348 2.4317992
-5.5243063 -21.701218 2.3408866
-4.9703903 -21.702894 2.3274484
-4.4223437 -21.704071 2.3154562
-3.8795898 -21.705235 2.3049164
-3.3414452 -21.706388 2.2958062
-2.8072362 -21.707529 2.2880917
-2.2762303 -21.70801 2.2816887
-1.7479395 -21.709274 2.2767239
-1.2216699 -21.710535 2.2731061
-0.69672853 -21.711786 2.2708101
-0.17253906 -21.713037 2.2698457
0.35149413 -21.714281 2.2702029
1.9302734 -21.733461 2.2808542
2.9935644 -21.738338 2.2938671
3.5279784 -21.726055 2.300889
1.7576953 -7.3942871 0.7944997
2.0436621 -7.7600369 0.8388561
2.3160839 -8.004941 0.87111855
2.5133789 -7.9619503 0.87278724
2.9250195 -7.9137669 0.88196647
3.0790331 -7.7500329 0.8717466
3.2297657 -7.5903344 0.86230123
9.8794231 -21.745779 2.496799
12.53875 -21.749472 2.6243286
13.986474 -21.761906 2.7042174
14.741455 -21.76343 2.7478201
15.521611 -21.765005 2.7945361
18.040976 -21.774853 2.9559982
19.892694 -21.779202 3.0834329
18.82291 -8.9656162 2.1794624
19.722616 -8.2516632 2.2348828
14.557714 10.333703 1.8662164
16.782461 12.532734 2.1895578
15.524306 12.187563 2.0631876
14.191113 12.292542 1.9626275
11.786484 11.806093 1.7439053
11.798457 12.402724 1.7894454
10.79456 13.131428 1.7769653
10.562929 13.501027 1.7919543
15.992969 22.609694 2.8950253
14.425595 22.636396 2.8059549
13.676641 22.649153 2.7658098
11.550038 22.690247 2.6615441
11.2529 23.49209 2.7229478
1.4804394 6.3364663 0.68021935
1.1614746 6.3375483 0.67352635
0.84798825 6.3386111 0.66850698
0.6928125 6.3391376 0.6666047
0.53843749 6.3396626 0.66509986
0.078203127 6.3412299 0.66292703
-0.074843749 6.3417497 0.66297781
-0.22708984 6.3170109 0.66077232
-0.37682617 6.2661653 0.65621358
-0.52829099 6.2594986 0.6566596
-1.0029101 6.3521037 0.67223901
-1.3200293 6.353189 0.67831075
-1.4809277 6.3537407 0.68198764
-1.9756347 6.3554387 0.6957227
-2.1453125 6.3560209 0.7012499
-2.317832 6.3566141 0.70728189
-2.4934375 6.3572197 0.7138378
-2.8551464 6.3584647 0.72861439
-3.0419042 6.359108 0.73688757
-10.301885 20.264904 2.3764086
-10.930879 20.275644 2.4079056
-12.242188 20.298038 2.4779022
-13.635371 20.321833 2.5582247
-23.362089 -7.8282938 2.5756159
-15.894619 -7.0953083 1.819576
-14.82787 -7.0530229 1.7164471
-14.617764 -7.3907604 1.7122744
-13.650146 -8.6466217 1.6891057
-13.161064 -8.7888575 1.6543539
-18.866552 -21.660862 3.0027933
-17.988457 -21.687922 2.945493
-14.69874 -21.675375 2.737674
-13.952314 -21.683102 2.6953497
-11.829394 -21.686052 2.582293
-11.16 -21.687979 2.5496991
-10.506601 -21.689219 2.5192943
-9.8682814 -21.690432 2.4910436
-9.2437401 -21.691616 2.4648392
-8.0304785 -21.690914 2.4178674
-7.4412012 -21.693342 2.3974173
-6.8615918 -21.695726 2.3786831
-5.7273731 -21.700386 2.3461266
-4.0764747 -21.704811 2.3085845
-3.5367088 -21.705969 2.2989557
-3.0011718 -21.707113 2.2907403
-2.4689844 -21.707548 2.2838302
-0.8875488 -21.711332 2.2714932
0.16085938 -21.713831 2.2699206
0.68557614 -21.72776 2.2724466
1.2110351 -21.730165 2.2750912
1.7380176 -21.73258 2.2790713
2.2672656 -21.735006 2.2843988
3.8713574 -21.726807 2.3069878
4.4150782 -21.727993 2.3177559
4.9640918 -21.729191 2.3299856
2.7320702 -8.2132454 0.90482658
2.868125 -7.9743328 0.88587624
3.175293 -7.6479964 0.86565161
10.285322 -21.746346 2.5147014
11.601738 -21.748173 2.576709
12.285459 -21.749123 2.6111856
14.464033 -21.762869 2.7316136
15.234843 -21.764423 2.7771628
16.86244 -21.772652 2.8787804
17.720459 -21.774256 2.9346893
19.543964 -21.778271 3.0588939
18.637236 -9.078783 2.1671081
19.152802 -8.764535 2.2018125
19.251591 -7.7094436 2.1678371
19.755917 -7.3634219 2.2039733
14.314082 12.180832 1.9647738
13.968808 12.480495 1.9581569
12.081006 11.329687 1.7313491
11.38249 11.203015 1.6695142
11.802099 12.190425 1.7737005
11.168974 12.107971 1.7219718
10.571591 12.030283 1.67415
10.647636 13.36581 1.7863492
11.360147 14.988623 1.9660119
16.288965 22.60465 2.9125719
15.483525 22.618374 2.8653522
13.211005 22.657087 2.7416823
12.495166 22.669285 2.7058725
11.797226 22.681177 2.6725183
11.270556 24.486986 2.8178701
11.300957 26.199625 2.9827063
1.8667969 6.3351593 0.69039726
1.7019433 6.3357172 0.68578267
1.5391601 6.3362689 0.68162024
1.3782812 6.336812 0.67790335
1.2190429 6.3373528 0.67461705
1.0612206 6.3378863 0.67175132
0.90467769 6.3384185 0.66929847
0.59452146 6.3394718 0.66560143
0.13387695 6.3410392 0.66300511
-0.17227539 6.3420806 0.66321099
-0.32164061 6.2659769 0.65587288
-0.47298828 6.2593098 0.65617895
-0.62524414 6.2598295 0.6576246
-0.9458105 6.3519082 0.67131537
-1.1031836 6.352448 0.6739893
-1.261914 6.3529902 0.67708164
-1.4221874 6.3535395 0.68060005
-1.5842481 6.3540959 0.68455637
-1.7482812 6.3546586 0.68896264
-2.2547557 6.3563972 0.705028
-10.700127 20.271704 2.3961921
-12.675869 20.305449 2.502275
-13.375234 20.31739 2.5427849
-14.098115 20.329739 2.5861707
-14.788584 20.263281 2.622354
-15.561865 20.276491 2.6719003
-16.365225 20.290215 2.7249639
-14.852773 -6.905695 1.7122455
-14.588984 -7.6597624 1.7224816
-14.299922 -7.9539065 1.7105206
-13.833398 -8.5934925 1.7023818
-13.336514 -8.7377834 1.6667062
18.81794 -8.7112074 1.6966189
21.03372 -7.3698926 1.8235241
14.583964 11.710298 1.5302908
13.54913 11.427902 1.450228
12.637871 11.748352 1.4117831
11.784141 11.497146 1.3470224
5.0853124 6.3264995 0.6641134
4.3716893 6.3265715 0.62918603
4.1502638 6.3273163 0.61911762
3.9356835 6.3280387 0.60971475
3.727412 6.3287396 0.6009391
3.5249317 6.329423 0.59275228
3.1355176 6.3307352 0.57801706
2.9477735 6.3313699 0.57141274
2.7641602 6.3319902 0.56528294
2.4080176 6.3331928 0.55436039
1.8969336 6.3349237 0.54104817
1.7316797 6.3354826 0.5373702
1.5685253 6.3360367 0.53405023
1.0897559 6.3376603 0.52614373
0.77729493 6.3387213 0.52250522
0.31487304 6.3402934 0.51938832
0.16165039 6.3408146 0.51896065
-0.44539061 6.2590876 0.5133999
-0.75041991 6.2601275 0.51585668
-0.91736329 6.3516812 0.52507287
-1.0745019 6.3522186 0.52710748
-1.2329687 6.3527594 0.529468
-1.5546582 6.3538613 0.53519434
-1.8841699 6.3549905 0.54232293
-2.2233593 6.356154 0.55094522
-2.3972559 6.3567495 0.55585015
-2.5743554 6.3573589 0.56117302
-2.7549999 6.3579788 0.56693214
-2.9394825 6.3586125 0.57314825
-3.1281738 6.3592606 0.57984382
-4.6022363 6.3643389 0.64259744
-4.8409567 6.3651628 0.65428883
-5.0886817 6.3660188 0.66680795
-5.3462305 6.3669071 0.68021995
-5.5252147 6.2665777 0.6835497
-6.476953 6.3536639 0.74233741
-6.7987595 6.3547783 0.76141882
-23.530331 18.078911 2.4278412
-23.460722 17.141291 2.377279
-24.698847 16.278419 2.4202435
-15.722265 -7.2263317 1.4157339
-15.391533 -7.5293636 1.4019097
-14.463047 -7.5129614 1.3334695
-14.446318 -7.9526868 1.3492334
-14.256875 -8.3028345 1.3498645
-13.743632 -8.4545126 1.3202047
-13.253115 -8.6003656 1.2926528
-19.372236 -21.659283 2.3775258
-17.577168 -21.671701 2.2830315
-16.727461 -21.672783 2.239964
-15.908759 -21.673822 2.1997406
-13.618271 -21.68331 2.0949664
-12.899941 -21.684311 2.0643785
-12.201923 -21.685286 2.0358377
-11.5225 -21.686232 2.0092375
-10.860996 -21.688723 1.9845926
-10.214628 -21.689951 1.9615756
-8.3564253 -21.690578 1.9018334
-7.1767869 -21.695419 1.8696789
-6.0337892 -21.700104 1.8428179
-5.4738669 -21.702291 1.8312531
-4.3728223 -21.704651 1.811517
-3.8305078 -21.705811 1.8033731
-3.2927344 -21.706961 1.7963418
-2.2281151 -21.708914 1.7855182
-1.7000195 -21.710178 1.7817276
-0.64898437 -21.712685 1.7772866
-0.12482422 -21.713932 1.7766284
0.92435545 -21.72843 1.7793918
3.5771093 -21.726782 1.8015804
4.118125 -21.727968 1.8093935
4.6641698 -21.729162 1.818341
2.0245214 -7.6193094 0.64502919
2.5356739 -7.9714923 0.68441641
2.7514746 -7.9780955 0.69048285
2.9074707 -7.813416 0.68210548
3.059912 -7.6528277 0.67433751
10.579355 -21.747143 1.9786865
11.23667 -21.74806 2.0028634
11.910664 -21.749001 2.0288358
12.607939 -21.758913 2.0575495
14.054131 -21.761826 2.1195462
14.811308 -21.76335 2.1538882
16.407684 -21.771254 2.2305017
18.121494 -21.774435 2.3178034
19.980722 -21.779266 2.4182334
10.203115 -7.9107432 1.0563226
20.304052 -9.6164532 1.8381475
19.146425 -8.508749 1.7142538
19.752899 -8.2134056 1.7502933
19.651875 -7.6205688 1.7245413
15.712412 10.098577 1.5281863
15.383271 10.419985 1.5201923
15.748271 11.230959 1.5825915
11.784326 11.297129 1.335657
11.462988 11.532634 1.3303988
10.68789 12.435286 1.3415899
5.1771092 6.3261933 0.66882408
4.8608398 6.2411294 0.64723915
4.623877 6.2419267 0.63556159
4.2299705 6.3270488 0.62270027
4.0129685 6.3277788 0.61305946
3.8024511 6.3284879 0.60406059
3.5979297 6.3291764 0.59566396
3.2049022 6.330502 0.58054203
3.0155663 6.3311419 0.57375848
2.8304882 6.3317657 0.56745934
2.6493456 6.332377 0.56161934
2.4717674 6.3329792 0.55621892
2.2974803 6.3335671 0.55123985
2.1261914 6.334147 0.54666436
1.9576269 6.3347158 0.54247701
1.7915137 6.335279 0.53866583
1.1470703 6.3374639 0.52694315
0.98986328 6.3379998 0.52484763
0.8338086 6.3385296 0.52307194
0.21735351 6.3406253 0.51908028
0.064257808 6.3411469 0.51884526
-0.088789061 6.3416667 0.51891243
-0.23903319 6.2655683 0.51300865
-0.3906543 6.2660856 0.51367223
-0.54213864 6.2594171 0.51404911
-0.84816402 6.2604632 0.51689661
-1.017207 6.3520222 0.52632999
-1.823584 6.3547821 0.54091787
-2.3336425 6.3565311 0.55401862
-2.6888671 6.3577518 0.56478566
-3.0590527 6.359024 0.57735282
-3.4470117 6.3603582 0.59190083
-3.8559864 6.3617668 0.60865456
-4.7531443 6.3648601 0.64994514
-4.9974999 6.3657022 0.66215569
-5.6991696 6.2671795 0.69308096
-6.6798043 6.3543658 0.75431496
-23.419315 16.56551 2.3470244
-14.59625 -7.8691063 1.356734
-14.673818 -8.3740406 1.3823278
-13.927597 -8.4000721 1.3307434
-13.429091 -8.5479994 1.3024478
-19.728985 -21.672245 2.397872
-17.032793 -21.672394 2.2552886
-14.629375 -21.675446 2.1395874
-12.453515 -21.684933 2.0459898
-11.767509 -21.68589 2.0186834
-10.447939 -21.689508 1.969753
-9.1876068 -21.691896 1.9274206
-7.9767284 -21.692139 1.8910034
-7.3883886 -21.694553 1.8751208
-6.2392282 -21.699263 1.8473269
-5.1209278 -21.703047 1.8244662
-4.5712891 -21.704226 1.8147644
-3.4878125 -21.706543 1.7987716
-2.9525683 -21.707685 1.7924371
-2.4207518 -21.708454 1.7871569
-1.8918457 -21.709717 1.7829843
-1.3650488 -21.710979 1.7798626
-0.31542969 -21.713482 1.7767473
0.73333985 -21.727552 1.7787228
1.258955 -21.729963 1.7808877
2.3155565 -21.734802 1.7883682
4.4649806 -21.728727 1.8149514
5.0145507 -21.729929 1.8246322
1.9098535 -7.4506989 0.62931222
2.851162 -7.8728271 0.68508065
3.0048535 -7.7107553 0.6770919
10.344179 -21.746813 1.9703189
10.995771 -21.747725 1.9938681
11.663554 -21.748657 2.0191791
15.306152 -21.764347 2.1770022
16.10957 -21.770702 2.2158699
16.93878 -21.772242 2.25699
17.799843 -21.773838 2.3010216
19.630634 -21.778332 2.3989029
19.636475 -7.8135705 1.7291406
15.502666 10.30352 1.5229965
15.175204 10.622571 1.5155724
16.293858 12.001675 1.6557465
14.066962 10.894631 1.4557498
13.87042 11.85593 1.4929327
12.639443 11.342834 1.3895035
12.637353 11.903826 1.4204462
11.082285 10.95562 1.2750078
10.842714 11.806272 1.3115268
12.218867 14.666286 1.5618511
4.7090626 6.241641 0.63971931
4.0911231 6.3275151 0.61649054
2.5359375 6.3327618 0.55813283
2.3605175 6.3333549 0.55300343
2.1881738 6.3339362 0.54828268
1.8516601 6.3350773 0.54000968
1.6870019 6.3356342 0.53642994
1.5244043 6.3361859 0.53320545
1.2045703 6.3372684 0.52778524
0.89043945 6.3383365 0.5236817
0.73500973 6.3388638 0.52210748
0.58043945 6.3393888 0.52084446
0.42651367 6.3399138 0.51989114
0.2730664 6.340435 0.51924127
-0.18621093 6.342 0.51911199
-0.33544922 6.2658978 0.5133968
-0.48681641 6.2592278 0.51366293
-1.1175684 6.352366 0.52771902
-1.4368554 6.3534575 0.53295404
-1.599082 6.354013 0.53608161
-1.7633106 6.3545756 0.53956306
-1.9297754 6.3551469 0.54340857
-2.2704589 6.3563151 0.55224079
-2.4451854 6.3569131 0.55725884
-2.6232324 6.3575263 0.56269872
-2.8048925 6.358151 0.56858116
-2.9904981 6.3587885 0.57492483
-3.5746875 6.3607974 0.59697956
-3.7799022 6.3615055 0.60543203
-3.9911425 6.3622332 0.61449087
-4.6664548 6.3645611 0.64570606
-5.1578903 6.3662567 0.67037255
-5.418252 6.3671575 0.68403965
-5.5991502 6.2668338 0.68758065
-5.8780565 6.267797 0.70304543
-6.8893943 6.355092 0.7668708
-23.442724 16.892736 2.3641455
-15.651973 -7.3191342 1.4137106
-14.114619 -8.3448267 1.3415633
-13.607793 -8.4948683 1.3124981
-20.170839 -21.770744 2.4282613
-18.229483 -21.686562 2.3179574
-17.342295 -21.672001 2.2709985
-16.501299 -21.673069 2.2287226
-15.690605 -21.674099 2.1892447
-13.420371 -21.683586 2.0864198
-12.014921 -21.685547 2.0284019
-11.340986 -21.687815 2.0024202
-10.68329 -21.689062 1.9781528
-8.1931934 -21.691248 1.897119
-6.4457226 -21.698418 1.8520007
-4.7705469 -21.703798 1.8181585
-4.2244825 -21.704967 1.8091851
-3.1468358 -21.707272 1.7946136
-1.5564063 -21.71052 1.7808752
1.0676563 -21.729086 1.7799802
1.5941992 -21.731499 1.7828137
2.6538575 -21.736355 1.7916372
3.7241504 -21.727104 1.8035998
4.2664647 -21.728291 1.8117208
4.8140039 -21.729492 1.8209777
1.9086132 -7.7271299 0.65122074
2.4225683 -8.1057501 0.69218373
2.6319237 -8.0894203 0.69601232
2.7943749 -7.9327784 0.68813819
10.110918 -21.746489 1.9621719
12.09748 -21.749262 2.0362401
13.518164 -21.760746 2.096005
15.02204 -21.763775 2.163666
15.815439 -21.770155 2.2016065
16.633701 -21.771675 2.2417123
18.365713 -21.774889 2.3306649
19.289316 -8.4207363 1.7220489
21.001034 -7.4102859 1.8220959
15.294003 10.50696 1.5181689
15.508408 11.214551 1.5658658
14.626845 12.896441 1.5954846
11.78418 11.446762 1.3441485
10.545645 11.842761 1.2974368
5.1081638 6.3264236 0.66528279
4.7953806 6.2413507 0.6439774
4.5607419 6.2421393 0.63251716
4.3814063 6.310926 0.62858665
4.1701269 6.3272491 0.62000585
3.5431347 6.3293619 0.59347558
3.3455076 6.3300285 0.58579534
3.1528516 6.330678 0.57864416
2.7807324 6.331934 0.56582218
2.4239452 6.3331389 0.55482018
2.2504981 6.3337259 0.5499534
1.746621 6.3354316 0.53768945
1.5833007 6.3359857 0.53433752
1.104082 6.3376117 0.52633899
0.94719726 6.3381424 0.52433246
0.79143554 6.3386722 0.52264333
0.32883787 6.3402457 0.51944238
0.17560546 6.3407669 0.5189867
-0.28033203 6.2657084 0.51315969
-0.90311521 6.3516326 0.52490395
-1.3783203 6.3532572 0.53190178
-1.868955 6.3549371 0.54196543
-2.2076757 6.3560991 0.55051827
-2.3812792 6.3566947 0.55538654
-2.7383885 6.3579216 0.56638986
-2.9225292 6.3585539 0.57256371
-3.3036621 6.3598652 0.58636707
-3.5014355 6.3605461 0.5940482
-3.7045801 6.3612456 0.60228932
-4.5809178 6.3642654 0.64157188
-4.8188672 6.365087 0.65319049
-5.0657225 6.3659382 0.66563207
-5.5007224 6.2664933 0.68222141
-5.7751856 6.2674417 0.69729942
-6.0788865 6.285645 0.71543723
-6.4484472 6.3535662 0.74066979
-23.536922 18.166384 2.4326324
-23.402235 16.323513 2.3345022
-15.745781 -7.1952877 1.416427
-14.899736 -8.1597033 1.3899024
-14.317139 -8.2958832 1.3538404
-13.296943 -8.5873203 1.2950839
-18.547949 -21.67625 2.3341687
-16.803564 -21.672686 2.2437646
-15.982128 -21.673727 2.2032964
-14.427246 -21.682182 2.1308327
-13.684755 -21.683218 2.0978599
-12.964482 -21.684221 2.0670781
-10.920606 -21.68861 1.9867755
-10.272851 -21.68984 1.9636029
-8.4111328 -21.690351 1.9034268
-7.8153319 -21.692801 1.8865365
-7.2296777 -21.695204 1.8710265
-6.6532226 -21.697567 1.8568405
-6.0851464 -21.699894 1.8439337
-4.4224219 -21.704542 1.8123138
-3.3415039 -21.706856 1.796936
-1.747998 -21.710064 1.7820278
-1.221709 -21.711317 1.779194
-0.69676757 -21.71257 1.7773995
-0.17255859 -21.71382 1.7766433
0.35150391 -21.715065 1.7769247
0.87651366 -21.72821 1.7792108
2.9935057 -21.737909 1.7953429
3.5280957 -21.726675 1.8009256
1.9952539 -7.5762768 0.64101356
2.5125389 -7.9592834 0.68289143
2.8934178 -7.8282461 0.68284398
3.0461621 -7.6672826 0.67501962
3.1956639 -7.5101891 0.66778463
9.87959 -21.746164 1.9542452
10.520303 -21.747061 1.976571
12.538984 -21.749878 2.0540817
16.332636 -21.771114 2.2268054
18.040518 -21.774286 2.3135641
18.946894 -21.77651 2.3616986
19.892538 -21.779034 2.4133453
10.172431 -7.922832 1.0549483
19.098993 -8.5379648 1.7116797
19.203651 -7.4953289 1.6866469
15.74251 10.069129 1.5289584
15.413115 10.390882 1.520885
15.586093 11.063677 1.5638436
14.211083 12.309838 1.5382833
12.636894 12.061279 1.4292812
11.190732 11.763874 1.3284351
10.714619 11.82197 1.305408
10.745684 12.447109 1.3454071
5.2002831 6.3261137 0.67002249
4.4173436 6.2449517 0.6258527
4.2500782 6.3269815 0.62361091
3.4167967 6.3297882 0.58852482
3.2223632 6.3304434 0.58118463
3.0326269 6.3310833 0.57435602
2.6656737 6.3323221 0.56213218
2.4877832 6.3329239 0.55669224
2.1416795 6.3340945 0.5470649
1.9728711 6.3346648 0.5428437
1.8065526 6.3352299 0.53899771
1.3201464 6.3368778 0.52960092
1.1614453 6.3374152 0.52715003
1.0041211 6.3379498 0.52502477
0.84796876 6.3384805 0.5232206
0.69280273 6.3390079 0.52173084
0.38463867 6.3400564 0.51968408
0.23128906 6.3405781 0.51911706
-0.074843749 6.3416204 0.51889396
-0.22798827 6.3421426 0.51923501
-1.0028906 6.3519731 0.52614188
-1.1607422 6.3525128 0.52835393
-1.3200097 6.3530569 0.5308944
-1.6436523 6.3541656 0.53699499
-1.8084668 6.3547306 0.54057503
-1.9755957 6.3553033 0.54452187
-2.4933789 6.3570795 0.55869943
-2.8550878 6.3583221 0.57026374
-3.0418358 6.358964 0.57673877
-3.6300585 6.3609891 0.59922504
-3.8368652 6.361701 0.6078397
-4.0498438 6.3624344 0.6170702
-4.2695117 6.3631916 0.62695611
-4.4964552 6.3639741 0.63754034
-4.7313185 6.3647842 0.64887369
-4.9748631 6.3656254 0.66100806
-5.4707618 6.3438139 0.68538672
-5.9726562 6.2852774 0.70940083
-6.3358493 6.3531756 0.73411155
-23.425117 16.647011 2.3512716
-23.364756 -7.8291988 2.0161312
-14.304043 -7.2321477 1.3114154
-13.974121 -8.3863268 1.3334262
-13.473564 -8.5347729 1.3049401
-19.819189 -21.675524 2.4030411
-18.866856 -21.661221 2.3502855
-17.109873 -21.672297 2.2591808
-6.0081735 -7.9998918 0.81854284
-13.952158 -21.682844 2.1095917
-13.224023 -21.683859 2.0780251
-11.160097 -21.688158 1.9956305
-9.2438087 -21.691792 1.9292129
-7.4415331 -21.694336 1.876513
-6.2908106 -21.699053 1.8484811
-5.1713476 -21.702938 1.8254104
-3.5367675 -21.706438 1.7994039
-1.9399414 -21.709602 1.783319
-1.4129199 -21.710861 1.7801001
-0.88756835 -21.712116 1.7779318
-0.36313477 -21.713366 1.7767974
2.7991502 -21.73702 1.793171
3.3345995 -21.739475 1.7994866
4.4151855 -21.728619 1.8141321
2.2040527 -7.8760147 0.66915852
6.6524024 -21.736197 1.8598418
2.6946192 -8.1006489 0.69848776
2.8370018 -7.8877807 0.68583792
2.9909863 -7.7253575 0.67779487
9.6500874 -21.745844 1.9465322
10.285498 -21.746733 1.968258
10.935761 -21.747641 1.9916537
15.234707 -21.764202 2.1736407
19.543808 -21.778103 2.3941398
18.910946 -8.6538582 1.7015716
19.632626 -7.862031 1.7303195
15.532637 10.27427 1.5237173
15.365019 11.265498 1.5588373
15.078457 11.625124 1.5577823
13.761054 11.710234 1.4783926
14.530712 12.982527 1.5942758
12.637519 11.851599 1.4175271
10.420401 11.858232 1.2915961
12.249619 14.637646 1.5616635
4.4998927 6.2446733 0.62975913
4.1108298 6.3274493 0.61736214
3.690244 6.3288665 0.59941077
3.4887793 6.3295465 0.59132791
3.2925196 6.3302054 0.5837943
3.1011326 6.3308525 0.57678306
2.9141502 6.3314838 0.57026571
2.3763573 6.3333011 0.55345327
2.0339649 6.3344598 0.54433417
1.8667578 6.3350263 0.54035282
1.7019141 6.3355827 0.53674108
1.5391308 6.3361344 0.5334847
1.2190235 6.3372211 0.52800316
0.7491504 6.3388162 0.52223682
0.59451169 6.3393426 0.52094764
0.13386719 6.34091 0.518915
-0.62523437 6.2597003 0.51470327
-0.94580078 6.351778 0.52541894
-1.1031641 6.3523164 0.52751088
-1.2618945 6.3528581 0.52993202
-1.4221483 6.3534074 0.53268486
-1.7482421 6.3545232 0.53923029
-2.2547071 6.3562603 0.55180532
-2.6068749 6.357471 0.5621857
-2.7881737 6.3580923 0.56802636
-3.3570507 6.3600483 0.58840644
-3.7609375 6.3614397 0.6046375
-4.4130273 6.363687 0.63360727
-4.6449313 6.3644867 0.64466071
-5.5743356 6.2667475 0.68622214
-5.8521485 6.2677078 0.70159203
-6.2252049 6.3527932 0.72772515
-6.5341306 6.3538613 0.74569511
-23.517256 17.905569 2.4183736
-23.448681 16.975492 2.3685014
-23.385536 16.084202 2.3222318
-24.727098 16.142149 2.4160571
-15.67542 -7.2881765 1.4143808
-13.652998 -8.4814339 1.315058
10.008965 6.2178669 0.69738102
9.6266012 6.6447015 0.69229513
8.6914454 6.3141899 0.63581884
8.2663279 6.3156195 0.61569238
7.4909668 6.3182292 0.57999551
6.7990723 6.3205585 0.54942054
5.6069531 6.3245759 0.50023687
4.371582 6.3264151 0.45512518
3.9355955 6.3278885 0.4410404
3.7273242 6.3285928 0.4346917
2.9477148 6.3312287 0.41333365
2.4079688 6.333056 0.40099981
2.2348046 6.3336444 0.39750588
1.8968945 6.3347893 0.39137077
1.7316308 6.3353496 0.38870919
1.5685059 6.3359027 0.38630882
0.93296874 6.3380618 0.37915885
0.77727538 6.3385906 0.3779566
0.6225 6.339118 0.37698296
0.46841797 6.3396416 0.37623221
0.16165039 6.3406863 0.37539312
-0.59753907 6.2594781 0.37214988
-0.75041014 6.2600007 0.37314841
-0.91734374 6.3515506 0.37981498
-1.0744922 6.3520865 0.38128731
-1.2329395 6.3526287 0.38299429
-1.3929297 6.3531756 0.38494238
-1.7182909 6.3542876 0.38958365
-2.0523827 6.3554316 0.39527047
-2.2233105 6.3560171 0.39852974
-2.7549317 6.3578386 0.4100939
-2.939414 6.3584709 0.41459006
-3.1281054 6.3591166 0.41943243
-3.5196288 6.3604617 0.43023336
-3.9328222 6.3618793 0.44266334
-4.1487598 6.3626213 0.44955117
-4.3716502 6.3633881 0.45692801
-4.602119 6.3641791 0.46482596
-5.0885544 6.3658524 0.48233727
-5.3460836 6.3667388 0.49203941
-5.5250683 6.266408 0.49444464
-5.8006248 6.2673578 0.50542104
-6.476748 6.3534794 0.53696984
-7.1375389 6.3557563 0.56564045
-7.4955468 6.3569903 0.58168262
-8.2773142 6.3596854 0.61779135
-8.7062788 6.361165 0.63816351
-9.1647854 6.3627472 0.66032249
-9.6565723 6.3644452 0.68448782
-10.186054 6.3662724 0.71092123
-11.229218 6.2860794 0.76164752
-12.090137 6.3898625 0.80934423
-14.587041 -8.0301533 0.98550618
-14.069053 -8.1934614 0.96358889
-19.372227 -21.659266 1.7198367
-18.469042 -21.680342 1.685621
-17.577168 -21.671686 1.6514803
-16.727461 -21.672766 1.6203207
-15.118496 -21.674809 1.5640537
-12.201757 -21.68504 1.4726483
-11.523232 -21.687651 1.4535149
-10.861103 -21.688904 1.4356087
-10.214706 -21.690126 1.4189596
-9.5827732 -21.691322 1.4034985
-8.3568068 -21.69158 1.3757941
-7.7619238 -21.694016 1.3636661
-6.0340624 -21.701077 1.3331029
-4.9204588 -21.703953 1.3171438
-3.830586 -21.70628 1.3045367
-2.7589061 -21.708567 1.2951525
-2.2282031 -21.7097 1.29164
-1.7000684 -21.710962 1.2888968
-0.64899415 -21.713467 1.2856839
1.4504297 -21.730415 1.2889774
1.9783496 -21.732834 1.2915771
3.0421386 -21.737707 1.2990844
4.1182423 -21.728588 1.3089013
4.6642966 -21.729788 1.3153744
2.5348339 -7.9688253 0.49492058
2.7218456 -7.8921757 0.49409613
2.876533 -7.7302756 0.4881652
9.3100681 -21.746889 1.4000839
9.9375191 -21.74663 1.4150925
10.579531 -21.747532 1.4313501
11.910889 -21.749401 1.4676281
12.607812 -21.758703 1.4883578
13.320166 -21.760134 1.5100104
14.053994 -21.761608 1.5332055
14.811142 -21.76313 1.5580441
15.5937 -21.764702 1.5846353
16.407255 -21.77071 1.6134421
17.247694 -21.772259 1.6439309
19.031181 -21.776569 1.7116662
19.980566 -21.779099 1.749266
19.432098 -8.6357088 1.2585431
19.534512 -7.5750585 1.2400318
8.8530569 6.3136468 0.64356327
8.4177828 6.3151116 0.62282002
8.0094624 6.3164849 0.6037125
7.6252146 6.3177776 0.58607477
7.2626171 6.3189983 0.5697611
6.9194236 6.3201532 0.55464423
6.5938087 6.3212504 0.54061532
6.2840719 6.3222942 0.52757895
5.9887695 6.3232889 0.51544911
5.7065721 6.3242402 0.50415272
5.4363184 6.3251529 0.49362051
5.1769724 6.3260269 0.4837963
4.396709 6.2448664 0.45201635
4.2298632 6.3268938 0.45043203
3.5978417 6.32903 0.43087637
3.204834 6.3303595 0.41993797
2.8304296 6.3316264 0.41047415
1.9575781 6.3345842 0.39240423
1.6275878 6.3357024 0.38715261
1.4657031 6.3362527 0.38491234
0.98984373 6.3378677 0.37965187
0.52439451 6.3394513 0.37648049
0.21734375 6.3404975 0.37548086
0.064267576 6.3410172 0.37531057
-0.23902343 6.2654409 0.3710871
-0.69471675 6.25981 0.37275946
-1.0171875 6.3518915 0.3807241
-1.1751562 6.3524323 0.38234565
-1.4955957 6.3535256 0.38630912
-1.6585253 6.3540835 0.38866463
-2.3335936 6.3563943 0.40075263
-2.5094922 6.3569965 0.40449226
-2.8718653 6.3582392 0.41291556
-3.0589843 6.35888 0.417631
-3.2505274 6.3595366 0.42270285
-3.4469237 6.3602128 0.42815375
-4.2897558 6.3631058 0.45418754
-6.3636522 6.3530889 0.53219503
-7.0121384 6.3553228 0.56010288
-7.362998 6.3565335 0.5757041
-8.1279879 6.3591704 0.61078972
-9.4736128 6.3638139 0.67545235
-9.9888277 6.3655915 0.70102775
-18.786953 -21.665361 1.6972113
-17.908886 -21.688791 1.6646972
-17.032784 -21.672377 1.6314083
-5.995625 -8.0198011 0.59263068
-15.402793 -21.67445 1.5737246
-14.629355 -21.675432 1.5477035
-10.448027 -21.689688 1.4248736
-9.187685 -21.69207 1.3942535
-8.5768747 -21.693228 1.38061
-7.9770899 -21.693134 1.3679614
-6.2395215 -21.700237 1.3363642
-2.4208593 -21.70924 1.2928274
-1.3650879 -21.71176 1.2875451
-0.83980465 -21.713013 1.286047
2.3155077 -21.734377 1.2936313
2.8477538 -21.736816 1.2974865
3.3835156 -21.739271 1.3021262
5.0146971 -21.730556 1.3199258
2.1556346 -7.6382761 0.46972784
2.8206933 -7.7886977 0.49027228
3.4603319 -8.2830219 0.5312891
10.344365 -21.747202 1.4252985
10.995976 -21.748117 1.4423357
13.058672 -21.759609 1.5019594
13.784472 -21.761066 1.5245841
16.109179 -21.770161 1.6028568
17.799385 -21.773273 1.6644512
18.695879 -21.775679 1.698634
19.07959 -8.6803532 1.2405964
9.8643456 6.2183537 0.6901415
9.6257029 6.3975639 0.68404758
8.5728321 6.314589 0.63016623
8.1550388 6.3159952 0.61048484
7.042109 6.3197417 0.56001014
6.3949804 6.3219209 0.53221047
6.0945802 6.3229327 0.51976037
5.8077536 6.3238993 0.50816888
5.2700877 6.3257108 0.48728964
4.7089548 6.2414813 0.46274024
4.0910153 6.3273625 0.44594032
3.2748144 6.3301225 0.42181358
3.0838377 6.3307681 0.41677496
2.8972559 6.331398 0.41209188
2.5358887 6.332624 0.40372902
2.018584 6.3343768 0.39347404
1.8516113 6.3349419 0.39061865
1.6869531 6.3355012 0.38802999
1.524375 6.3360515 0.38569832
1.3636426 6.3365984 0.38361534
1.2045507 6.3371391 0.38177696
1.046875 6.3376737 0.38017645
0.8904199 6.3382072 0.3788085
0.73499995 6.3387346 0.3776699
0.11992187 6.3408279 0.3753466
-0.63913083 6.2596207 0.37239936
-0.79223633 6.2601447 0.3734597
-0.96005857 6.3516974 0.38019323
-1.4368261 6.3533258 0.38551489
-1.9297363 6.3550115 0.39307702
-2.0987012 6.3555889 0.39613089
-2.2704101 6.3561783 0.39946753
-2.6231737 6.3573856 0.40703148
-3.1803319 6.3592963 0.42081642
-3.5745995 6.3606501 0.43182775
-3.9910448 6.3620791 0.4444944
-4.4336915 6.3636017 0.45902762
