# .PCD v0.7 - Point Cloud Data file format
VERSION 0.7
FIELDS x y z
SIZE 4 4 4
TYPE F F F
COUNT 1 1 1
WIDTH 1497
HEIGHT 1
VIEWPOINT 0 0 0 1 0 0 0
POINTS 1497
DATA ascii
5.999043 2.0416582 -1.9686495
5.8325095 2.4686792 -1.9675612
5.7700586 2.6080909 -1.9671482
5.6350098 2.8819897 -1.9662484
5.5624704 3.0163171 -1.9657623
5.3254981 3.4078174 -1.9641626
5.2402148 3.5342169 -1.9635834
5.151865 3.6584587 -1.9629817
4.9662204 3.9001153 -1.961713
4.8690624 4.0174017 -1.9610468
4.7690721 4.1322269 -1.9603599
4.6663475 4.2445073 -1.9596528
3.7880468 4.3885417 -1.8010104
3.5690331 4.5622468 -1.7994876
3.4564745 4.6449699 -1.7987031
3.341953 4.7248859 -1.7979041
2.7427831 5.080761 -1.7937093
2.6181641 5.1429267 -1.7928338
2.4921288 5.2020097 -1.7919478
2.3647754 5.2579656 -1.7910513
2.2361329 5.3107829 -1.7901453
1.7105566 5.4900956 -1.7864342
1.5768163 5.5268216 -1.7854878
1.4422852 5.5602775 -1.7845349
1.3070605 5.5904398 -1.7835761
1.1712109 5.6173029 -1.7826123
0.76077145 5.677968 -1.7796954
0.071894526 5.7124467 -1.7747838
-0.06585937 5.7093511 -1.7737994
-0.20343749 5.7029328 -1.7728152
-0.47767577 5.680191 -1.7708514
-0.614209 5.6638837 -1.7698724
-1.0204102 5.5954156 -1.7669553
-1.1544434 5.5661359 -1.7659912
-1.2876366 5.5336685 -1.7650322
-1.4199706 5.4980254 -1.7640786
-1.5513476 5.4592462 -1.7631314
-1.6816602 5.4173503 -1.7621908
-1.9388964 5.3243256 -1.7603316
-2.0656738 5.2732673 -1.7594141
-2.1911035 5.219213 -1.7585055
-2.5588574 5.0394778 -1.7558366
-2.6783202 4.9738321 -1.7549679
-2.7961426 4.9053888 -1.7541103
-3.0265429 4.7602825 -1.7524307
-3.1390038 4.6837006 -1.7516093
-3.4646873 4.4384427 -1.7492254
-3.5691698 4.3516788 -1.7484585
-3.7275684 4.3275738 -1.7743896
-4.0946679 4.3142643 -1.8478369
-4.6019921 3.9959013 -1.8934023
-4.6953125 3.8823187 -1.892709
-4.9585743 3.5290222 -1.8907452
-5.040586 3.4072881 -1.8901305
-5.1197071 3.2837012 -1.8895364
-5.1958299 3.1582983 -1.8889631
-5.2689743 3.0311768 -1.8884108
-5.4060349 2.7720318 -1.8873706
-5.4698925 2.640152 -1.8868831
-5.693584 2.0990186 -1.8851577
-5.741416 1.9606934 -1.8847834
-5.7859569 1.821303 -1.8844324
-5.8271875 1.6809362 -1.8841048
-5.8996387 1.3975323 -1.8835204
-5.9586229 1.1111212 -1.8830312
-6.004004 0.82231259 -1.8826388
-6.0464454 0.38598511 -1.8822328
-6.0537109 0.2400244 -1.8821462
-6.057539 0.093947142 -1.8820843
-6.0579295 -0.052182615 -1.8820469
-6.0483594 -0.34425598 -1.8820463
-6.0384278 -0.49004638 -1.8820828
-6.0082321 -0.78072816 -1.8822296
-5.987998 -0.92547053 -1.8823401
-5.9069138 -1.3563293 -1.882817
-5.8731346 -1.4985729 -1.8830247
-5.8360157 -1.6399822 -1.8832564
-5.7517676 -1.920061 -1.8837918
-5.6543651 -2.1959298 -1.8844223
-5.5440235 -2.4669888 -1.8851461
-5.4840527 -2.6005385 -1.8855429
-5.4209571 -2.7326672 -1.8859621
-5.3547068 -2.8632827 -1.8864044
-5.2854099 -2.9923384 -1.8868688
-5.213037 -3.1197588 -1.8873556
-5.1376562 -3.2454491 -1.8878644
-5.0593262 -3.3693669 -1.8883945
-4.9780273 -3.491431 -1.8889461
-4.893867 -3.6115692 -1.8895187
-4.8068357 -3.729727 -1.8901123
-4.7170215 -3.8458331 -1.8907263
-4.6244235 -3.9598045 -1.8913606
-4.5291505 -4.0716009 -1.8920146
-4.431211 -4.1811399 -1.8926883
-4.2275681 -4.3932238 -1.8940923
-4.013916 -4.5955596 -1.8955703
-3.9034765 -4.692935 -1.896336
-3.7907128 -4.7876968 -1.8971188
-3.5584667 -4.9691515 -1.8987347
-3.4390819 -5.055748 -1.8995669
-3.0687304 -5.2983646 -1.9021543
-2.9414062 -5.3733597 -1.9030459
-2.812295 -5.4453282 -1.903951
-2.4147851 -5.6426725 -1.9067434
-2.2791307 -5.7021251 -1.907698
-1.8637598 -5.8609672 -1.9106268
-1.5806054 -5.950253 -1.9126279
-1.4373926 -5.9898143 -1.9136413
-1.2932031 -6.0259585 -1.9146626
-1.0021679 -6.0878634 -1.9167264
-0.85552734 -6.1135864 -1.9177676
-0.70820314 -6.1357846 -1.9188147
-0.5594629 -6.1450105 -1.9169203
-0.41038084 -6.1460619 -1.9136038
-0.11332031 -6.1476312 -1.9101635
0.035 -6.1481519 -1.9100311
0.18337891 -6.1484952 -1.9109554
0.78064454 -6.148109 -1.9253218
1.3752539 -6.0706439 -1.9337094
1.5221094 -6.0390038 -1.9347656
1.6682129 -6.0038023 -1.9358174
1.8135155 -5.9650426 -1.9368644
1.9579101 -5.9227467 -1.9379056
2.2436328 -5.827641 -1.9399685
2.384795 -5.7748632 -1.9409894
2.5247071 -5.7186527 -1.9420016
2.8004198 -5.5959964 -1.9439998
2.9360547 -5.5296278 -1.9449841
3.0701075 -5.4599352 -1.9459579
3.3330858 -5.3107495 -1.9478713
3.4619043 -5.2313294 -1.9488102
3.5887597 -5.1487646 -1.9497356
3.8364453 -4.9743204 -1.9515457
4.0755076 -4.7878208 -1.9532974
4.3053708 -4.5896878 -1.9549857
4.5254493 -4.3803487 -1.956607
4.7351661 -4.1603141 -1.9581567
4.8359766 -4.0464354 -1.9589037
4.9340038 -3.9300878 -1.959631
5.2106934 -3.5668263 -1.961693
5.2969432 -3.4412432 -1.9623388
5.380127 -3.313535 -1.9629629
5.4601464 -3.1837933 -1.9635653
5.5369825 -3.052072 -1.9641452
5.6808786 -2.7830553 -1.9652363
5.7478514 -2.6459134 -1.9657474
5.8114352 -2.5071306 -1.966234
5.871582 -2.3668027 -1.9666967
5.9282908 -2.224992 -1.9671353
6.0772362 -1.7916156 -1.9683013
6.1586032 -1.4969647 -1.9689523
6.2532129 -1.0481945 -1.9697342
6.2977052 -0.74556029 -1.9701234
6.3143649 -0.5935083 -1.9702784
6.3272557 -0.44106504 -1.9704064
6.3363671 -0.28833863 -1.9705077
6.3433008 0.017555542 -1.9706296
6.3411036 0.17053589 -1.97065
6.3253708 0.47612548 -1.9706099
6.29457 0.78054136 -1.9704618
6.2735643 0.93208188 -1.9703478
-3.5199804 -4.4323468 -1.8991364
-3.3047361 -4.6005597 -1.9006339
-3.1941211 -4.6808248 -1.901405
-3.0815527 -4.7584662 -1.9021906
-2.9671483 -4.8334351 -1.9029897
-2.8509374 -4.9056859 -1.9038028
-2.732959 -4.9751825 -1.9046289
-2.6133204 -5.041872 -1.9054675
-2.3692577 -5.1666679 -1.907181
-2.2449803 -5.2247009 -1.9080547
-1.9922754 -5.3318543 -1.9098343
-1.8639843 -5.3809013 -1.9107388
-1.7344824 -5.426887 -1.9116528
-1.6038769 -5.46978 -1.9125754
-1.339541 -5.5461817 -1.9144452
-1.205996 -5.5796289 -1.9153908
-0.66418946 -5.6812415 -1.9192364
-0.52723634 -5.6984997 -1.9202104
-0.38983399 -5.7124667 -1.9211884
0.16260742 -5.7351928 -1.9251285
0.43945312 -5.7265587 -1.9271075
0.85363281 -5.6885448 -1.9300745
0.99111325 -5.669199 -1.9310608
1.4005176 -5.5912094 -1.9340032
1.5357422 -5.5586028 -1.9349766
1.670205 -5.5227118 -1.9359454
2.1987891 -5.3466501 -1.9397621
2.5833008 -5.1811128 -1.9425472
2.7087793 -5.1196966 -1.943458
2.8327734 -5.0552182 -1.9443588
2.9552343 -4.9877081 -1.9452493
3.0760643 -4.9172034 -1.946129
3.1951854 -4.8437424 -1.946997
3.3125391 -4.767365 -1.9478532
3.4280369 -4.6881156 -1.9486969
3.6532421 -4.5211687 -1.9503444
3.7627537 -4.4335666 -1.9511474
3.8701465 -4.3432775 -1.9519356
3.9753516 -4.2503548 -1.952709
4.0783105 -4.1548505 -1.9534668
4.1788864 -4.056818 -1.9542084
4.2771091 -3.9563146 -1.9549338
4.3728614 -3.8533995 -1.9556417
4.5567775 -3.6405797 -1.9570056
4.8127732 -3.3048174 -1.9589132
4.8925681 -3.1887522 -1.9595106
5.0435548 -2.9508111 -1.9606451
5.1146679 -2.8290782 -1.9611816
5.3098435 -2.4537356 -1.9626645
5.4244041 -2.1958077 -1.9635437
5.5262208 -1.9324478 -1.9643332
5.7231345 -1.2545331 -1.9658998
5.7524314 -1.1162714 -1.9661416
5.8007712 -0.83774292 -1.9665527
5.8198047 -0.69765317 -1.9667218
5.8353515 -0.55712342 -1.9668661
5.8474607 -0.41624451 -1.9669857
5.8560739 -0.27510497 -1.9670806
5.8612304 -0.13378967 -1.9671508
5.8628807 0.0076190182 -1.9671961
5.855742 0.29033691 -1.9672122
5.8469434 0.43148315 -1.9671825
5.799736 0.85298401 -1.9669452
5.7770996 0.9925549 -1.9668163
5.7215428 1.2697766 -1.9664853
5.6886816 1.4072614 -1.9662832
5.652451 1.5438757 -1.9660566
5.569922 1.8141754 -1.9655312
5.5237012 1.947688 -1.9652326
5.421504 2.2110443 -1.964565
5.3065233 2.4689612 -1.9638048
5.2443261 2.5956817 -1.9633906
4.965127 3.0858667 -1.9615126
4.7250977 3.4339068 -1.9598806
4.55125 3.6555536 -1.9586915
4.4603124 3.7630608 -1.9580675
4.1723533 4.071568 -1.9560839
4.0714746 4.1695232 -1.9553866
3.9682813 4.2649503 -1.9546722
3.8056445 4.2932901 -1.9250195
3.6304197 4.3002434 -1.8883163
3.2983983 4.3128572 -1.8218051
3.1489649 4.3299956 -1.7964325
3.0423045 4.4028621 -1.795688
2.9390233 4.4801545 -1.7977761
2.8240721 4.5405879 -1.7941622
2.7125487 4.6053739 -1.7933809
2.369287 4.7830024 -1.7909715
2.1339159 4.8871698 -1.7893151
2.0144823 4.9348931 -1.7884734
1.8939745 4.9796782 -1.7876233
1.6500195 5.0603313 -1.7859001
1.5267578 5.0961676 -1.7850283
1.4027051 5.1289873 -1.78415
1.2779688 5.1587701 -1.7832663
0.90027344 5.2297907 -1.7805859
0.77350587 5.2473249 -1.7796845
0.64637697 5.2617788 -1.7787802
0.51903319 5.2731462 -1.7778732
0.39148438 5.2814298 -1.7769644
0.26385742 5.2866254 -1.776054
0.1361914 5.2887359 -1.7751429
0.008613281 5.2877703 -1.7742316
-0.24614257 5.276607 -1.7724097
-0.49980468 5.2532048 -1.7705923
-0.75179684 5.2176566 -1.7687843
-0.87694335 5.1953654 -1.7678851
-1.1253418 5.141829 -1.7660986
-1.2484082 5.1106229 -1.7652124
-1.3706152 5.0764885 -1.7643315
-1.8496581 4.9111919 -1.7608713
-1.9666113 4.8628116 -1.7600245
-2.3097949 4.7012396 -1.7575353
-2.4213769 4.6420169 -1.7567244
-2.640039 4.5157537 -1.755133
-3.1233008 4.3242044 -1.7898108
-3.2807226 4.3187776 -1.8197943
-3.6120312 4.306778 -1.8860232
-3.8414941 4.1557035 -1.8988714
-3.939121 4.0602984 -1.8981515
-4.1273046 3.8627887 -1.8967608
-4.217783 3.7607841 -1.8960905
-4.3057714 3.6567035 -1.8954376
-4.3912401 3.550597 -1.8948021
-4.4741602 3.4425335 -1.8941842
-4.5544333 3.3325634 -1.8935852
-4.6320605 3.2207615 -1.8930043
-4.9152441 2.7564423 -1.8908719
-5.0399313 2.5149407 -1.8899244
-5.0979199 2.3920915 -1.8894813
-5.1529784 2.2679284 -1.8890586
-5.2050877 2.1425316 -1.8886569
-5.2541699 2.015965 -1.8882763
-5.3002634 1.8882904 -1.8879168
-5.3433204 1.7595947 -1.887579
-5.4539843 1.3680242 -1.8866961
-5.4846778 1.2359173 -1.8864455
-5.5578613 0.83586729 -1.8858284
-5.5759177 0.70151734 -1.8856677
-5.6163378 0.16105652 -1.8852512
-5.6130662 -0.2454187 -1.8851783
-5.6055565 -0.38073179 -1.8851999
-5.5810351 -0.65065122 -1.8853112
-5.5639744 -0.78510559 -1.8854014
-5.5203514 -1.0526458 -1.8856497
-5.4938378 -1.1855841 -1.8858076
-5.4313669 -1.449433 -1.8861914
-5.3954687 -1.5801961 -1.8864168
-5.3564939 -1.7100921 -1.8866644
-5.3144531 -1.8390527 -1.8869342
-5.2212596 -2.0938621 -1.8875395
-5.1160841 -2.3440752 -1.8882315
-5.059072 -2.4672778 -1.8886093
-4.9991503 -2.5891235 -1.8890086
-4.9363475 -2.7095525 -1.8894286
-4.8022265 -2.9458568 -1.8903304
-4.7309766 -3.0616028 -1.890812
-4.657002 -3.1756587 -1.8913134
-4.5803318 -3.2879574 -1.8918344
-4.419004 -3.5070519 -1.8929348
-4.3344531 -3.613719 -1.8935133
-4.0658202 -3.9214642 -1.895359
-3.7756054 -4.2096038 -1.8973635
-3.5708885 -4.3900657 -1.898783
-3.357666 -4.5607133 -1.9002655
-3.247998 -4.6422372 -1.9010293
-3.0228417 -4.7974253 -1.9026005
-2.4289844 -5.1374817 -1.9067614
-2.3054101 -5.1969352 -1.9076296
-2.0540235 -5.3069816 -1.909399
-1.797412 -5.4049773 -1.9112085
-1.4039648 -5.5288205 -1.9139892
-0.73039061 -5.6716943 -1.9187658
-0.59370118 -5.6905432 -1.9197375
-0.4565039 -5.7061076 -1.9207138
-0.31891602 -5.7183747 -1.9216933
-0.18098633 -5.7273307 -1.9226763
-0.0428125 -5.732965 -1.9236617
0.095517576 -5.7352738 -1.9246494
0.23393553 -5.7342472 -1.925638
0.37236327 -5.7298803 -1.9266276
0.78686523 -5.6967249 -1.9295957
1.0617578 -5.6579318 -1.9315681
1.1985253 -5.6335397 -1.9325507
1.3347266 -5.6058359 -1.93353
1.6051172 -5.5405192 -1.9354763
1.7391406 -5.5029407 -1.9364425
2.2656152 -5.3202386 -1.9402456
2.5219531 -5.2097721 -1.9421023
2.6481249 -5.1498599 -1.9430175
2.8960545 -5.020812 -1.9448187
3.0176854 -4.9517555 -1.9457037
3.1376464 -4.8797255 -1.9465774
3.2558692 -4.8047504 -1.9474396
3.3722851 -4.7268915 -1.9482894
3.4868066 -4.6461768 -1.9491264
3.8183594 -4.3873811 -1.9515555
4.3267579 -3.9035902 -1.9553008
4.513164 -3.6929998 -1.9566817
4.6024704 -3.58429 -1.9573452
4.6891208 -3.4733934 -1.9579904
4.854248 -3.2452631 -1.9592234
5.0080466 -3.0091765 -1.9603778
5.1501269 -2.7656775 -1.96145
5.2166796 -2.6413369 -1.9619547
5.2801757 -2.5153661 -1.962438
5.766201 -1.0447619 -1.9662569
5.7903318 -0.90547425 -1.966462
5.8282418 -0.62530088 -1.9667991
5.852334 -0.3435553 -1.9670379
5.8624997 -0.060942382 -1.9671773
5.8623829 0.08047729 -1.9672097
5.8587403 0.22184631 -1.9672173
5.8410544 0.50410402 -1.9671578
5.826992 0.64481324 -1.9670906
5.7885056 0.92496461 -1.966882
5.764111 1.0642285 -1.9667407
5.7362695 1.2028394 -1.9665747
5.6704197 1.47776 -1.9661694
5.6324511 1.6138959 -1.9659305
5.4986329 2.0160151 -1.9650699
5.3355665 2.4069738 -1.9639977
5.1442184 2.7846258 -1.9627204
5.0743456 2.9071949 -1.9622505
5.0014939 3.027976 -1.9617587
4.7656054 3.3788981 -1.9601569
4.5943556 3.6026311 -1.9589869
4.4124608 3.817559 -1.9577386
4.1206641 4.1223493 -1.9557269
4.0186133 4.2190127 -1.955021
3.714541 4.2969279 -1.9058044
3.3767772 4.3099494 -1.8371304
2.9867187 4.4393692 -1.7952996
2.877578 4.5081964 -1.7945366
2.6545117 4.6376777 -1.7929739
2.5407519 4.6982574 -1.792176
2.191416 4.8629866 -1.7897201
2.0725195 4.9121246 -1.7888824
1.8314843 5.0015945 -1.7871823
1.7094922 5.0418806 -1.7863204
1.586621 5.079174 -1.7854519
1.3385254 5.1447086 -1.7836955
1.2134472 5.172924 -1.7828088
1.0877832 5.1980853 -1.7819173
0.45333007 5.2778034 -1.777405
0.32574219 5.2844939 -1.7764956
0.19809569 5.2880998 -1.7755847
0.070449218 5.2886233 -1.7746735
-0.057109375 5.2860651 -1.7737615
-0.18449219 5.2804389 -1.7728506
-0.31161132 5.2717462 -1.7719407
-0.81637692 5.2065434 -1.7683206
-1.0654101 5.1558928 -1.7665299
-1.1888672 5.1261172 -1.7656411
-1.3114941 5.0934024 -1.7647576
-1.4332324 5.0577703 -1.76388
-1.5540527 5.0192475 -1.7630078
-1.6738183 4.9778619 -1.7621428
-2.2551563 4.7289934 -1.7579321
-2.478291 4.6104803 -1.7563106
-2.7012012 4.4913263 -1.7585517
-2.9058788 4.3430414 -1.7533849
-3.0487597 4.3267093 -1.7759696
-3.2037597 4.3214555 -1.8050119
-3.5295703 4.309833 -1.8691591
-3.6923633 4.2930708 -1.8999689
-4.0825682 3.9114654 -1.897092
-4.1742282 3.8104937 -1.8964133
-4.2634473 3.7074139 -1.8957517
-4.3501267 3.6022832 -1.895108
-4.4342771 3.495163 -1.8944814
-4.5158396 3.3861046 -1.8938732
-4.5947752 3.2751849 -1.8932834
-4.6710157 3.1624615 -1.8927122
-4.7445407 3.0479889 -1.8921599
-4.8833008 2.8140874 -1.8911136
-5.0107713 2.5740039 -1.8901466
-5.0701756 2.451812 -1.8896934
-5.2307715 2.0774646 -1.888458
-5.2783103 1.9503161 -1.8880885
-5.4026952 1.5627759 -1.8871084
-5.4379883 1.4318048 -1.8868253
-5.4701853 1.30005 -1.8865643
-5.499248 1.1675848 -1.8863255
-5.5479589 0.90084046 -1.8859144
-5.5839939 0.63213867 -1.8855935
-5.607285 0.36208311 -1.8853635
-5.61415 0.22672179 -1.8852823
-5.6178122 0.091243893 -1.8852242
-5.6182809 -0.044273071 -1.8851886
-5.6155272 -0.17976928 -1.8851763
-5.6095896 -0.31515563 -1.8851867
-5.5881443 -0.58533323 -1.8852762
-5.5320802 -0.98798949 -1.8855811
-5.4476461 -1.3857477 -1.8860902
-5.3757715 -1.6472317 -1.8865417
-5.3352051 -1.7766579 -1.8868006
-5.0870895 -2.4077182 -1.8884234
-4.9028611 -2.7710185 -1.8896533
-4.835752 -2.8891535 -1.8901045
-4.693213 -3.1205807 -1.8910677
-4.2898927 -3.6678996 -1.8938187
-4.2015233 -3.7715077 -1.8944253
-4.1106935 -3.8730187 -1.89505
-4.0174413 -3.972388 -1.8956926
-3.7237206 -4.2570124 -1.8977228
-3.6213086 -4.3472075 -1.8984331
-3.4100878 -4.5202751 -1.8999004
-3.1907227 -4.6832242 -1.9014286
-3.0781152 -4.7607856 -1.9022144
-2.963623 -4.8356762 -1.9030145
-2.8473535 -4.9078469 -1.9038278
-2.6096485 -5.0438538 -1.9054931
-2.3654981 -5.1684775 -1.9072073
-2.115459 -5.2814035 -1.9089663
-1.9884082 -5.3333898 -1.9098614
-1.8600488 -5.3823481 -1.9107666
-1.7305468 -5.4282408 -1.9116806
-1.5998925 -5.4710364 -1.9126036
-1.4681737 -5.5107179 -1.9135348
-1.3354785 -5.5472436 -1.9144739
-1.0674804 -5.6107535 -1.9163729
-0.5230664 -5.6989746 -1.9202399
-0.38564453 -5.712841 -1.9212183
-0.24789062 -5.7234015 -1.9221994
0.028427733 -5.7345719 -1.9241701
0.30526367 -5.7324152 -1.9261477
0.44366211 -5.726326 -1.9271377
0.58193356 -5.7168918 -1.9281274
0.85783201 -5.6880078 -1.9301046
1.1322753 -5.6457772 -1.9320745
1.4046386 -5.5902691 -1.9340328
1.6742675 -5.5215659 -1.9359747
1.8078418 -5.482306 -1.9369379
1.9405273 -5.439795 -1.9378954
2.3321288 -5.2929831 -1.9407269
2.4603026 -5.2377014 -1.9416555
2.5871289 -5.1792893 -1.942575
2.8365331 -5.0532074 -1.9443859
3.6565917 -4.5185456 -1.9503691
3.7660351 -4.430861 -1.9511714
4.081377 -4.1519084 -1.9534897
4.2800684 -3.9532189 -1.9549555
4.4689255 -3.7448964 -1.9563534
4.5595016 -3.6372681 -1.9570259
4.6474509 -3.5274289 -1.9576799
5.0457716 -2.9471278 -1.9606619
5.1847949 -2.7018259 -1.9617127
5.2497849 -2.5766313 -1.9622065
5.3704395 -2.3215654 -1.9631284
5.4260449 -2.1918378 -1.9635563
5.4784665 -2.0607622 -1.9639617
5.5735936 -1.794847 -1.9647038
5.6162109 -1.6601889 -1.9650401
5.6914845 -1.3878418 -1.9656421
5.7532716 -1.1120532 -1.9661486
5.7790427 -0.97307128 -1.9663655
5.8014159 -0.83349484 -1.9665582
5.820322 -0.69338441 -1.9667263
5.8342576 0.57664245 -1.9671264
5.7991114 0.85723507 -1.9669416
5.7763672 0.99679381 -1.9668123
5.7206054 1.2739704 -1.9664794
5.6876268 1.4114331 -1.9662765
5.6512694 1.548012 -1.9660492
5.6115818 1.6836517 -1.9657977
5.4726658 2.0840094 -1.9649004
5.4198437 2.2150104 -1.9645542
5.3638477 2.3446381 -1.9641849
5.3046775 2.4728355 -1.9637927
5.2423825 2.599514 -1.9633776
4.8054395 3.323405 -1.9604285
4.7225294 3.43734 -1.9598631
4.5485058 3.6588604 -1.9586728
4.4575095 3.7662933 -1.9580483
4.1693163 4.0745816 -1.9560629
4.0683594 4.1724663 -1.9553653
3.9651172 4.2678156 -1.9546504
3.8002148 4.2935076 -1.9238687
3.6251953 4.3004484 -1.8872367
3.4564648 4.3069487 -1.8529538
3.038955 4.4050369 -1.7956644
2.9342773 4.4807572 -1.7971511
2.8206835 4.5425992 -1.7941384
2.7091405 4.6072979 -1.793357
2.5960839 4.6692414 -1.792564
2.3657715 4.7846732 -1.7909466
2.1303027 4.88867 -1.7892895
1.76875 5.0227251 -1.7867391
1.5230078 5.0972099 -1.7850018
1.3989258 5.1299348 -1.7841233
1.1487793 5.1862688 -1.7823501
1.022832 5.2098541 -1.7814562
0.8964355 5.2303691 -1.7805585
0.64251953 5.2621708 -1.7787526
0.51514649 5.2734466 -1.7778456
0.25998047 5.2867374 -1.7760264
0.13232422 5.2887578 -1.7751154
0.004736328 5.2876897 -1.7742038
-0.12274414 5.2835503 -1.7732925
-0.25000975 5.2763395 -1.7723817
-0.37702146 5.2660723 -1.7714725
-0.50366211 5.2527518 -1.7705648
-0.88076168 5.1946354 -1.7678578
-1.2521484 5.1096258 -1.7651855
-1.6158886 4.9982805 -1.7625614
-1.8532324 4.9097586 -1.7608453
-1.9701562 4.8612919 -1.7599988
-2.0858397 4.8100724 -1.7591604
-2.3132031 4.6994758 -1.7575107
-2.424746 4.6401749 -1.7567
-2.5348144 4.5782547 -1.7558993
-2.7501757 4.4467144 -1.7543302
-2.9774413 4.3322392 -1.7638241
-3.1279979 4.3240461 -1.7906932
-3.2855859 4.3186078 -1.8207382
-3.4485059 4.3127923 -1.8528241
-3.7446678 4.2459879 -1.8995841
-4.0372753 3.9596367 -1.8974267
-4.1300974 3.8597198 -1.8967403
-4.2204785 3.7576506 -1.8960705
-4.5568357 3.3291888 -1.8935672
-4.7092381 3.1036992 -1.8924253
-4.7813478 2.9883549 -1.891883
-4.8506932 2.8713775 -1.8913602
-4.9809275 2.632735 -1.8903736
-5.1545997 2.2641327 -1.8890461
-5.2066212 2.1387036 -1.8886449
-5.2556248 2.0120952 -1.888265
-5.3445702 1.7556665 -1.8875692
-5.3844528 1.6259747 -1.8872536
-5.4549704 1.3640198 -1.886688
-5.5129981 1.0990906 -1.886211
-5.5584569 0.83178401 -1.8858231
-5.5912204 0.5626837 -1.8855256
-5.6028123 0.42763549 -1.8854107
-5.6112204 0.29236084 -1.8853189
-5.6164355 0.1569397 -1.8852496
-5.6172557 -0.11409301 -1.8851794
-5.6052928 -0.38484618 -1.8852009
-5.5430861 -0.92320371 -1.8855178
-5.5195994 -1.0566949 -1.8856541
-5.4929686 -1.1896191 -1.885813
-5.4303222 -1.4534173 -1.8861978
-5.3943357 -1.584161 -1.8864239
-5.3131247 -1.8429552 -1.8869427
-5.2679586 -1.9708734 -1.887235
-5.1685448 -2.2233801 -1.8878855
-5.1143847 -2.3478403 -1.8882426
-5.0572948 -2.4710116 -1.8886212
-4.8686619 -2.832083 -1.889883
-4.8001075 -2.9494007 -1.8903449
-4.7287693 -3.0650995 -1.8908269
-4.5779395 -3.2913465 -1.8918507
-4.4985056 -3.4017808 -1.8923919
-4.0629492 -3.9244881 -1.8953789
-3.9684765 -4.0227222 -1.8960302
-3.6712303 -4.3037829 -1.8980867
-3.5677147 -4.392735 -1.8988049
-3.0193553 -4.7997088 -1.902625
-2.9039452 -4.8731995 -1.9034317
-2.7867675 -4.943953 -1.9042518
-2.6678808 -5.0119205 -1.9050848
-2.4252343 -5.1393323 -1.9067876
-2.1766014 -5.2551188 -1.9085361
-1.5321289 -5.4918737 -1.9130825
-0.99793941 -5.6250358 -1.9168661
-0.58952147 -5.6910667 -1.9197674
-0.31471679 -5.7186942 -1.9217232
-0.17677733 -5.7275486 -1.9227062
0.23814453 -5.7341614 -1.925668
0.37656251 -5.7296948 -1.9266577
0.79106444 -5.6962347 -1.9296259
1.0659375 -5.657238 -1.9315982
1.2026855 -5.6327472 -1.9325805
1.6091992 -5.5394244 -1.9355057
2.2695606 -5.3186512 -1.9402741
3.0213768 -4.9496088 -1.9457307
3.1412694 -4.8774786 -1.946604
3.4902637 -4.6436725 -1.9491515
3.6027637 -4.5600743 -1.9499748
4.1334958 -4.1016645 -1.9538735
4.2327733 -4.0022845 -1.9546062
4.3296876 -3.9004538 -1.9553223
4.5159178 -3.6897316 -1.9567022
4.6051464 -3.5809481 -1.957365
4.6917186 -3.4699755 -1.9580096
4.7755761 -3.3568881 -1.9586352
4.8566504 -3.2417319 -1.9592416
5.2820606 -2.5115104 -1.9624523
5.3423533 -2.3839374 -1.9629132
5.5959668 -1.7255999 -1.96488
5.7395411 -1.1791785 -1.9660347
5.8115916 -0.76136899 -1.9666479
5.8526073 -0.33926636 -1.9670407
5.8593259 -0.19801453 -1.9671222
5.8625488 -0.056635741 -1.9671786
5.8623047 0.084774777 -1.9672103
5.8406835 0.50838375 -1.9671561
5.8088965 0.78939515 -1.9669955
5.7633104 1.068457 -1.966736
5.7353711 1.2070514 -1.9665692
5.6693163 1.481917 -1.9661623
5.6312499 1.618031 -1.9659228
5.5898438 1.7531323 -1.965659
5.4971094 2.0200434 -1.9650598
5.3337693 2.4108813 -1.9639857
5.2729783 2.5382934 -1.9635818
5.2090821 2.6641552 -1.9631552
5.1421385 2.7883873 -1.9627066
4.999248 3.0316253 -1.9617435
4.9233594 3.1504948 -1.9612297
4.7630858 3.3823657 -1.9601399
4.6787205 3.495235 -1.959564
4.5916796 3.6059613 -1.9589686
4.3147559 3.9246905 -1.9570663
4.1176071 4.1253314 -1.9557059
3.7092187 4.2971406 -1.9046898
3.2149022 4.3200445 -1.8068161
3.0910645 4.37008 -1.7960284
2.9833593 4.4415021 -1.7952762
2.8742383 4.5102434 -1.7945132
2.6510742 4.6395612 -1.7929499
2.4220703 4.7577372 -1.7913424
2.3055761 4.8125715 -1.7905233
2.068877 4.9135761 -1.7888567
1.9488574 4.9596992 -1.7880105
1.8277735 5.0028605 -1.787156
1.5828711 5.0802617 -1.7854254
1.0839453 5.198802 -1.7818903
0.83115232 5.2397394 -1.7800946
0.70416015 5.2555938 -1.7791913
0.57691407 5.2683659 -1.7782856
0.44944334 5.2780547 -1.7773776
0.32185546 5.2846489 -1.7764678
-0.060976561 5.2859416 -1.7737341
-0.18835936 5.2802176 -1.772823
-0.3154785 5.2714324 -1.7719131
-0.44232422 5.2595901 -1.7710043
-0.56874025 5.2447076 -1.770098
-0.94499999 5.1819367 -1.7673961
-1.0691797 5.1550312 -1.7665026
-1.4369335 5.0566373 -1.7638531
-1.5576953 5.018034 -1.7629815
-1.6774609 4.9765592 -1.7621166
-1.7961133 4.9322491 -1.7612585
-1.9136132 4.8851361 -1.7604083
-2.3708398 4.6692548 -1.757092
-2.6986914 4.4795232 -1.7547057
-2.8045897 4.4111958 -1.7539331
-3.5347071 4.3096466 -1.8702013
-3.6954589 4.2903094 -1.8999461
-4.4368067 3.4918664 -1.8944627
-4.518281 3.3827617 -1.893855
-4.5971289 3.2717857 -1.8932656
-4.6732907 3.1589983 -1.892695
-4.7467284 3.0444865 -1.8921435
-4.8853321 2.8104737 -1.8910983
-5.0126171 2.5703044 -1.8901324
-5.1283298 2.3245068 -1.889248
-5.1817675 2.1996558 -1.888837
-5.2322459 2.0736053 -1.8884466
-5.3241405 1.8181902 -1.8877298
-5.3654981 1.6889563 -1.887404
-5.4038181 1.5588109 -1.8870996
-5.5000877 1.163551 -1.8863186
-5.5259275 1.0304339 -1.8861026
-5.5485935 0.89675903 -1.8859091
-5.5975876 0.49314025 -1.8854635
-5.6075487 0.35796568 -1.8853605
-5.6143165 0.22260131 -1.8852801
-5.5533204 -0.85829097 -1.8854601
-5.5313673 -0.99205196 -1.8855853
-5.4780273 -1.2578479 -1.8859036
-5.412168 -1.5208801 -1.8863117
-5.3745995 -1.6511865 -1.886549
-5.1937399 -2.162607 -1.8877196
-5.1410251 -2.2876613 -1.8880666
-5.0853319 -2.4114614 -1.888435
-4.9652343 -2.6550136 -1.8892351
-4.9008789 -2.7746358 -1.8896666
-4.833662 -2.8927279 -1.8901185
-4.6154881 -3.23716 -1.8915952
-4.4565721 -3.4579427 -1.8926781
-4.3731837 -3.5655041 -1.8932482
-4.1987891 -3.7746265 -1.8944442
-4.1079001 -3.8760769 -1.8950691
-4.0145798 -3.9753747 -1.8957123
-3.7206347 -4.2597852 -1.8977444
-3.513535 -4.4376149 -1.8991811
-3.4068358 -4.5228291 -1.8999231
-3.2980664 -4.6055198 -1.9006803
-2.9601171 -4.837913 -1.9030389
-2.8438084 -4.9099956 -1.9038525
-2.7257323 -4.97932 -1.9046795
-2.6059864 -5.045836 -1.9055189
-2.4846387 -5.1094999 -1.9063705
-2.3617284 -5.1702838 -1.9072338
-2.1116211 -5.2830272 -1.9089935
-1.8561425 -5.3837891 -1.910794
-1.7265821 -5.429585 -1.9117086
-1.4641503 -5.5118756 -1.9135631
-1.3314453 -5.5483031 -1.9145025
-1.0633692 -5.6116209 -1.916402
-0.92820311 -5.6384587 -1.9173611
-0.79231441 -5.6620545 -1.9183258
-0.24368164 -5.7236705 -1.9222295
-0.105625 -5.730814 -1.9232137
0.17103516 -5.735127 -1.9251885
0.30947265 -5.7322788 -1.926178
0.44786131 -5.7260871 -1.9271677
0.58615232 -5.7165551 -1.9281576
0.72420895 -5.7036805 -1.9291466
1.1364453 -5.6450315 -1.9321046
1.2729101 -5.618834 -1.9330853
1.4087695 -5.5893207 -1.9340625
1.5439551 -5.5565152 -1.9350358
1.6783496 -5.5204215 -1.936004
1.811914 -5.4810596 -1.9369674
1.944541 -5.4384527 -1.9379246
2.3360546 -5.2913532 -1.9407554
2.4641795 -5.2359681 -1.9416837
2.590996 -5.1774573 -1.9426031
3.5484862 -4.6009455 -1.9495776
3.6599414 -4.5159159 -1.9503937
3.7693455 -4.4281473 -1.9511958
3.9816699 -4.2446189 -1.9527553
4.0844922 -4.1489544 -1.9535125
4.1849608 -4.0507674 -1.9542532
4.2830076 -3.9501233 -1.9549773
4.378623 -3.8470614 -1.9556844
4.5622168 -3.6339645 -1.9570462
4.6501074 -3.5240469 -1.9576995
4.7352734 -3.4119713 -1.9583344
4.8177052 -3.2978115 -1.9589502
4.8973145 -3.1816199 -1.9595462
5.1188965 -2.8216128 -1.9612136
5.1868262 -2.698035 -1.9617282
5.251699 -2.572803 -1.962221
5.3721876 -2.3176367 -1.9631419
5.4276953 -2.1878738 -1.963569
5.4800196 -2.056751 -1.9639736
5.6174512 -1.6560699 -1.96505
5.6925292 -1.3836768 -1.9656506
5.7250094 -1.2461407 -1.9659151
5.7797852 -0.9688397 -1.9663718
5.8020411 -0.82923341 -1.9665637
5.8208494 -0.6891064 -1.9667312
5.8564844 -0.26650146 -1.9670857
5.8614354 -0.12518798 -1.9671545
5.8628712 0.016226197 -1.9671981
5.8608103 0.15761901 -1.9672167
5.8552928 0.29893249 -1.967211
5.8462987 0.44006592 -1.9671801
5.8338084 0.58091795 -1.967124
5.7756248 1.0010241 -1.9668078
-3.3740819 -4.0443912 -1.9002702
-3.076211 -4.2824163 -1.9023412
-2.9731348 -4.357008 -1.9030596
-2.7616992 -4.4988041 -1.9045361
-2.5435839 -4.6304593 -1.9060627
-2.319248 -4.7516565 -1.907636
-2.2048926 -4.8082337 -1.9084396
-2.0891798 -4.8620834 -1.9092532
-1.9721386 -4.913178 -1.910077
-1.3697363 -5.1261497 -1.9143289
-1.246289 -5.1600537 -1.9152023
-1.1219825 -5.1909947 -1.9160829
-0.99691403 -5.2189593 -1.9169694
-0.87116212 -5.2439256 -1.9178616
-0.74477535 -5.2658753 -1.9187591
-0.61783201 -5.2847905 -1.9196612
-0.49041992 -5.3006544 -1.9205673
-0.36261716 -5.313458 -1.9214772
0.15124023 -5.3338342 -1.9251422
0.40866211 -5.3254209 -1.9269824
0.66562498 -5.3045774 -1.9288226
0.79375976 -5.2895002 -1.9297411
0.92154294 -5.2713208 -1.9306581
1.3020898 -5.1982517 -1.9333932
1.4277539 -5.1677518 -1.9342978
1.5526953 -5.1342015 -1.9351981
1.9224707 -5.0154147 -1.937867
2.0438085 -4.9698381 -1.9387444
2.1640625 -4.9213047 -1.9396145
2.4009764 -4.8154788 -1.9413314
3.0781641 -4.4300752 -1.9462591
3.2908592 -4.2799006 -1.9478136
3.394453 -4.2009168 -1.948572
3.4961133 -4.1193981 -1.9493175
3.6934471 -3.9489474 -1.9507672
3.7889941 -3.8601074 -1.9514703
3.8823631 -3.7689307 -1.9521588
3.9734862 -3.6754625 -1.9528316
4.0623536 -3.5797632 -1.9534891
4.1488571 -3.4818835 -1.9541299
4.2330079 -3.3818841 -1.9547546
4.4704685 -3.0697687 -1.9565243
4.8740234 -2.3966522 -1.9595654
4.9315233 -2.2789099 -1.960004
5.1321583 -1.7946529 -1.9615513
5.1748338 -1.6706344 -1.9618853
5.2144432 -1.5455829 -1.962198
2.6760547 -0.12571472 -0.96654594
2.6728516 -0.061011963 -0.96458095
2.6741796 0.13259093 -0.96599364
5.3131638 1.1791443 -1.9635473
5.2490625 1.4336987 -1.9631497
5.2123437 1.5596991 -1.9629171
5.1296778 1.8087487 -1.9623858
5.0348825 2.053369 -1.9617666
4.983037 2.1738262 -1.9614248
4.9282322 2.2929535 -1.9610617
4.8705468 2.4106786 -1.9606775
4.7466211 2.6416247 -1.9598471
4.680459 2.7547162 -1.9594015
4.465713 3.0836108 -1.9579453
4.3094821 3.2935753 -1.9568793
4.0564647 3.5933466 -1.9551432
3.9673729 3.6889801 -1.9545295
3.6866307 3.9622295 -1.9525893
3.3868456 4.2139053 -1.9505078
2.9720898 4.3011847 -1.8862346
2.8247559 4.3065181 -1.8581461
2.6816015 4.3115144 -1.8318539
2.3093457 4.3925333 -1.790451
1.9832813 4.5421867 -1.7881576
1.8723437 4.5866899 -1.787376
1.7603906 4.6284709 -1.7865863
1.6475097 4.6674967 -1.7857895
1.4192187 4.7372317 -1.7841754
1.1880468 4.7957525 -1.7825381
1.0715332 4.8207769 -1.7817122
0.95450193 4.8429618 -1.7808816
0.71915036 4.8787713 -1.7792093
0.6009863 4.8923831 -1.7783685
0.48260742 4.9031305 -1.7775255
0.36403319 4.9110074 -1.7766807
0.24535155 4.9160123 -1.7758343
0.12666991 4.9181547 -1.7749871
-0.11055664 4.9138446 -1.7732919
-0.34705079 4.8981133 -1.7715993
-0.4648535 4.8859882 -1.7707549
-0.93162107 4.8093596 -1.7674035
-1.0468652 4.7832441 -1.7665744
-1.2751367 4.7227969 -1.7649298
-1.3880273 4.6885014 -1.7641152
-1.6110351 4.6118975 -1.7625046
-1.7210156 4.5696378 -1.7617092
-2.1494434 4.3748612 -1.7586035
-2.3903906 4.3248835 -1.7828268
-2.6651561 4.3163261 -1.8302112
-2.8080957 4.3115911 -1.8563904
-2.9551172 4.3065314 -1.8843585
-3.0904491 4.2787261 -1.9042642
-3.1915135 4.2013154 -1.9035242
-3.2906346 4.1215434 -1.9027972
-3.3878222 4.0394597 -1.9020839
-3.5760741 3.8685722 -1.900699
-3.6670506 3.7798564 -1.9000283
-3.8424413 3.5961699 -1.8987323
-3.926748 3.5012915 -1.8981075
-4.0884471 3.3057642 -1.8969067
-4.1657224 3.2052214 -1.8963308
-4.3129492 2.998867 -1.8952308
-4.4501171 2.7858758 -1.8942007
-4.5148535 2.6770446 -1.8937128
-4.5769629 2.5667377 -1.8932431
-4.6364355 2.4550073 -1.892792
-4.8472462 1.9952387 -1.8911777
-4.8930469 1.8773962 -1.8908228
-4.9360156 1.7585254 -1.8904877
-4.976162 1.6386895 -1.8901725
-5.0478907 1.3963909 -1.8896029
-5.0794044 1.2740686 -1.889349
-5.108037 1.1510473 -1.8891155
-5.1337204 1.0273932 -1.8889029
-5.1931543 0.65335995 -1.8883898
-5.2259178 0.27613586 -1.8880666
-5.2328515 0.023796387 -1.8879575
-5.2278318 -0.22857727 -1.8879336
-5.2208691 -0.35460144 -1.8879536
-5.1979785 -0.60599178 -1.8880575
-5.1632128 -0.85603881 -1.8882468
-5.0890136 -1.2273871 -1.8886888
-5.0584278 -1.3499085 -1.8888785
-4.8148632 -2.067045 -1.8904482
-4.7644434 -2.1829588 -1.8907809
-4.7112889 -2.2976623 -1.8911334
-4.6554198 -2.4110992 -1.8915056
-4.5356345 -2.6339164 -1.8923084
-4.4718165 -2.7431662 -1.8927383
-4.4053907 -2.850903 -1.8931872
-4.3364258 -2.9570568 -1.8936545
-4.1909766 -3.1643865 -1.8946444
-4.0357714 -3.3646917 -1.8957052
-3.9545898 -3.4620709 -1.8962622
-3.8711133 -3.557514 -1.8968356
-3.6973827 -3.7424154 -1.8980328
-3.514951 -3.9189641 -1.8992938
-3.4205859 -4.0039816 -1.8999478
-3.3241796 -4.0867553 -1.9006164
-3.2258008 -4.1672382 -1.9013002
-3.1255176 -4.2453823 -1.9019979
-3.0233397 -4.3211508 -1.9027096
-2.9193456 -4.3944855 -1.903435
-2.8135936 -4.4653497 -1.9041734
-2.5970507 -4.5994968 -1.9056882
-2.3741698 -4.7232542 -1.9072506
-1.6724805 -5.029274 -1.9121896
-1.4292969 -5.1086612 -1.9139078
-1.1823437 -5.1763644 -1.9156554
-1.057627 -5.2057743 -1.916539
-0.80611324 -5.2556129 -1.9183233
-0.55224609 -5.2933459 -1.9201275
-0.42461914 -5.3076348 -1.9210358
-0.29662108 -5.3188543 -1.921947
-0.16833983 -5.3269935 -1.9228613
0.088828124 -5.3340015 -1.9246963
0.34629881 -5.3286023 -1.9265363
0.60341793 -5.31077 -1.9283769
0.7316699 -5.2971959 -1.9292959
1.1143359 -5.2378807 -1.9320428
1.2409277 -5.211937 -1.9329531
1.3669043 -5.18292 -1.9338598
1.6167773 -5.1157298 -1.93566
1.863291 -5.0364389 -1.9374396
2.1059179 -4.9451985 -1.9391937
2.4612012 -4.7863474 -1.9417686
2.5770507 -4.7276435 -1.9426098
3.0255663 -4.4648848 -1.9458752
3.1336424 -4.392396 -1.9466642
3.5477147 -4.0764265 -1.9496962
3.6463671 -3.9911582 -1.9504207
3.837373 -3.813422 -1.951827
3.9295897 -3.7210577 -1.9525073
4.0195508 -3.6264317 -1.9531722
4.1925292 -3.4306195 -1.9544538
4.3557811 -3.2264612 -1.955668
4.6516113 -2.7950079 -1.9578828
4.7833886 -2.5687368 -1.9588776
4.9040136 -2.3361697 -1.9597939
5.0632224 -1.9767276 -1.9610159
5.154541 -1.7308923 -1.9617263
5.1956544 -1.6063303 -1.9620494
5.2686033 -1.3543121 -1.9626299
5.3004293 -1.2270044 -1.9628872
5.3291211 -1.098941 -1.9631225
5.3546677 -0.97019529 -1.9633354
2.664453 -0.15641418 -0.96295172
2.6622655 0.03654724 -0.96059817
2.6791503 0.10144898 -0.96729338
5.3526173 0.98825741 -1.9637839
5.3268161 1.1169788 -1.9636301
5.2657518 1.3722973 -1.9632543
5.2305274 1.4987298 -1.9630328
5.1508203 1.748767 -1.9625225
5.0589356 1.9945153 -1.9619247
5.0085449 2.1155896 -1.9615933
4.9551563 2.2353716 -1.9612402
4.8396974 2.4707599 -1.9604715
4.7776952 2.5862169 -1.9600558
4.6452928 2.8123302 -1.9591638
4.5749998 2.9228368 -1.958688
4.0108495 3.6428947 -1.9548293
3.9205761 3.7373798 -1.9542068
3.7333105 3.9194963 -1.9529126
3.4365332 4.1747541 -1.9508533
3.1991601 4.2925992 -1.9314975
3.045078 4.2984734 -1.9005319
2.8956542 4.3039751 -1.8715318
2.7505274 4.3091311 -1.8443826
2.4755762 4.3251886 -1.7980003
2.3611231 4.3661151 -1.7908145
2.2542381 4.4199395 -1.7900639
2.1503417 4.480823 -1.7931836
2.0366895 4.5196357 -1.7885337
1.8147851 4.6085615 -1.78697
1.7023437 4.6489239 -1.7861766
1.5890039 4.6865253 -1.785376
0.77633786 4.8711405 -1.7796159
0.54002929 4.8982792 -1.7779346
0.4215332 4.9075446 -1.7770904
0.18420897 4.9174771 -1.7753979
0.065517575 4.918139 -1.7745504
-0.17156249 4.910882 -1.7728555
-0.28983399 4.9029727 -1.7720091
-0.40780273 4.8922224 -1.7711641
-0.52543944 4.8786359 -1.7703207
-0.64264649 4.8622355 -1.76948
-0.75935543 4.8430266 -1.7686418
-0.99109375 4.796248 -1.7669756
-1.2200977 4.7384501 -1.7653265
-1.3334081 4.7054644 -1.7645096
-1.5573339 4.6314397 -1.7628927
-1.9926856 4.4519 -1.7597412
-2.2031446 4.3468475 -1.7582133
-2.3258104 4.3267851 -1.7722775
-2.4598632 4.3227897 -1.7944283
-3.1427441 4.23914 -1.9038813
-3.5312011 3.9108026 -1.9010293
-3.623203 3.8231268 -1.9003515
-3.7130761 3.7333257 -1.8996885
-3.8861523 3.5475328 -1.8984084
-3.9693065 3.4516478 -1.897792
-4.050117 3.3538482 -1.8971918
-4.2781639 3.0495136 -1.8954911
-4.3492579 2.9446177 -1.8949586
-4.4178123 2.8380883 -1.8944438
-4.5471582 2.620393 -1.8934686
-4.6660447 2.3969188 -1.8925664
-4.7741208 2.1681683 -1.8917407
-4.8240428 2.0519731 -1.8913568
-4.871201 1.9346594 -1.8909923
-4.9155369 1.8162762 -1.8906475
-5.0945115 1.2107671 -1.8892262
-5.1216211 1.087409 -1.8890033
-5.2006736 0.58874512 -1.8883209
-5.2246094 -0.29352659 -1.8879414
-5.2160935 -0.41946045 -1.8879724
-5.2046094 -0.54516232 -1.8880247
-5.1901464 -0.67055601 -1.8880984
-5.1727343 -0.79558104 -1.888193
-5.1290236 -1.0442456 -1.8884463
-5.1027732 -1.1677428 -1.8886046
-5.0736132 -1.290603 -1.8887838
-5.0065918 -1.5341095 -1.889205
-4.9281054 -1.7742321 -1.8897089
-4.8845897 -1.8928577 -1.8899914
-4.8383007 -2.0104382 -1.8902942
-4.625576 -2.4690323 -1.8917048
-4.5656347 -2.5804229 -1.8921065
-4.5030761 -2.6903896 -1.8925275
-4.3701854 -2.9057946 -1.8934256
-4.227119 -3.1147563 -1.8943979
-4.1519041 -3.2166741 -1.8949111
-4.0742478 -3.3168087 -1.8954419
-3.9942284 -3.4151006 -1.8959899
-3.7403123 -3.6983502 -1.8977364
-3.2737303 -4.1285119 -1.900967
-2.9699805 -4.3592405 -1.9030817
-2.8650682 -4.4313059 -1.9038137
-2.7584374 -4.5008845 -1.904559
-2.6501465 -4.5679221 -1.9053166
-2.5402246 -4.6323829 -1.9060863
-2.4287403 -4.6942267 -1.906868
-2.0856249 -4.8636818 -1.9092783
-1.8502831 -4.9629045 -1.9109356
-1.6102344 -5.0508299 -1.9126292
-1.4885937 -5.0904813 -1.9134884
-1.3660058 -5.1272264 -1.9143552
-1.2425195 -5.1610355 -1.9152292
-1.1181836 -5.1918883 -1.9161099
-0.48654297 -5.3010888 -1.9205949
-0.2305664 -5.3234324 -1.9224179
0.2838867 -5.3310499 -1.92609
0.41258788 -5.3251939 -1.9270104
0.66953123 -5.3041649 -1.9288505
1.0527929 -5.2493505 -1.9316006
1.1796288 -5.2248993 -1.9325123
1.305918 -5.1973667 -1.9334207
1.4315722 -5.1667752 -1.9343252
2.4045703 -4.8137808 -1.9413577
2.636162 -4.6962881 -1.9430395
3.2940331 -4.2775378 -1.9478369
3.4991698 -4.1168842 -1.9493399
3.5988085 -4.0328007 -1.9500713
3.6963866 -3.9462798 -1.9507887
3.7918553 -3.8573706 -1.9514914
3.8851464 -3.7661226 -1.9521792
4.0650096 -3.5768197 -1.9535086
4.3171091 -3.2766955 -1.9553802
4.3962207 -3.1725719 -1.9559697
4.4727635 -3.0665119 -1.9565414
4.546699 -2.9585879 -1.957095
4.6866016 -2.7373464 -1.9581463
4.752461 -2.6241875 -1.9586434
4.8758302 -2.3930902 -1.9595791
5.0879002 -1.9138458 -1.961207
5.1335154 -1.7908969 -1.9615618
5.1760936 -1.6668417 -1.9618953
5.2853904 -1.2888201 -1.9627653
5.3156152 -1.1611199 -1.9630114
2.6764843 -0.12376709 -0.96667218
5.3639941 0.92563289 -1.9638504
5.3397169 1.0546521 -1.9637076
5.3122754 1.1830376 -1.9635419
5.2816992 1.310697 -1.9633536
5.2479882 1.4375397 -1.963143
5.2111621 1.5635144 -1.9629097
5.0823436 1.9353698 -1.9620777
4.9265232 2.2965527 -1.9610504
4.6094337 2.8694768 -1.9589212
4.3865037 3.1927569 -1.9574057
4.3070216 3.29671 -1.9568624
4.225039 3.3986614 -1.9563011
4.0537987 3.5962884 -1.9551251
3.7795019 3.876209 -1.953232
3.6836326 3.9648931 -1.9525683
3.585742 4.0511699 -1.9518898
3.4857128 4.1350064 -1.951195
3.3837304 4.2163444 -1.9504861
3.1191602 4.2956729 -1.9152889
2.9675293 4.3013506 -1.8853517
1.8689355 4.5880036 -1.787352
1.5303026 4.7048163 -1.7849612
1.3004395 4.7687907 -1.7833346
1.0679785 4.8214946 -1.781687
0.83344722 4.8628325 -1.7800217
0.71557617 4.8792253 -1.7791839
0.59740233 4.8927507 -1.778343
0.47900391 4.9034147 -1.7774999
0.24174803 4.9161248 -1.7758087
0.0043945312 4.9173603 -1.7741138
-0.23251952 4.9071612 -1.7724195
-0.58585936 4.8705387 -1.7698873
-0.81929684 4.8320379 -1.768211
-1.0503417 4.7824087 -1.7665492
-1.6143945 4.6106524 -1.7624804
-2.0474024 4.4257951 -1.7593441
-2.394453 4.32476 -1.7835011
-2.5302148 4.320622 -1.8064407
-2.8125098 4.3114433 -1.8572146
-2.9596679 4.3063712 -1.8852381
-3.0935352 4.276413 -1.9042416
-3.1945508 4.1989212 -1.9035019
-3.293623 4.1190801 -1.9027754
-3.669785 3.777127 -1.9000082
-3.7585156 3.6862407 -1.8993528
-4.01125 3.4014952 -1.8974806
-4.1680274 3.2021356 -1.8963138
-4.2428126 3.099762 -1.8957554
-4.3848829 2.8899333 -1.8946911
-4.4521289 2.7825878 -1.8941854
-4.516777 2.6737139 -1.8936981
-4.5788083 2.5633581 -1.893229
-4.6949024 2.3384802 -1.8923467
-4.8001661 2.1084478 -1.8915405
-4.8486619 1.9916736 -1.8911667
-4.8943849 1.8737969 -1.8908123
-4.9773436 1.6350348 -1.8901632
-5.0145507 1.514273 -1.8898691
-5.0488672 1.39268 -1.8895952
-5.1571188 0.89940304 -1.8887054
-5.2074218 0.52406007 -1.8882574
-5.2182617 0.39828369 -1.8881503
-5.2328515 0.019953003 -1.8879566
-5.2276659 -0.23241027 -1.887934
-5.2105274 -0.48425841 -1.8879968
-5.1975293 -0.60980469 -1.88806
-5.1407127 -0.98415893 -1.8883771
-5.1158786 -1.1079499 -1.8885252
-5.0881248 -1.231131 -1.8886944
-4.9874606 -1.5963141 -1.8893269
-4.948164 -1.716362 -1.8895792
-4.8610935 -1.9535754 -1.8901449
-4.7628708 -2.1864655 -1.8907913
-4.7096286 -2.3011379 -1.8911444
-4.5950389 -2.526597 -1.8919095
-4.53374 -2.6372695 -1.8923211
-4.3342872 -2.9602649 -1.8936691
-4.2627244 -3.0647202 -1.8941555
-4.1886911 -3.1674869 -1.8946599
-4.1121874 -3.2684951 -1.8951823
-4.0333204 -3.3676808 -1.8957222
-3.868535 -3.5603912 -1.8968533
-3.5121093 -3.9215829 -1.8993134
-3.2227733 -4.1696482 -1.9013212
-3.0201952 -4.3234148 -1.9027315
-2.9161425 -4.3966765 -1.9034573
-2.7028613 -4.5357389 -1.9049478
-2.5937109 -4.6014566 -1.9057117
-2.1419044 -4.8379593 -1.9088824
-1.5476757 -5.07162 -1.9130709
-1.3025 -5.1450119 -1.9148043
-1.1785547 -5.1773024 -1.9156821
-1.0538281 -5.2066259 -1.9165658
-0.80226558 -5.2562766 -1.9183508
-0.29273435 -5.319149 -1.9219748
0.22148436 -5.332768 -1.9256439
0.73558593 -5.2967367 -1.9293242
0.86351562 -5.2799635 -1.9302418
0.99110347 -5.2600965 -1.9311575
1.2447656 -5.2110972 -1.9329808
1.4960155 -5.1498241 -1.9347895
1.6205664 -5.1146111 -1.9356874
1.8670117 -5.03514 -1.9374664
2.1095703 -4.9437227 -1.9392202
2.2291796 -4.8935862 -1.9400861
2.3475976 -4.8405409 -1.9409444
2.4647655 -4.7846045 -1.9417944
2.807832 -4.5997801 -1.9442883
2.9191797 -4.532608 -1.9450995
3.0288768 -4.4627228 -1.9458994
3.4501758 -4.1567478 -1.9489803
3.5507812 -4.0738645 -1.9497186
3.6493261 -3.9885287 -1.9504424
3.7458496 -3.9007671 -1.9511526
3.9323535 -3.7182143 -1.9525278
4.0222654 -3.6235173 -1.9531924
4.1950779 -3.4275799 -1.9544727
4.4359665 -3.1181667 -1.9562664
4.5111814 -3.0111349 -1.9568288
4.6536913 -2.7916131 -1.9578985
4.7208886 -2.6792502 -1.9584048
4.7853317 -2.5652411 -1.9588922
4.8469434 -2.449671 -1.9593595
4.9057422 -2.3325844 -1.959807
4.9616699 -2.2140658 -1.9602346
5.014658 -2.0941923 -1.9606414
5.0647264 -1.9730231 -1.9610275
5.1117773 -1.8506359 -1.9613925
5.196826 -1.602524 -1.9620587
5.2347851 -1.4769409 -1.9623595
5.2696385 -1.3504535 -1.9626383
5.3013673 -1.2231195 -1.9628948
2.6654198 -0.15450989 -0.96325809
2.6791015 0.10341614 -0.96730232
2.6584375 0.16691223 -0.96101439
5.2293944 1.5025671 -1.9630255
5.0069532 2.1192541 -1.9615828
4.8378515 2.4742925 -1.9604591
4.7757521 2.5897143 -1.9600428
4.2650976 3.3494909 -1.9565756
4.0961914 3.5491736 -1.9554166
4.0081348 3.6458001 -1.9548105
3.9177928 3.7402203 -1.9541876
3.8252051 3.8323748 -1.9535481
3.7303905 3.9221928 -1.9528923
3.5344336 4.0946817 -1.9515334
3.433408 4.177227 -1.9508315
3.1943944 4.2927837 -1.930527
3.0404589 4.2986445 -1.8996208
2.7461717 4.3092828 -1.8435861
2.4715624 4.325706 -1.7974615
2.250957 4.4215336 -1.7900409
2.1471679 4.4812603 -1.7927316
1.4713476 4.7223687 -1.784544
1.1245215 4.8097601 -1.7820879
0.53642577 4.8986015 -1.7779089
0.29929686 4.9140959 -1.7762191
0.18058594 4.9175396 -1.775372
0.061894529 4.9181156 -1.7745248
-0.17517577 4.9106827 -1.7728299
-0.64619142 4.861691 -1.7694544
-0.76290035 4.8423982 -1.7686163
-1.3368359 4.7044172 -1.7644846
-1.6711913 4.5891604 -1.7620697
-1.9959277 4.4503803 -1.7597175
-2.1017675 4.3990226 -1.7589495
-2.3298242 4.3266654 -1.7729292
-2.4639647 4.3226619 -1.7951264
-2.8877928 4.3088737 -1.8714218
-3.0372264 4.3036213 -1.9004158
-3.1458008 4.2367878 -1.9038589
-3.2458398 4.1580729 -1.9031259
-3.3439257 4.077034 -1.9024062
-3.5340331 3.9081657 -1.9010086
-3.8033593 3.6386175 -1.8990214
-3.8887303 3.544646 -1.8983896
-4.0525489 3.3508453 -1.8971738
-4.2068553 3.1496112 -1.8960241
-4.2803712 3.0463452 -1.8954746
-4.3513575 2.9413941 -1.8949429
-4.4857616 2.7266803 -1.8939321
-4.5490723 2.6170294 -1.8934541
-4.6677537 2.393476 -1.8925537
-4.7230663 2.2796843 -1.8921316
-4.7756639 2.1646533 -1.8917288
-4.8725781 1.9310669 -1.8909814
-4.9968653 1.5729144 -1.8900093
-5.0953903 1.2070184 -1.889219
-5.1465039 0.95968384 -1.8887954
-5.1676559 0.83519346 -1.8886149
-5.2010937 0.58492857 -1.8883169
-5.2133789 0.45929199 -1.8881994
-5.2226758 0.33339843 -1.8881032
-5.2323046 0.081149898 -1.887975
-5.232666 -0.04507263 -1.8879424
-5.2300096 -0.17126831 -1.8879318
-5.2157907 -0.42328855 -1.8879735
-5.1896777 -0.67435974 -1.8881009
-5.1516895 -0.92395324 -1.8883129
-5.1282716 -1.0480065 -1.8884509
-5.0726852 -1.2943317 -1.8887897
-5.0405273 -1.4164464 -1.8889904
-5.0054784 -1.537788 -1.889212
-4.9268165 -1.7778534 -1.8897171
-4.8832321 -1.8964504 -1.8900002
-4.8368454 -2.0140021 -1.8903037
-4.7876954 -2.1304352 -1.8906271
-4.7357812 -2.2456982 -1.8909707
-4.6237988 -2.4724362 -1.8917167
-4.5637794 -2.583792 -1.8921191
-4.3680758 -2.9090228 -1.8934399
-4.2977247 -3.0142922 -1.8939173
-4.14958 -3.2197466 -1.8949269
-4.0718651 -3.3198292 -1.895458
-3.8245897 -3.6087675 -1.8971558
-3.7376268 -3.701129 -1.897755
-3.6484473 -3.7914269 -1.8983706
-3.4637108 -3.9656255 -1.8996487
-3.1713085 -4.2101688 -1.9016792
-3.0699902 -4.2870269 -1.9023846
-2.9668067 -4.3614731 -1.9031039
-2.8618748 -4.4334607 -1.9038364
-2.7551758 -4.5029626 -1.9045819
-2.6468358 -4.5699191 -1.9053396
-2.4253321 -4.6960664 -1.9068917
-2.3123243 -4.7551708 -1.9076849
-2.0820997 -4.8652749 -1.9093029
-1.9649999 -4.9161954 -1.9101272
-1.8466504 -4.9643259 -1.9109612
-1.7271386 -5.0096331 -1.9118038
-1.6065332 -5.0520759 -1.9126552
-1.4848633 -5.0916419 -1.9135146
-1.3622754 -5.1282969 -1.9143816
-0.9892773 -5.2205639 -1.9170235
-0.73706055 -5.2671137 -1.9188137
-0.6100781 -5.2858415 -1.9197162
-0.48266602 -5.3015208 -1.9206225
0.15907227 -5.3337579 -1.925198
0.54506832 -5.3159146 -1.927959
0.6734277 -5.30375 -1.9288784
0.92930663 -5.2701116 -1.9307138
1.0566504 -5.2486534 -1.9316283
1.1834863 -5.2241044 -1.9325399
1.3097558 -5.1964827 -1.9334484
1.5602832 -5.1320639 -1.9352528
1.8076074 -5.0555091 -1.9370373
2.0511816 -4.9669657 -1.9387976
2.1713378 -4.9182591 -1.9396673
2.2903612 -4.8666172 -1.9405296
2.4081347 -4.8120732 -1.9413835
2.5245702 -4.7546663 -1.9422287
2.8653808 -4.5655165 -1.9447073
2.975908 -4.4969368 -1.945513
3.2972167 -4.2751646 -1.9478601
3.4006739 -4.1960335 -1.9486178
3.5022459 -4.114356 -1.9493624
3.8879688 -3.7633057 -1.9521999
3.978955 -3.6697054 -1.9528722
4.0676951 -3.5738678 -1.9535284
4.1540623 -3.4758546 -1.9541683
4.3195605 -3.2735491 -1.9553982
4.3985839 -3.1693683 -1.9559872
4.5489159 -2.9552689 -1.9571115
4.6201267 -2.8454661 -1.957646
4.7544236 -2.6207144 -1.9586585
4.8174314 -2.505887 -1.9591354
4.8776169 -2.3895321 -1.9595927
5.0893259 -1.9101166 -1.9612182
5.1773338 -1.6630563 -1.961905
5.2167773 -1.5379431 -1.9622165
5.2863574 -1.2849518 -1.9627731
5.3164845 -1.157218 -1.9630184
2.6715136 -0.057058103 -0.96406454
2.6759472 0.071966551 -0.96579468
2.6729295 0.13646363 -0.96561623
5.3389158 1.0585736 -1.9637027
-3.0617089 -3.8552845 -1.9025457
-2.9688182 -3.9293423 -1.9031917
-2.6797948 -4.1380796 -1.9052066
-2.2720897 -4.3835492 -1.9080601
-1.9515136 -4.5417051 -1.9103122
-1.8421484 -4.5893016 -1.9110818
-1.3937695 -4.7532749 -1.9142454
-1.163916 -4.8190498 -1.9158714
-0.93098629 -4.8737659 -1.917522
-0.8135156 -4.8969302 -1.9183553
-0.69546872 -4.9172735 -1.9191936
-0.099033199 -4.9762135 -1.9234393
0.021025389 -4.9793739 -1.9242959
0.14121093 -4.9796367 -1.9251542
0.38149413 -4.9714661 -1.9268723
0.50151366 -4.9630327 -1.9277313
0.62134767 -4.9516954 -1.9285899
0.7409277 -4.9374657 -1.9294473
0.86017579 -4.9203372 -1.930303
0.97905272 -4.9003296 -1.9311565
1.3325293 -4.8230615 -1.9336993
1.4490918 -4.7916021 -1.9345392
1.7940332 -4.6803064 -1.9370291
2.3489842 -4.4396591 -1.9410491
2.5623631 -4.3246727 -1.9426004
2.6669824 -4.2632837 -1.9433618
2.8716795 -4.1328845 -1.9448547
3.0699315 -3.992568 -1.9463037
3.1664941 -3.9187863 -1.9470108
3.6211717 -3.5153787 -1.9503534
3.706084 -3.4281194 -1.9509805
3.7888865 -3.3387823 -1.9515929
3.8694921 -3.2474222 -1.9521902
3.947871 -3.1540866 -1.952772
4.0977049 -2.9617324 -1.9538876
4.1691012 -2.8628192 -1.9544209
4.3685155 -2.5558586 -1.9559176
4.4887695 -2.3433089 -1.9568267
4.5449805 -2.2348473 -1.9572537
4.598506 -2.125021 -1.957662
4.6493554 -2.0138967 -1.9580514
4.6463084 2.0269334 -1.9589852
4.595283 2.1380384 -1.9586471
4.4851561 2.356267 -1.9579122
4.4261231 2.463258 -1.957516
4.3003125 2.672677 -1.9566669
4.0928712 2.9744482 -1.9552569
4.0188966 3.0715027 -1.9547515
3.7831836 3.3512609 -1.9531343
3.7001855 3.4405217 -1.9525626
3.5278027 3.6127496 -1.9513724
3.3473241 3.7762494 -1.950122
3.062412 4.0043082 -1.9481411
2.8637402 4.1443782 -1.9467553
2.7619238 4.2107048 -1.946044
2.6586034 4.2745013 -1.9453212
2.1336133 4.30721 -1.8575481
2.0074706 4.310987 -1.8377541
1.8838769 4.3145051 -1.8193498
1.6465136 4.3291473 -1.7899178
1.3244336 4.4207621 -1.7834238
1.110332 4.483726 -1.7851086
1.000039 4.4991398 -1.7811254
0.67124021 4.5536933 -1.7787902
0.33981445 4.5842156 -1.7764305
0.0074609374 4.5906425 -1.7740585
-0.10320313 4.5874419 -1.7732671
-0.21372069 4.5815754 -1.7724767
-0.32401365 4.5730524 -1.771687
-0.43402344 4.561873 -1.7708986
-0.76170897 4.5125532 -1.7685467
-0.86995113 4.4908929 -1.7677686
-1.1908398 4.4104691 -1.7654579
-1.2962207 4.3785758 -1.7646977
-1.4008985 4.3441801 -1.7639421
-1.5127636 4.3306108 -1.7727368
