# .PCD v0.7 - Point Cloud Data file format
VERSION 0.7
FIELDS x y z
SIZE 4 4 4
TYPE F F F
COUNT 1 1 1
WIDTH 1548
HEIGHT 1
VIEWPOINT 0 0 0 1 0 0 0
POINTS 1548
DATA ascii
-4.638164 14.379379 2.9722021
-8.4870701 24.289274 5.0614367
-10.676455 24.661507 5.2864847
-11.214492 21.490391 4.7685533
-8.2910938 14.994487 3.3705902
-12.723594 21.753849 4.9576182
-13.530186 21.902308 5.0644093
-14.376601 22.063276 5.1803637
-15.267383 22.237968 5.3063684
-18.261356 22.859348 5.755579
-20.428652 -9.3855 4.422523
-13.002744 -7.996079 3.002835
-19.400166 -21.685268 5.7238555
-18.477402 -21.68508 5.6044278
-5.8182321 -7.1718955 1.816723
-5.7021189 -7.3861899 1.8356054
-4.7402735 -7.1564703 1.6886334
-4.5658398 -7.2682004 1.6885006
-4.5433497 -7.6355081 1.7478405
-4.5458593 -8.0771389 1.8232837
-3.7949705 -8.0564947 1.7518874
-3.3627539 -7.6100993 1.6366891
-3.4232225 -8.8834219 1.8727936
-3.2041016 -8.9530172 1.8706133
-2.761162 -9.0734749 1.8657373
-6.0437498 -21.729893 4.4369287
-4.9289746 -21.734987 4.3842392
-4.3808298 -21.737492 4.3621421
-3.2964745 -21.723192 4.3222804
-2.2309864 -21.725616 4.2963066
-1.7024218 -21.726814 4.2871714
-1.1757617 -21.728004 4.2805557
-0.12582031 -21.733711 4.2754927
1.4503515 -21.739792 4.2861252
1.9785254 -21.741825 4.294693
2.5090919 -21.743864 4.3058023
4.1210446 -21.74572 4.3539243
4.6675096 -21.746502 4.3753681
5.2196875 -21.747288 4.3995972
7.5054979 -21.763159 4.5286651
9.3212404 -21.772823 4.6591234
10.593242 -21.775263 4.7635922
11.25166 -21.776527 4.8218794
11.926259 -21.776781 4.8842611
13.333252 -21.780598 5.0237207
14.068183 -21.782593 5.1010218
15.612021 -21.789171 5.2730279
16.382587 -21.736797 5.3544946
18.059755 -21.698799 5.5535698
19.158047 -21.920156 5.7269154
11.530781 -9.393219 2.9256976
11.294795 -8.3276625 2.7605309
12.009971 -8.4152718 2.8848333
12.204746 -8.1198006 2.8836997
13.353242 -7.1312695 2.9779544
13.329892 -6.710516 2.9357691
10.015703 10.579592 2.8658977
9.0760736 10.564575 2.739866
7.3419137 10.98717 2.599525
6.8838768 10.860227 2.529438
6.0817966 10.12731 2.3238654
5.9190526 11.029516 2.462405
5.6284571 11.124274 2.4525118
5.2126951 11.668432 2.5140331
4.7472167 11.354607 2.4210215
4.543838 11.650493 2.4600077
4.2639256 11.763808 2.461483
4.2344337 12.625493 2.6196334
3.4069238 14.74583 2.9771945
-3.2160742 23.684078 4.7018538
-3.8074608 23.728621 4.7275677
-5.6352634 23.905369 4.8315201
-6.2673435 23.979614 4.8756895
-4.2012696 14.622634 2.9929137
-4.5277247 14.436694 2.9763596
-8.9535742 24.363369 5.1061201
-9.6745996 24.483603 5.1787634
-8.0122557 14.771896 3.3058357
-12.460761 21.706577 4.9236479
-13.254922 21.851082 5.027544
-14.087461 22.007721 5.1403284
-16.862324 22.562931 5.5411229
-17.898525 22.781534 5.6992559
-21.775009 -6.7807531 4.4864306
-20.394091 -6.894865 4.2349644
-21.64163 -7.9035344 4.5323248
-19.718653 -21.684824 5.7657523
-18.784014 -21.686125 5.643887
-5.7413769 -7.3136649 1.8290939
-5.6237302 -7.5311117 1.8489859
-4.7110739 -7.3661156 1.720064
-4.5510349 -7.5091763 1.7273138
-3.5268555 -7.8095069 1.6856741
-3.4277344 -8.1060982 1.731326
-3.4970019 -8.8601036 1.8737932
-6.2337985 -21.729025 4.4469323
-5.6706738 -21.731596 4.4181581
-5.1144824 -21.734138 4.3922915
-4.5643945 -21.736654 4.3692594
-4.0197754 -21.739145 4.3489904
-3.4768748 -21.722782 4.3276634
-1.8797851 -21.726414 4.289957
-1.3525684 -21.727604 4.2824993
-0.82688475 -21.72879 4.2775517
-0.30206054 -21.733028 4.2756977
0.74743164 -21.737082 4.2786112
1.2733203 -21.739109 4.2838159
2.3305078 -21.743176 4.3017836
3.3986914 -21.744684 4.3295183
4.4832716 -21.746237 4.3678555
5.5898438 -21.747814 4.4172611
6.1565332 -21.760393 4.4487042
6.7281346 -21.761564 4.4808412
7.898242 -21.763968 4.5545897
8.4985352 -21.765202 4.5964298
9.1128511 -21.772427 4.6430683
9.7373333 -21.773621 4.6920843
10.375517 -21.774843 4.7449369
12.384648 -21.778025 4.9284234
13.818749 -21.781914 5.0744562
15.345947 -21.788839 5.2426629
17.76292 -21.697676 5.516222
18.746025 -21.803127 5.6564312
11.410108 -9.4499073 2.9144313
11.77206 -9.2799377 2.9488006
11.047705 -8.284585 2.7164657
12.125332 -8.6435385 2.9292843
12.466455 -8.440547 2.9616125
12.393251 -7.9616895 2.8977184
13.273583 -7.6486545 3.0136468
13.361299 -7.2754679 2.9928167
13.337617 -6.8505292 2.949609
7.5117869 10.492593 2.5385165
7.385488 10.860663 2.5836816
7.3773241 11.432566 2.6765881
6.0289063 10.413796 2.367126
5.7304587 11.10146 2.4576473
5.4284472 11.169741 2.4430428
4.3755174 11.772851 2.4707172
4.2206736 12.253972 2.5495653
3.9008887 13.392231 2.743984
3.5989842 13.56697 2.7611814
-3.6078808 23.712877 4.7184453
-4.8099318 23.818407 4.7801037
-5.4257812 23.882212 4.817791
-6.0534568 23.953764 4.8602881
-6.6945701 24.033426 4.907814
-8.0240822 24.218708 5.0189505
-10.166699 24.569448 5.2307091
-10.929805 24.708387 5.3149109
-11.592099 24.584185 5.3468299
-11.4533 21.530756 4.7974772
-12.201904 21.660576 4.8906097
-12.983965 21.801218 4.9916739
-14.663652 22.119001 5.220542
-16.527861 22.493576 5.4909844
-21.69371 -6.5629096 4.4585648
-21.882715 -7.7910705 4.5694346
-21.542891 -8.2611027 4.5387926
-21.025526 -8.6503229 4.4724865
-20.584326 -9.0556221 4.42384
-18.183584 -21.685656 5.5672016
-5.7803903 -7.2416782 1.8227512
-5.6635351 -7.4575052 1.8421283
-5.5442576 -7.6783547 1.8630807
-4.5357032 -7.7617931 1.7684778
-4.4736524 -8.0981541 1.8199764
-4.2155175 -8.0859814 1.7938476
-3.9615526 -8.068037 1.7681384
-3.7148826 -8.0511494 1.7442758
-3.1961327 -7.3906951 1.5840133
-3.5709081 -8.8368044 1.8749304
-3.3512793 -8.9062119 1.8719461
-3.1323826 -8.9759073 1.8701593
-6.4246774 -21.728153 4.4572663
-4.7485938 -21.735809 4.3766861
-2.0573633 -21.726009 4.2930317
-1.0033691 -21.728394 4.278935
0.046210937 -21.734377 4.2755618
0.57094723 -21.736401 4.2774262
1.6233593 -21.740459 4.2886534
2.1522362 -21.742493 4.2980528
2.6836231 -21.743656 4.3098345
3.2182031 -21.744427 4.3241272
3.7566502 -21.745197 4.3410511
4.8478904 -21.746758 4.3830018
5.9662986 -21.760002 4.4385881
6.5351658 -21.761169 4.4697022
3.2372851 -7.9141278 1.6820687
10.807461 -21.775673 4.7822471
11.471191 -21.776951 4.8419323
12.15164 -21.777391 4.9058218
12.851562 -21.779291 4.9746799
13.571816 -21.781244 5.04849
14.314209 -21.783258 5.1275506
15.845761 -21.749554 5.2936282
16.644384 -21.724165 5.3836732
17.470097 -21.696568 5.4797492
11.649463 -9.3374863 2.936964
11.542792 -8.3703022 2.804863
12.101777 -8.3375816 2.8909485
13.012646 -8.067977 3.0119205
12.036757 -7.0665941 2.7457592
13.345478 -6.9919415 2.9637876
7.4284763 10.735624 2.5681832
5.8330369 11.07877 2.4630187
5.5294042 11.146667 2.4477212
4.3076267 12.18455 2.5423071
4.2062302 12.878633 2.6651638
3.6175585 14.575598 2.9542806
-5.8410935 23.928837 4.845459
-6.4775195 24.005722 4.8912635
-9.1875191 24.401638 5.1292248
-8.284277 14.989053 3.3690059
-12.717256 21.752699 4.9567914
-13.523516 21.901062 5.0635118
-15.259999 22.236494 5.3053055
-17.195107 22.632534 5.5914531
-22.191719 -7.1036773 4.5837255
-21.569824 -8.071372 4.530529
-21.218046 -8.5289764 4.4985747
-20.652948 -8.8866568 4.4229608
-13.006083 -7.9946337 3.0032458
-19.407724 -21.685255 5.7248473
-18.484707 -21.685068 5.60536
-5.584609 -7.6035275 1.8558542
-4.5435352 -7.6324344 1.7473403
-3.7969627 -8.0566292 1.7520782
-3.3669825 -7.615664 1.6380267
-3.4249804 -8.882865 1.8728143
-2.9872949 -9.0223932 1.8696283
-6.0483103 -21.729872 4.4371662
-4.3851562 -21.737473 4.3623052
-3.3007617 -21.723183 4.3224049
-2.7663672 -21.724401 4.308104
-2.2352147 -21.725607 4.2963877
-1.1799804 -21.727995 4.2805991
-0.65464842 -21.729179 4.276475
-0.13002929 -21.733694 4.2754941
0.91976559 -21.737749 4.2800431
1.9742578 -21.741808 4.2946129
2.5048046 -21.743847 4.3057051
3.0381541 -21.744167 4.3190336
3.5752246 -21.744938 4.3350673
5.7768164 -21.759613 4.4288044
6.3430467 -21.760773 4.4589062
3.1755176 -7.9464111 1.6833633
9.3162012 -21.772814 4.6587272
9.9450483 -21.774017 4.7089801
10.587988 -21.775253 4.7631383
12.614286 -21.778646 4.9510136
13.32751 -21.780582 5.0231285
14.822793 -21.788193 5.1839814
15.605693 -21.789162 5.2723002
17.182812 -21.697636 5.4446473
19.147079 -21.916195 5.7249122
11.892646 -9.2233534 2.9606285
11.28872 -8.3266048 2.7594483
12.007695 -8.4171925 2.8846848
12.198203 -8.1189013 2.8825314
12.996308 -8.2045565 3.0234447
13.350126 -7.5526853 3.0173604
13.353428 -7.1347008 2.9783068
9.0797167 10.564619 2.7403383
8.8557911 11.955327 2.9267774
6.8865137 10.859709 2.529628
6.0023828 10.55988 2.3894582
5.630908 11.12372 2.4526339
5.2133007 11.663645 2.513221
4.7535739 11.363549 2.4231284
4.2693849 11.771826 2.4633327
4.235322 12.620134 2.6186893
-3.2113085 23.683744 4.7016611
-3.8025682 23.728222 4.7273364
-6.2621484 23.978979 4.8753085
-4.5250974 14.438193 2.9764857
-8.2489157 24.252598 5.0393457
-9.6687889 24.482599 5.1781554
-10.414014 24.613722 5.2575254
-11.573242 25.612926 5.5290165
-13.248398 21.849874 5.0266752
-14.080645 22.006416 5.1393881
-16.85416 22.561226 5.5398874
-17.889853 22.779682 5.6979151
-21.773027 -6.7754583 4.4857478
-20.277069 -6.8508716 4.2103987
-21.649609 -7.9016418 4.5336719
-20.735283 -8.1401968 4.3820763
-19.644375 -8.2645435 4.1924777
-20.602383 -9.2589359 4.4433393
-18.791376 -21.686113 5.6448388
-17.893633 -21.686226 5.5308142
-5.6246872 -7.5293493 1.8488199
-4.7550292 -7.0508385 1.6729687
-3.458457 -8.7674208 1.6345196
-3.2414649 -8.8363161 1.6323022
-3.0250683 -8.9054689 1.6311117
-6.7949805 -21.710424 3.9452565
-5.6660447 -21.731169 3.8947439
-5.1098924 -21.733713 3.8719649
-4.5599022 -21.736231 3.8516803
-3.4726367 -21.723427 3.8152397
-2.9370799 -21.724646 3.8018947
-1.8755761 -21.727053 3.7820473
-1.3483496 -21.728245 3.7754889
-0.82265621 -21.729427 3.7711504
-0.29785156 -21.733606 3.7695224
0.75167966 -21.737661 3.7721255
1.8051269 -21.74172 3.78355
3.4030664 -21.745056 3.8170576
5.5944529 -21.748194 3.8944893
6.1610937 -21.760206 3.9221346
6.7327442 -21.761379 3.9504895
7.313066 -21.762568 3.981596
8.5033302 -21.765009 4.0524726
11.702754 -21.776031 4.2873378
12.390204 -21.777895 4.3453259
14.575058 -21.783813 4.545505
15.351992 -21.78841 4.6224399
16.119131 -21.743099 4.6940069
16.921797 -21.710426 4.7737479
17.770155 -21.697876 4.8638935
11.355586 -8.0915165 2.4181676
12.314804 -8.334383 2.5788405
12.142099 -7.3893533 2.4650488
13.163496 -7.1644244 2.5991135
9.7234373 12.917014 2.8038971
9.1885347 12.839993 2.7382317
7.1838574 11.137509 2.2984784
6.7237206 10.998061 2.2355504
6.4939938 11.874269 2.347151
6.3066211 12.223456 2.3853848
6.3739257 13.121701 2.5299137
5.3459864 11.716824 2.2335174
4.0319724 11.71349 2.1483994
3.5800879 14.954743 2.666822
-2.9473729 23.073446 4.034049
-4.5597949 22.557142 3.9911168
-5.1409473 22.608168 4.0209308
-4.4200001 14.493984 2.627914
-7.5841503 22.875956 4.1796298
-8.2322845 22.960419 4.2301383
-8.8988667 23.052683 4.2854624
-9.585928 23.153246 4.345912
-11.622255 23.169641 4.4954143
-10.910869 20.501429 4.0276465
-13.109345 20.84115 4.2699704
-13.90999 20.973328 4.3645716
-14.750772 21.116447 4.4671555
-15.63627 21.271553 4.5784793
-16.571602 21.439882 4.6994486
-17.562725 21.622847 4.8310771
-21.912823 -7.2155681 4.0009742
-21.702715 -7.7317333 3.9955282
-21.198055 -8.1335926 3.9376159
-20.668388 -9.0974216 3.9162974
-19.714033 -9.2515383 3.7766795
-20.033876 -21.684084 5.1199012
-5.7501755 -7.2066813 1.5989147
-5.3247752 -7.7656379 1.6329544
-4.6841798 -7.1979012 1.4893557
-4.4638376 -7.6422434 1.5348904
-4.174746 -8.0115719 1.5667337
-3.9236815 -7.9948502 1.5444931
-3.749824 -8.6756868 1.6391146
-3.5315526 -8.7443151 1.6354977
-3.0977342 -8.8821993 1.6313962
-2.881582 -8.9515715 1.6308866
-5.8544335 -21.730307 3.9029729
-4.1977539 -21.737888 3.8395619
-3.6563671 -21.74037 3.8232958
-3.1166015 -21.724237 3.8061206
-0.99917966 -21.729031 3.7723625
1.1007422 -21.739008 3.7749379
1.6276464 -21.741037 3.7810094
3.2225683 -21.744795 3.8122995
5.4067283 -21.747925 3.8864653
5.9707813 -21.759817 3.9132094
7.1170216 -21.762165 3.9708281
8.3003511 -21.764591 4.0397263
3.2394824 -7.9150529 1.483194
9.5308685 -21.772736 4.1218805
11.476337 -21.776455 4.2689586
14.320225 -21.783123 4.5209689
15.852129 -21.749445 4.6674705
17.477167 -21.696764 4.8317094
11.934326 -9.0979433 2.6025462
12.201191 -8.402544 2.5692301
12.387256 -7.6769037 2.5273743
13.078056 -7.2560277 2.5937755
13.177763 -6.9008036 2.5797646
9.8769331 12.901838 2.8178985
6.7587399 10.856502 2.2178447
6.6515818 11.282432 2.2713931
6.4998145 13.109282 2.5375991
5.3690624 11.519111 2.204056
4.5054102 11.834595 2.196125
3.6203613 12.072429 2.1857879
3.7105272 13.553681 2.437052
-3.0220118 25.287672 4.4167447
-3.2356639 22.460432 3.935432
-4.3666306 22.541323 3.9819229
-5.5324802 22.645399 4.0428038
-6.1317673 22.706696 4.0789843
-8.6727142 23.020786 4.2663202
-10.780635 23.340481 4.4587665
-11.53371 23.466028 4.5346146
-11.638027 22.301994 4.3626971
-11.373994 20.569929 4.076395
-12.848642 20.799021 4.2398505
-14.463506 21.067072 4.4317493
-15.333447 21.218029 4.5400496
-16.251455 21.381765 4.6576676
-17.223066 21.559631 4.7855835
-18.254824 21.753174 4.9249225
-19.354179 21.964201 5.0770001
-21.548653 -6.333312 3.8951571
-21.971504 -7.0379057 4.0011363
-21.797119 -7.5667181 4.0014763
-21.577606 -8.0790834 3.9958181
-20.010546 -9.1934156 3.8190756
-19.399883 -21.684971 5.0460486
-17.593691 -21.687025 4.8431001
-5.6730175 -7.3485026 1.6100018
-5.3923535 -7.729075 1.6344039
-5.1916113 -7.8378625 1.6304327
-4.6539645 -7.4085093 1.517307
-4.4464064 -7.9004345 1.5722314
-4.2607908 -8.0173731 1.5745758
-4.007246 -8.0003805 1.5517883
-3.2495117 -7.3537998 1.3943014
-3.6047657 -8.7212219 1.6365933
-6.0436325 -21.729443 3.9114895
-4.9288669 -21.734541 3.8650384
-4.3807325 -21.737051 3.8455606
-3.8377929 -21.739538 3.8284969
-2.7621875 -21.725044 3.7980161
-2.2310545 -21.726248 3.7877088
-1.7024707 -21.727444 3.7796507
-1.1758008 -21.728634 3.7738233
-0.65046871 -21.729816 3.7702019
-0.12583007 -21.734272 3.7693508
0.3988086 -21.736301 3.7702706
0.92402339 -21.738327 3.7733934
1.9785644 -21.74239 3.7862718
2.50916 -21.744429 3.7960706
3.0425487 -21.744535 3.8078036
3.579658 -21.74531 3.8219576
4.1211033 -21.746086 3.8384612
4.6675878 -21.74687 3.8573635
5.2197752 -21.747658 3.878726
6.3476562 -21.76059 3.9311371
6.92207 -21.761765 3.9603832
3.1755371 -7.9419885 1.4833333
9.3210249 -21.772335 4.1073618
9.9499607 -21.773537 4.1516895
10.593008 -21.774763 4.1994586
14.068095 -21.782438 4.4970012
14.828613 -21.787766 4.570672
15.610859 -21.787493 4.6482611
16.382607 -21.736841 4.720499
17.189268 -21.697248 4.8006134
18.059902 -21.698975 4.8960314
11.495673 -9.3646212 2.5714252
11.875205 -8.3208523 2.5147166
12.755537 -8.0490637 2.6157489
12.982724 -7.7608099 2.6231537
13.149238 -7.435595 2.6197667
13.170527 -7.0336924 2.5894275
9.5749607 12.931525 2.7905095
7.8896484 11.80687 2.462703
6.5754004 11.573198 2.3084188
6.2604098 12.373291 2.4048812
5.322793 11.914878 2.2631695
4.5803514 11.744097 2.1861522
3.7927246 14.779836 2.6462536
5.3516893 26.010143 4.6053271
-3.6078711 22.48481 3.9493282
-4.1744432 22.526157 3.9731321
-4.7493162 22.573227 4.0004902
-5.3337207 22.626215 4.0315213
-4.5266504 14.433247 2.6233165
-8.4487886 22.989798 4.2477393
-9.1218357 23.084728 4.3047094
-10.533779 23.300558 4.4346747
-11.277471 23.422688 4.5084181
-14.181084 21.019018 4.397305
-16.890263 21.498211 4.7413945
-22.127811 -6.309041 3.9904687
-21.707401 -6.7597079 3.94293
-21.855663 -7.3889928 4.001091
-21.011103 -8.2532234 3.914901
-20.313828 -9.1339998 3.8626943
-19.718388 -21.684523 5.0829844
-5.7121973 -7.276475 1.6043181
-5.5948243 -7.492404 1.6216763
-4.6693945 -7.3009467 1.5029831
-4.4807811 -7.3932629 1.4992834
-4.4553123 -7.7681918 1.5530535
-4.5706153 -8.4345512 1.6637331
-4.0915918 -8.0059996 1.5592638
-3.4017675 -7.532536 1.4333746
-3.6780858 -8.6981468 1.6378049
-3.4601953 -8.7668686 1.6345407
-3.2432032 -8.8357601 1.6323147
-3.0268066 -8.904911 1.6311163
-6.2336717 -21.728573 3.920306
-5.6705565 -21.731148 3.8949392
-5.1143751 -21.73369 3.8721397
-4.5643067 -21.73621 3.8518355
-4.0196872 -21.738703 3.8339629
-3.4769726 -21.723417 3.8153551
-2.9413769 -21.724636 3.8019946
-2.4092286 -21.725843 3.7909234
-1.8798437 -21.727043 3.7821112
-0.82691407 -21.729418 3.7711754
-0.30206054 -21.733591 3.7695286
0.74744141 -21.737644 3.7720993
2.3305566 -21.743742 3.7925246
2.8628807 -21.744276 3.8035684
3.3987498 -21.745049 3.816942
4.4833493 -21.746607 3.8507402
6.728086 -21.761366 3.9502487
7.8981738 -21.763769 4.0152631
8.498457 -21.764999 4.0521693
13.818662 -21.781763 4.4735813
16.915243 -21.710749 4.7730918
17.763056 -21.697849 4.8631101
18.746895 -21.804146 4.9869361
11.712236 -9.2327747 2.5864339
11.325029 -8.0730419 2.4119909
12.147841 -7.3960919 2.4665051
14.24789 -7.3180695 2.777827
9.1937008 12.841914 2.7390265
8.2511129 12.133591 2.5447245
7.1917868 11.145043 2.3003216
6.7245603 10.994651 2.2351236
6.6144629 11.425251 2.2895339
6.3081541 12.220578 2.3850648
6.3800683 13.127827 2.5313334
5.3465428 11.712019 2.2327993
4.9606247 11.599766 2.1879327
3.6942186 11.629745 2.1162093
3.5373144 12.144043 2.1936166
3.5826659 14.952624 2.6665683
-2.9467969 23.104799 4.0394273
-3.9831543 22.511631 3.9647403
-4.5551658 22.556763 3.9908955
-5.7277246 22.664795 4.0542326
-6.3310056 22.72821 4.0917206
-4.4173632 14.495485 2.6280301
-8.2269726 22.959702 4.2297068
-9.5803127 23.152401 4.3454022
-10.289873 23.26173 4.4112568
-11.62206 23.180502 4.4970789
-10.905302 20.500612 4.0270658
-11.607324 20.605085 4.1014371
-13.903399 20.972225 4.3637848
-14.743867 21.115248 4.4662962
-15.628964 21.27025 4.5775471
-16.563877 21.438471 4.6984329
-17.554453 21.62129 4.8299589
-18.60751 21.820356 4.973321
-21.626562 -6.542593 3.9184752
-21.706015 -7.7281523 3.9958565
-21.202665 -8.1306438 3.9381802
-20.202353 -8.3116522 3.7885439
-20.041698 -21.684074 5.1208158
-5.6345215 -7.4193168 1.6156927
-5.5155077 -7.6385388 1.6339636
-5.3263769 -7.7647662 1.6329861
-4.4640427 -7.6391649 1.5344458
-4.6057911 -8.3373852 1.6518786
-4.1767969 -8.0117092 1.5669208
-3.9256737 -7.9949813 1.5446652
-3.5628612 -7.7216854 1.4748178
-3.7515917 -8.6751337 1.6391482
-3.5333202 -8.7437592 1.6355243
-4.7485056 -21.735365 3.8583837
-3.6607518 -21.740351 3.8234169
-3.1209471 -21.724228 3.8062274
-1.0033984 -21.729021 3.7723944
-0.47836912 -21.730206 3.7694945
0.57094723 -21.736963 3.77105
1.6233984 -21.741022 3.7809496
2.1523046 -21.743059 3.789237
4.2997165 -21.746342 3.8443937
4.8479786 -21.747126 3.864095
6.5351071 -21.760973 3.9404292
10.807207 -21.775173 4.2159028
12.851475 -21.779142 4.3856225
13.571718 -21.781094 4.4506884
15.082509 -21.788078 4.5956373
17.470243 -21.696737 4.8309512
18.395811 -21.750109 4.9402728
11.93163 -9.0995703 2.602345
11.390927 -8.2601805 2.4402192
12.198457 -8.4041853 2.5690033
13.121709 -7.2835784 2.6027148
13.177597 -6.9039874 2.5799909
21.37373 -8.0921021 3.9635246
9.8806248 12.901472 2.8182366
9.411006 12.922773 2.7724559
7.533164 11.46886 2.3796887
6.6524801 11.278935 2.2709508
6.3784666 12.114714 2.3744214
6.50207 13.107446 2.5374889
5.3695993 11.514441 2.2033617
5.1690431 11.821023 2.2374992
4.6465821 11.365842 2.1294897
4.1151462 11.640141 2.14114
3.6893749 14.864936 2.6561797
-3.017041 25.287699 4.4166412
-6.1268454 22.706169 4.0786719
-4.3076954 14.55794 2.6329315
-4.6340723 14.376266 2.6195419
-8.6673145 23.020031 4.2658672
-10.774658 23.339504 4.4581757
-12.842422 20.798027 4.2391405
-13.630185 20.926666 4.331161
-15.326221 21.216749 4.5391312
-16.243778 21.380383 4.656673
-18.246269 21.75156 4.923759
-19.345068 21.962427 5.0757203
-21.798534 -7.5624423 4.0014653
-20.737061 -8.3356314 3.876014
-20.820147 -8.9585867 3.9308245
-20.017725 -9.1920071 3.8201065
-5.6739645 -7.3467631 1.6098623
-5.5557909 -7.5642924 1.6276666
-5.1932325 -7.8369889 1.6304611
-4.6543455 -7.4059143 1.5169607
-4.4466209 -7.8972168 1.5717633
-4.2628708 -8.0175123 1.5747647
-3.7630076 -7.98457 1.5308056
-3.2530468 -7.3579521 1.3952078
-3.3889647 -8.7894392 1.6336987
-3.1721873 -8.8584051 1.6318082
-2.9559276 -8.9276581 1.6309457
-6.0481834 -21.729424 3.9116979
-4.9332323 -21.734522 3.865206
-4.3850584 -21.73703 3.8457055
-2.7664549 -21.725033 3.7981076
-1.7066699 -21.727434 3.7797084
-0.13002929 -21.734255 3.7693508
0.91978514 -21.738308 3.7733586
1.4461426 -21.740339 3.7786694
1.9742968 -21.742373 3.7862027
3.038203 -21.744532 3.8076994
3.5752928 -21.745302 3.8218346
4.1166892 -21.74608 3.838316
4.6631055 -21.746862 3.8572023
5.7767477 -21.759418 3.904371
6.9173336 -21.761757 3.9601316
7.5006933 -21.762951 3.9921424
3.1746094 -7.9441404 1.483634
9.3159962 -21.772326 4.1070166
9.9448242 -21.773527 4.1513166
11.920634 -21.776623 4.3054428
15.60538 -21.788721 4.6479387
16.376202 -21.736992 4.7198477
17.182753 -21.697571 4.7999525
18.052753 -21.698944 4.8952355
11.820205 -9.1671724 2.5941739
11.159394 -8.2312145 2.4048431
11.86918 -8.320096 2.5137856
12.423828 -8.2690687 2.5882251
12.753701 -8.0514002 2.6156952
12.980869 -7.7631531 2.6230862
7.8988867 11.81563 2.464854
7.4993162 11.826086 2.4285553
6.6894531 11.134296 2.2526758
6.5763378 11.569638 2.307965
6.4998727 12.106113 2.3829875
6.2623925 12.371211 2.4047153
5.3920116 11.321843 2.1748044
5.3233786 11.9099 2.2624218
4.7658787 11.392951 2.1417415
3.792871 13.416101 2.4178915
5.3564744 23.163542 4.1231723
5.3192968 25.827343 4.5731406
-4.744658 22.572823 4.0002546
-5.3289938 22.625763 4.0312567
-5.9241991 22.684887 4.0660892
-4.1975975 14.620645 2.6380298
-9.1164255 23.083944 4.3042388
-9.8104687 23.187263 4.3663864
-11.629971 22.745026 4.4303236
-11.13252 20.534004 4.0508189
-12.585752 20.757021 4.2098389
-14.174395 21.017876 4.3964863
-15.028964 21.164703 4.5017772
-16.882284 21.496742 4.7403378
-17.892559 21.684704 4.8756108
-21.705429 -6.7544298 3.942332
-21.015713 -8.2502756 3.9154594
-20.321161 -9.1325636 3.8637538
-18.791142 -21.68582 4.9763927
-17.893827 -21.68644 4.8759813
-5.5957713 -7.4906516 1.6215326
-5.2605467 -7.8004394 1.63168
-4.6697655 -7.2983727 1.5026413
-3.4227147 -8.6768274 1.4020582
-2.9938769 -8.8136377 1.3991648
-6.7952442 -21.71126 3.4196298
-5.6659274 -21.730722 3.3756464
-5.1097851 -21.733271 3.3559041
-4.5598044 -21.73579 3.3383245
-4.015244 -21.738285 3.3228567
-2.4050097 -21.726482 3.2857571
-1.8756347 -21.727678 3.2781341
-1.3483789 -21.728867 3.2724502
0.22672851 -21.736191 3.2674441
1.2776366 -21.740248 3.2735143
1.8051758 -21.742279 3.2794254
2.3349121 -21.744318 3.2872782
3.4031153 -21.745417 3.3084407
4.4878416 -21.746977 3.3377695
5.0380759 -21.747766 3.3555782
6.1610155 -21.760014 3.3994267
6.7326756 -21.761183 3.4240007
10.380254 -21.773865 3.6258252
11.033466 -21.77511 3.6693161
13.096855 -21.779659 3.820121
13.824502 -21.781628 3.8778708
14.574951 -21.783661 3.9397311
16.119169 -21.743145 4.0684757
16.921757 -21.710358 4.1375685
17.770292 -21.698046 4.215745
18.756317 -21.806471 4.323494
11.903505 -8.9227552 2.2361476
11.482783 -8.1821499 2.1193914
12.938838 -7.4524121 2.244432
13.955371 -7.5954089 2.3882613
10.13121 12.803589 2.4541934
8.7500191 11.623906 2.1869504
8.5364742 11.928799 2.2049005
8.4025784 12.361508 2.246737
7.2389355 12.509504 2.1724999
6.9640427 12.733738 2.1816125
5.5226364 11.369177 1.8999051
4.5329881 11.356311 1.8379824
4.6689939 12.569931 2.0155742
3.6000977 13.581845 2.1120508
5.3478708 22.339148 3.452781
-3.1072071 24.324558 3.686043
-3.2907813 21.600325 3.2843039
-3.8279102 21.60951 3.2987905
-4.3700976 21.618784 3.3153436
-5.4725976 21.637644 3.3548682
-6.0344334 21.647253 3.3779581
-4.4189453 14.490551 2.2771673
-7.7978711 21.748833 3.472944
-9.0670013 21.899851 3.5628457
-9.7303219 21.985291 3.6139085
-11.124961 22.178251 3.7296124
-11.649541 21.889404 3.7272472
-11.077432 19.655487 3.3914082
-12.481084 19.84236 3.5235758
-14.012861 20.060066 3.6781492
-14.835556 20.182261 3.7651238
-21.293798 -6.4464779 3.3442285
-21.69916 -7.145206 3.4339795
-21.364775 -8.1975565 3.4397202
-20.510342 -9.0278597 3.3684411
-20.033564 -21.683786 4.437542
-19.085634 -21.685114 4.3422551
-18.176796 -21.6861 4.2533507
-5.6050973 -7.3835363 1.3934225
-5.4688673 -7.5770311 1.4046153
-5.0616212 -7.7778931 1.3948959
-4.5971189 -7.4515057 1.316076
-4.1370506 -7.9392233 1.3456836
-3.8888378 -7.9238367 1.3267778
-3.4346189 -7.4475622 1.2327882
-3.495039 -8.6539049 1.4028893
-3.2800877 -8.7221632 1.4007107
-3.0657811 -8.7905903 1.3994076
-6.9888964 -21.710779 3.4283655
-6.4198532 -21.727276 3.4055092
-5.8543162 -21.72986 3.3827777
-5.2959471 -21.732418 3.3622944
-4.7439842 -21.734945 3.3439941
-2.5834668 -21.726076 3.2887533
-2.0532422 -21.727278 3.280479
-1.5253515 -21.728468 3.2741437
-0.99919921 -21.729652 3.2697377
-0.47415039 -21.730837 3.2672415
1.1007714 -21.739565 3.2719545
1.6277051 -21.741596 3.2772255
2.6879883 -21.744385 3.2933764
3.7611327 -21.74593 3.3172622
4.852529 -21.747499 3.3493538
5.406826 -21.748293 3.3685999
7.1169629 -21.761971 3.4416313
7.7035546 -21.763174 3.4702182
8.3002729 -21.764397 3.5013442
3.2394531 -7.9150138 1.2855319
10.812226 -21.774687 3.6543474
12.157041 -21.777119 3.7489438
12.857119 -21.779011 3.8015914
13.577529 -21.780962 3.8580184
15.852168 -21.749487 4.0454731
16.650732 -21.723713 4.1142435
19.627861 -22.093513 4.442235
12.124023 -8.7881746 2.2508233
11.965322 -8.2401123 2.1837988
12.93127 -7.5883713 2.253722
12.954228 -7.1873245 2.2268372
14.11877 -7.3935766 2.3956406
10.369277 12.88824 2.4864612
9.6789646 12.643247 2.3934205
9.083252 12.477788 2.3199141
8.3336229 12.048733 2.2020998
6.3705273 12.105378 2.0561996
5.2651954 12.047304 1.9762781
4.2590528 12.054641 1.9217581
4.9722462 22.345564 3.4410141
4.4138379 22.369499 3.4272945
-3.0808008 25.779655 3.9026241
-3.1112988 21.597256 3.2798934
-4.6353221 14.370595 2.2697029
-8.2113571 21.796169 3.501066
-8.8486624 21.872677 3.5466332
-9.5050974 21.955797 3.5962689
-10.182695 22.045956 3.6502328
-10.910889 19.732405 3.3893018
-12.237012 19.808943 3.4998991
-13.74541 20.021103 3.6504483
-14.554492 20.140137 3.7351253
-16.30331 20.408312 3.9263389
-19.334764 20.90279 4.2800317
-21.643164 -6.9327292 3.4161062
-19.90913 -9.1468201 3.2933519
-17.593857 -21.687237 4.1977301
-5.644443 -7.31148 1.3884174
-5.514863 -7.5116282 1.4007365
-5.3260546 -7.6340542 1.3991824
-5.1279392 -7.7417331 1.3958244
-4.5647364 -7.6714573 1.3418298
-4.3004103 -8.0918989 1.3774291
-3.7837987 -8.562932 1.4071951
-3.5674803 -8.6309919 1.4038203
-3.3522265 -8.6992102 1.4013445
-6.6071582 -21.711727 3.4113729
-6.0434861 -21.728996 3.390161
-4.9287791 -21.734098 3.3499036
-2.2311034 -21.726871 3.2830429
-1.7025098 -21.728069 3.276058
-0.65048826 -21.730438 3.2678661
-0.12583007 -21.734829 3.2671142
0.3988086 -21.736855 3.2679131
0.92404294 -21.738884 3.2706182
1.4504297 -21.740913 3.275239
2.5092187 -21.744989 3.290273
3.5797265 -21.74567 3.3126864
4.667666 -21.747234 3.3433735
5.7812986 -21.759237 3.3842113
3.1746385 -7.9397483 1.2852713
9.3208103 -21.771852 3.5599227
9.9497356 -21.773046 3.5983417
10.592764 -21.774269 3.6397393
11.251152 -21.775524 3.6842797
12.619697 -21.778368 3.7834911
14.067998 -21.78229 3.8976855
14.82831 -21.787336 3.9614875
15.606601 -21.781557 4.0277991
16.382647 -21.736885 4.0914354
18.060184 -21.699314 4.243638
19.162842 -21.925634 4.3770871
12.012031 -8.8564825 2.2432938
12.266885 -7.7407103 2.1803114
12.923818 -7.7255945 2.2632666
14.035928 -7.4958639 2.3918221
9.9049511 12.72329 2.423701
7.3594823 11.610544 2.0663006
7.4224801 12.359792 2.1671219
7.1490231 12.582842 2.1753409
6.5950389 13.034697 2.195816
5.436738 12.169917 2.0035563
4.2940626 11.010049 1.7763846
4.0218263 11.991574 1.9011841
3.6735156 11.8981 1.8717599
5.8317184 22.725626 3.5266719
4.599072 22.351936 3.4302063
-2.9725976 21.891043 3.3207393
-3.4664257 21.603327 3.2888303
-4.5491405 21.621845 3.3212309
-4.5255761 14.429836 2.2731862
-7.3866601 21.703598 3.4461322
-8.0012112 21.771872 3.4866257
-8.6324606 21.846252 3.5308816
-9.9525194 22.014845 3.6315985
-10.64541 22.109949 3.6886029
-13.482197 19.983141 3.6234713
-14.278154 20.099094 3.7059152
-15.114677 20.22448 3.7952056
-15.996172 20.360205 3.8920007
-17.915644 20.667126 4.1113176
-18.966278 20.840944 4.2357326
-20.087656 21.030458 4.3715253
-21.587851 -6.7224755 3.3986588
-22.364834 -8.1676617 3.5789266
-20.720791 -8.1391811 3.3463054
-20.77042 -8.74296 3.3874145
-20.209707 -9.0871773 3.3307791
-19.718134 -21.684229 4.4055486
-18.783495 -21.685539 4.3124352
-17.886953 -21.686665 4.2255588
-5.6835055 -7.239943 1.3835402
-5.5606446 -7.4466252 1.3969789
-5.3929296 -7.5978203 1.4005127
-4.9970016 -7.8131824 1.3940883
-4.3857226 -7.6468558 1.3250624
-4.4115524 -8.1410179 1.3918332
-3.765996 -7.8296371 1.3059715
-3.8568065 -8.5401049 1.4085382
-3.424453 -8.6762772 1.4020765
-3.2097461 -8.7445812 1.4001868
-2.9956055 -8.8130846 1.3991691
-5.6704493 -21.730703 3.3758142
-5.1142673 -21.73325 3.3560541
-4.564209 -21.735771 3.3384562
-4.0195994 -21.738266 3.3229709
-3.4770606 -21.724051 3.3070035
-1.8798926 -21.727669 3.2781863
-1.3526562 -21.728857 3.2724874
-0.82693356 -21.730043 3.2687097
0.7474609 -21.738203 3.2694995
1.2733886 -21.740231 3.2734723
2.8629394 -21.744638 3.2967448
3.3987987 -21.745409 3.3083398
4.4834375 -21.746969 3.337636
5.0336227 -21.747759 3.3554268
5.5900292 -21.748556 3.3753831
6.1564355 -21.760004 3.3992379
6.7280273 -21.761173 3.4237936
7.3082519 -21.762363 3.4507315
7.8981051 -21.763571 3.4801443
8.4983788 -21.764801 3.5121226
9.1124411 -21.771458 3.5476558
9.7369041 -21.772644 3.585103
10.375058 -21.773857 3.6254883
11.697197 -21.775873 3.7155709
12.384482 -21.777731 3.7658048
13.091084 -21.779646 3.8196716
14.568798 -21.783644 3.9392092
15.345332 -21.787966 4.005806
17.763184 -21.698019 4.2150702
11.900859 -8.9243717 2.2359748
12.938652 -7.4556646 2.2446523
13.953379 -7.5978661 2.3881783
10.136836 12.805588 2.4549553
8.7708588 11.646855 2.1915882
8.537529 11.925364 2.2045755
7.2411423 12.50771 2.172431
5.024961 11.750183 1.9209512
4.5391016 11.365175 1.8395602
4.6697364 12.564466 2.0148435
4.1412501 12.023383 1.9114879
3.5950975 12.342434 1.9323488
4.7876463 22.348715 3.4355555
4.260283 22.528528 3.4463861
-3.1066015 24.357687 3.6909738
-3.2864549 21.600248 3.2841949
-4.3657227 21.618708 3.3152051
-4.4163184 14.492048 2.2772677
-7.1836033 21.681965 3.4333327
-7.7928905 21.748266 3.4726093
-8.4183397 21.820559 3.5155785
-11.119141 22.177416 3.7291112
-11.649365 21.899364 3.7285538
-11.071992 19.654785 3.3909142
-12.475176 19.841545 3.5229983
-14.006415 20.059126 3.67748
-14.828779 20.181232 3.7643907
-16.608789 20.456547 3.9607861
-19.702374 20.964907 4.3245416
-21.287899 -6.440136 3.3431044
-21.368427 -8.194211 3.4400527
-20.046659 -8.2475986 3.2583654
-18.183945 -21.686087 4.2540369
-5.7223339 -7.1689329 1.378791
-5.6060448 -7.3818111 1.3933016
-5.2609568 -7.6693878 1.397982
-3.8908007 -7.9239545 1.3269236
-3.4383593 -7.4518719 1.2336117
-3.4967871 -8.6533527 1.4029108
-3.0675194 -8.7900343 1.3994132
-6.993535 -21.710766 3.4285784
-6.4244237 -21.727253 3.4056997
-5.8588181 -21.729841 3.3829503
-4.7484083 -21.734926 3.3441362
-3.6606641 -21.739914 3.3138285
-2.0574901 -21.727268 3.2805333
-0.47837889 -21.730825 3.2672522
0.57097656 -21.737522 3.2685897
2.1523438 -21.743618 3.2843554
3.2183008 -21.745152 3.30422
3.7567773 -21.745924 3.3171508
4.8480563 -21.747492 3.3492076
5.4023533 -21.748287 3.3684299
6.535068 -21.76078 3.4152846
3.2372558 -7.9140568 1.2852731
9.5255661 -21.772242 3.5722005
10.806952 -21.774677 3.6539943
12.151504 -21.777103 3.7485363
13.57163 -21.780945 3.8575497
15.082226 -21.787643 3.9831264
18.39666 -21.751106 4.282114
19.616533 -22.089426 4.4406443
12.121318 -8.7898226 2.2506421
11.959238 -8.2393818 2.1829827
12.698701 -7.8733273 2.2459133
12.931103 -7.5916429 2.2539461
14.116767 -7.3960376 2.3955455
10.375078 12.890305 2.4872489
9.6842966 12.645131 2.3941324
9.0896091 12.48143 2.320919
7.7687302 11.827495 2.1270583
7.0588865 12.656369 2.1783245
6.3731833 12.104675 2.0562909
6.5031638 13.109638 2.1997008
5.2704296 12.052939 1.9773687
4.8021092 11.746269 1.9074825
4.2619724 12.055412 1.9220129
3.9064453 11.960725 1.8913324
5.639287 22.721415 3.5189807
4.4175978 22.365601 3.4268281
-4.728828 21.62492 3.327348
-5.2809958 21.634365 3.3474405
-4.3066797 14.554477 2.2815154
-4.6326561 14.371892 2.2697649
-7.5864744 21.725342 3.4590137
-8.2062893 21.795584 3.5007181
-8.8434277 21.87204 3.546253
-9.4997168 21.955103 3.5958536
-10.877949 22.142822 3.7083359
-11.604619 22.248537 3.7718618
-10.910732 19.741167 3.3904409
-11.525186 19.713684 3.4325051
-12.231191 19.808153 3.4993412
-13.739023 20.02018 3.6497912
-14.547783 20.13912 3.7344034
-15.398477 20.26779 3.8260796
-16.295908 20.407146 3.9255059
-18.252899 20.722504 4.1509409
-22.066044 -6.4807148 3.4569399
-21.068544 -8.4688826 3.4131854
-19.916241 -9.1454077 3.2942398
-13.00626 -7.994741 2.294838
-17.600859 -21.687223 4.1983914
-5.5159569 -7.5100613 1.4006454
-5.1295309 -7.7408695 1.395848
-4.5651364 -7.6687331 1.3415103
-4.3029003 -8.0927792 1.377721
-3.9733887 -7.9289422 1.3331131
-3.5994334 -7.6375108 1.2691348
-3.785537 -8.5623865 1.4072256
-3.5692089 -8.6304445 1.4038421
-3.353955 -8.6986628 1.4013613
-7.1882615 -21.710283 3.4375961
-6.0480566 -21.728977 3.390342
-4.9331541 -21.734079 3.3500443
-3.8420215 -21.739082 3.3183403
-3.3009374 -21.724447 3.3029842
-2.2353418 -21.726864 3.2831063
-1.7067285 -21.728062 3.2761078
-0.65469724 -21.730429 3.2678878
2.5049317 -21.744976 3.2902019
3.5753417 -21.745663 3.3125763
4.1167579 -21.746443 3.3268633
4.6631837 -21.747227 3.3432329
5.215322 -21.74802 3.3617282
6.3429394 -21.760387 3.4070315
6.9172459 -21.761562 3.4323595
7.5006151 -21.762756 3.4601038
8.0937405 -21.763971 3.490345
9.9446087 -21.773039 3.5980217
10.587509 -21.77426 3.639394
12.614101 -21.778355 3.7830687
13.327343 -21.780285 3.8381677
14.822206 -21.787329 3.9609706
15.605078 -21.788282 4.0284581
16.37623 -21.737038 4.0908737
17.182705 -21.697502 4.1602788
11.71167 -8.2096863 2.1498787
12.632324 -8.407836 2.2809558
12.272881 -7.7478557 2.1816454
12.923633 -7.7289262 2.2635016
12.217109 -6.9117022 2.1099219
14.033955 -7.4983072 2.3917322
9.9104881 12.725254 2.4244483
8.3585548 12.503208 2.2606988
7.3678122 11.618706 2.0680065
7.4246678 12.358012 2.1670625
6.5006347 12.107546 2.0656686
5.5028319 11.554533 1.9237213
5.4372849 12.164758 2.002882
4.8553123 11.606743 1.8911597
4.2996583 11.018164 1.7778256
4.3498631 11.993737 1.917738
4.0246286 11.992327 1.9014245
3.6762402 11.898838 1.871987
5.1665525 22.342245 3.4469883
4.6035252 22.35186 3.430331
-2.8966894 26.075624 3.943655
-2.97208 21.919491 3.3249681
-3.4620214 21.603252 3.2887151
-4.5447559 21.621769 3.3210824
-7.9961424 21.771292 3.4862814
-9.9471092 22.01412 3.6311634
-11.357471 22.21209 3.7499471
-11.294404 19.683516 3.4111919
-12.716855 19.874981 3.5467
-15.107734 20.223425 3.7944546
-15.988828 20.359056 3.8911822
-16.920097 20.506107 3.9961917
-18.957479 20.839474 4.2346802
-20.078241 21.028854 4.3703747
-21.644951 -7.3130322 3.4342337
-22.365849 -8.1630659 3.5788326
-20.73292 -8.1392565 3.3480041
-20.773907 -8.7397461 3.3877132
-20.216963 -9.0857363 3.3316851
-19.725811 -21.684217 4.4063244
-5.684443 -7.2382474 1.383425
-5.3945312 -7.5969553 1.4005466
-5.1959863 -7.704699 1.3968807
-4.9985938 -7.8123083 1.3941061
-3.3879395 -8.5886793 1.1758744
-6.7954979 -21.71209 2.8975158
-5.1096873 -21.732832 2.8433502
-4.5597072 -21.735353 2.8284514
-2.9372559 -21.725899 2.7921672
-2.4050586 -21.727102 2.7840514
-1.3484277 -21.729488 2.7727728
4.4879198 -21.747339 2.8280869
5.0381737 -21.748129 2.8431761
6.7325974 -21.76099 2.901082
7.3129196 -21.762177 2.9239187
7.9028025 -21.763384 2.9488537
9.1172066 -21.770988 3.0060539
9.7417669 -21.772169 3.0377998
11.033213 -21.774614 3.1088858
11.702588 -21.775747 3.1484587
12.390059 -21.777605 3.1910436
14.574843 -21.78351 3.3380423
15.351377 -21.78754 3.3944545
16.9217 -21.710293 3.5056849
12.092656 -8.6167173 1.8910995
12.725547 -8.1716604 1.9260968
12.718174 -7.7399378 1.8961481
12.593711 -7.2536263 1.8509467
13.909042 -7.5701981 2.0168197
8.472002 10.191286 1.6878659
9.9710836 12.601209 2.0465333
8.5598145 12.592822 1.9392458
7.8960643 12.241704 1.8552816
7.1807909 11.745698 1.7533286
7.3035445 12.621161 1.8571539
7.0238476 12.843102 1.8643191
6.2891016 12.189507 1.7468951
5.8271384 11.996055 1.6985171
10.306084 22.5879 3.1620705
4.9469237 11.573987 1.6030526
4.6829982 11.732129 1.60883
3.5129492 12.069109 1.6008984
3.2111621 12.114533 1.5961785
5.4273825 22.671206 2.9689736
4.8541794 22.680994 2.9540493
4.331738 22.931015 2.9721315
-3.1106639 24.351688 3.1266048
-3.8596289 21.788639 2.8181829
-9.0577631 21.87756 3.0156717
-9.6874123 21.888334 3.0485015
-10.246279 21.719133 3.0584934
-10.900264 21.730324 3.0962224
-11.570976 21.741804 3.136744
-11.974443 20.09725 2.9794586
-12.648671 20.108791 3.0255551
-14.119141 20.212214 3.1400795
-16.830498 19.728674 3.3027184
-17.683681 19.743282 3.3756437
-18.623291 19.808918 3.4627178
-19.696327 19.96221 3.571589
-22.021425 -6.6667576 2.9303348
-21.466494 -7.0686026 2.8783581
-21.503202 -7.6606469 2.9072313
-19.876884 -8.1822596 2.7375979
-20.405527 -8.98172 2.839442
-19.08539 -21.684824 3.6790774
-5.5278416 -7.2817731 1.1643524
-5.3929005 -7.4717617 1.1735752
-4.8064451 -7.7907934 1.1658639
-4.5069823 -7.7161093 1.1380762
-4.0963769 -7.8611779 1.1289691
-3.8880565 -8.4307699 1.1824174
-3.6731443 -8.4982691 1.1791056
-3.2467871 -8.6336384 1.1747562
-7.5716209 -21.710169 2.9283206
-6.4197068 -21.726828 2.885376
-5.2958398 -21.731979 2.8487628
-4.1975975 -21.737017 2.819555
-3.116787 -21.725492 2.7952731
-2.583545 -21.726698 2.7865889
-2.0532911 -21.727898 2.7795753
-1.5253906 -21.72909 2.7742124
-0.47416013 -21.731455 2.7683616
0.050449219 -21.736061 2.7682915
1.6277343 -21.742153 2.7768123
3.7612011 -21.74629 2.8107109
5.4069238 -21.748659 2.8542087
5.9706736 -21.759434 2.8737001
7.1168942 -21.761776 2.9160123
7.7034664 -21.762978 2.9402368
8.3001947 -21.764198 2.9666095
3.2394335 -7.9149771 1.089205
9.5304489 -21.77177 3.0268614
11.47581 -21.775454 3.1348414
12.156962 -21.776974 3.1763954
12.857031 -21.778864 3.2210073
13.577441 -21.780815 3.2688158
14.320029 -21.78282 3.3200312
15.088262 -21.787222 3.3752303
18.405809 -21.753378 3.6291385
11.981591 -8.6849356 1.8846853
13.827138 -7.671629 2.0138986
14.071757 -7.3689566 2.023031
8.3159962 10.336174 1.6895727
8.6052542 12.441447 1.9266199
6.3664646 12.097666 1.7410738
4.9337888 11.289006 1.5690732
4.7883592 11.719162 1.6123235
3.6148241 12.053979 1.6027294
5.0461426 22.677713 2.9588504
4.4919043 22.765148 2.9552507
-3.0844336 25.810076 3.3105383
-3.6770995 21.785519 2.8138289
-4.7725 21.804253 2.8427103
-7.635869 21.853231 2.9482183
-8.2367477 21.863516 2.9755645
-8.8491888 21.873997 3.0051851
-9.4743166 21.884689 3.0371928
-12.419824 20.104876 3.0097146
-13.108183 20.116655 3.0579562
-13.87372 20.208012 3.1218381
-14.612685 20.220663 3.1773643
-16.076817 20.124786 3.2804823
-17.392813 19.738302 3.3505611
-18.277948 19.760263 3.428189
-19.327909 19.909225 3.5339437
-21.651104 20.248859 3.7754767
-22.037685 -6.4770494 2.9254129
-21.412079 -6.8587089 2.8635092
-21.575731 -7.4898658 2.9087267
-21.219755 -7.9450927 2.8857534
-20.551094 -8.265564 2.8211305
-13.003008 -7.9962387 1.9441302
-19.399374 -21.684381 3.7055748
-17.594023 -21.687447 3.5567086
-5.438457 -7.4075527 1.1703782
-5.3021774 -7.5998254 1.1801894
-4.5240917 -7.6031394 1.1267883
-4.1957226 -7.8949213 1.1386628
-3.9050488 -7.7963567 1.1105278
-3.9605858 -8.4080677 1.1836994
-3.5311816 -8.5432005 1.1773357
-3.3181834 -8.6108789 1.1752816
-3.1059082 -8.6786489 1.1739557
-6.0433788 -21.728552 2.8723726
-4.9286718 -21.733662 2.8382618
-4.3805661 -21.736176 2.8239594
-3.8376465 -21.738667 2.811429
-2.762373 -21.726295 2.7893193
-2.2311816 -21.727497 2.7817502
-1.7025585 -21.728689 2.7758303
-0.65051758 -21.73106 2.7688875
-0.12583007 -21.735382 2.7682445
0.92406249 -21.739437 2.7712145
3.0426464 -21.745256 2.7964411
5.2199512 -21.74839 2.8485219
6.9219432 -21.761379 2.9083409
7.5052829 -21.762573 2.9318628
8.0984859 -21.763786 2.9575016
3.1737499 -7.9375176 1.088704
9.9495211 -21.772564 3.048749
11.250898 -21.775026 3.1215591
14.06789 -21.782141 3.3024285
17.189159 -21.697113 3.5254152
18.061005 -21.700293 3.5957286
19.165195 -21.928339 3.7090919
11.871318 -8.752737 1.8784442
11.235635 -7.8727074 1.7472763
12.308212 -8.1886435 1.8827887
12.701856 -8.0151882 1.9128467
13.989277 -7.4709463 2.0198166
8.8903904 12.006948 1.902753
8.5148239 12.742427 1.9518447
7.8471384 12.379885 1.8667529
7.4911618 12.474189 1.8531643
7.2121482 12.693931 1.8594049
6.4953513 12.103403 1.7494247
5.8030176 11.469295 1.6370455
4.9604197 11.86458 1.6378109
4.4312401 11.361799 1.5531873
4.0227733 11.994407 1.6112225
3.7170019 12.038906 1.6046808
3.4918749 13.607492 1.7891901
5.2387791 22.674425 2.9638698
4.6673732 22.684187 2.9495621
4.2691307 23.623247 3.0573761
4.0077829 25.707756 3.3136675
-2.9875097 26.845209 3.4400876
-3.1335938 23.076645 2.9659936
-4.5868554 21.801079 2.8373549
-4.1982617 14.612197 1.9362835
-7.4364452 21.849821 2.9395266
-8.6420307 21.870449 2.9949725
-9.262763 21.881069 3.0261633
-9.8969526 21.891924 3.0598149
-10.459003 21.722775 3.0705667
-11.681065 20.348345 2.9882021
-12.19333 20.100998 2.9942305
-12.874424 20.112656 3.0413754
-14.361474 20.216362 3.1582789
-15.903906 20.242771 3.2786093
-16.655508 20.177389 3.3321614
-17.10623 19.733395 3.3260732
-17.971846 19.748217 3.4007001
-18.967539 19.857756 3.49739
-21.680674 -8.5162239 2.9666116
-21.002529 -8.8406715 2.9021776
-20.107325 -9.0411463 2.807822
-19.717852 -21.683933 3.7327008
-17.887129 -21.686876 3.5802863
-5.1318064 -7.6127658 1.1692762
-4.5418749 -8.3815145 1.2141157
-4.0010643 -7.828855 1.1197418
-3.8174217 -8.4529123 1.1812477
-3.6029589 -8.5204659 1.1781896
-4.0195312 -21.737831 2.8154445
-3.4771581 -21.724674 2.8020527
-2.4093554 -21.727093 2.784106
-1.8799511 -21.728291 2.7776351
-1.3526952 -21.729477 2.772809
-0.82695311 -21.730661 2.7696016
-0.30208007 -21.734699 2.7683802
0.7475 -21.738756 2.7702637
1.2734277 -21.740786 2.7736325
2.8629785 -21.744995 2.7933254
3.3988671 -21.74577 2.8031487
4.4835157 -21.747332 2.8279738
5.0336914 -21.748125 2.843049
6.1563864 -21.759813 2.8800964
9.7366695 -21.77216 3.0375354
10.374814 -21.773367 3.0717483
15.345019 -21.787533 3.3939939
16.112734 -21.74334 3.4466882
18.748632 -21.80616 3.6625926
11.761836 -8.820116 1.8723745
12.08999 -8.6183538 1.8909463
12.050634 -8.1589994 1.8534448
12.717969 -7.7432151 1.8963439
13.90707 -7.5726476 2.0167475
9.1489649 12.148945 1.9369472
8.1351166 11.363261 1.7798589
7.8972654 12.238313 1.8550012
7.3057909 12.619377 1.8570999
6.2906346 12.186658 1.7466613
10.311347 22.587809 3.1623418
4.1261621 11.97956 1.6136706
5.4320407 22.671127 2.9690983
4.858789 22.680916 2.9541595
4.3356247 22.926987 2.9717145
-3.1100683 24.384857 3.130789
-3.8552246 21.788565 2.8180749
-4.4019237 21.797915 2.8322048
-7.2381053 21.846428 2.931076
-7.8317089 21.856585 2.9569423
-8.4362307 21.866928 2.9850225
-9.0527534 21.877476 3.0154185
-12.643145 20.108696 3.0251727
-13.338828 20.120607 3.0745091
-14.113232 20.212114 3.1396358
-15.636523 20.23819 3.2572198
-16.3783 20.172642 3.3093395
-16.823721 19.728559 3.302146
-18.614843 19.807722 3.4618676
-20.834042 20.127964 3.6894429
-21.496651 -7.6536107 2.906141
-20.412958 -8.9802418 2.8402338
-17.311611 -21.687996 3.5342124
-5.5289159 -7.2802625 1.1642828
-5.3939843 -7.4702277 1.1734967
-5.1975293 -7.5769439 1.1702099
-5.0023336 -7.6834831 1.1676768
-4.0987306 -7.8619776 1.1291978
-3.8028026 -7.7447448 1.0988548
-3.6748729 -8.4977217 1.1791272
-3.4612401 -8.5653915 1.1765809
-3.2485058 -8.6330881 1.1747662
-7.5763769 -21.710155 2.9285212
-6.9938183 -21.711599 2.9050934
-5.8587012 -21.729399 2.8662634
-5.300293 -21.731958 2.8488946
-4.7483106 -21.734489 2.833375
-3.6606054 -21.739479 2.8077002
-3.1211231 -21.725483 2.7953482
-2.5878124 -21.726688 2.7866538
-2.057539 -21.727888 2.7796266
-1.003457 -21.730267 2.7704952
-0.47840819 -21.731445 2.7683704
0.57098633 -21.738073 2.7694969
1.0965723 -21.740105 2.7723198
3.7568359 -21.746284 2.8106179
4.2998633 -21.747066 2.8233099
4.8481445 -21.747856 2.8377786
5.402451 -21.748653 2.8540709
5.9661427 -21.759426 2.8735454
6.5349998 -21.760588 2.8936882
7.6986914 -21.762966 2.9400322
8.295332 -21.764189 2.9663897
9.5253611 -21.771759 3.0266011
10.806708 -21.774183 3.0959005
11.47042 -21.775444 3.1345291
12.851298 -21.778851 3.2206316
14.313906 -21.782804 3.3196046
15.845859 -21.74968 3.4272158
16.644228 -21.723965 3.4854558
11.978935 -8.6865692 1.8845325
12.709814 -7.8802209 1.9045925
14.069765 -7.3714132 2.0229504
21.366201 -8.0892534 2.9096761
8.5526361 10.116188 1.6871344
8.737793 11.998344 1.8903664
8.6063375 12.437856 1.9263216
8.4691792 12.893887 1.9647164
7.5447655 12.113837 1.8175744
7.1204395 12.766713 1.8617519
6.3691211 12.09696 1.7411532
5.8145118 11.721409 1.6664093
5.9293847 13.559854 1.8848596
4.2299218 11.964767 1.6162472
3.3147655 12.098838 1.5976825
5.6259766 22.667812 2.9745457
5.0507321 22.677637 2.9589756
4.4957323 22.761181 2.9548514
4.2915525 24.870573 3.2143085
-3.1542675 21.925667 2.8211811
-3.672744 21.785444 2.8137255
-4.2175975 21.79476 2.8272569
-4.7680173 21.804176 2.8425798
-5.8886423 21.823345 2.8788092
-8.8441792 21.873909 3.0049398
-9.4692087 21.884602 3.0369222
-10.673408 21.72644 3.0829298
-11.338242 21.73782 3.1224778
-12.414346 20.10478 3.0093355
-13.867851 20.207912 3.1214061
-15.372559 20.233673 3.2363188
-17.385918 19.738186 3.349968
-18.269726 19.759102 3.4273653
-22.038076 -6.4724951 2.9252963
-21.410791 -6.8536954 2.8631608
-20.565527 -8.2666798 2.8228917
-20.798857 -8.9494314 2.8837337
-13.006337 -7.9947934 1.9443935
-20.369209 -21.683018 3.7889242
-19.406942 -21.68437 3.7062204
-5.5738378 -7.2171206 1.1613771
-5.0677929 -7.6477036 1.1684452
-4.8732128 -7.7541704 1.1663989
-4.5244923 -7.6004562 1.1265204
-3.9073339 -7.7971268 1.1107467
-3.9623339 -8.4075193 1.1837302
-3.5329003 -8.5426559 1.1773542
-3.3198924 -8.6103354 1.1752951
-4.3848925 -21.736155 2.8240657
-3.8419335 -21.738647 2.8115222
-2.7666211 -21.726286 2.7893846
-1.7067676 -21.72868 2.7758725
-0.65471679 -21.731049 2.7689028
-0.13003907 -21.735365 2.7682471
0.91982418 -21.739422 2.7711904
1.4462304 -21.741451 2.7750905
1.9744042 -21.743486 2.7806237
2.5049999 -21.745531 2.7878096
3.038291 -21.745249 2.7963607
3.5754101 -21.746025 2.8067415
4.1168261 -21.746803 2.8188477
5.2154198 -21.748383 2.8483901
5.77666 -21.759037 2.8672142
7.5005565 -21.76256 2.9316652
8.0936813 -21.763777 2.9572833
3.1728222 -7.9396615 1.0889524
9.9443846 -21.772551 3.0484743
10.587265 -21.773769 3.0835292
11.920488 -21.776335 3.1617579
13.327236 -21.780136 3.2520001
14.821914 -21.7869 3.3560038
15.602236 -21.784288 3.4125719
16.376268 -21.73708 3.4661379
19.154238 -21.924379 3.7077987
11.868662 -8.7543688 1.8782943
11.215957 -7.8621964 1.7444574
8.396924 10.261079 1.6886395
9.6958685 12.44968 2.009712
7.4339452 10.559384 1.6446805
7.8483396 12.376487 1.8664703
7.2143946 12.692151 1.8593472
6.4983497 12.103276 1.749591
5.8027439 11.463161 1.6363336
5.8394141 12.261292 1.729638
4.437129 11.370468 1.5544897
4.3340135 11.950031 1.6189493
3.7194042 12.038554 1.6047299
3.4938378 13.604275 1.7888538
5.2433496 22.674347 2.9639943
4.6719432 22.684107 2.9496694
4.2686133 23.594229 3.0537245
-4.0339451 21.79162 2.8225143
-4.5824218 21.801003 2.8372293
-5.1369724 21.810486 2.8537695
-5.6983495 21.820089 2.8721893
-4.1956053 14.613708 1.9363769
-4.5218844 14.427937 1.9256631
-8.0287104 21.859955 2.9659042
-8.6371479 21.870365 2.994735
-9.2577925 21.880983 3.0259082
-9.8918552 21.891836 3.0595391
-10.453828 21.722685 3.0702698
-11.660361 21.507593 3.1158502
-11.680908 20.3571 2.9891589
-13.542831 20.081404 3.084801
-14.355488 20.216261 3.1578317
-15.112031 20.229214 3.2158988
-15.897411 20.242659 3.2780881
-16.64875 20.177275 3.3316185
-18.958906 19.856531 3.4965198
-21.227734 20.186028 3.730757
-21.354589 -6.645246 2.8483434
-21.554228 -7.8668399 2.9222536
-20.700136 -8.1263952 2.8322251
-21.0075 -8.8380213 2.9026327
-20.11454 -9.0396986 2.8085821
-19.725527 -21.68392 3.7333553
-18.790634 -21.685238 3.6544266
