# .PCD v0.7 - Point Cloud Data file format
VERSION 0.7
FIELDS x y z
SIZE 4 4 4
TYPE F F F
COUNT 1 1 1
WIDTH 1553
HEIGHT 1
VIEWPOINT 0 0 0 1 0 0 0
POINTS 1553
DATA ascii
-8.4612989 14.372739 4.4689679
-9.1694632 14.749639 4.6536145
-9.4548244 14.420617 4.6204581
-9.7374315 14.097695 4.5909529
-23.895975 -7.0904722 6.6788306
-23.609081 -7.629786 6.6481743
-21.460381 -8.0982819 6.1460896
-21.708769 -8.7960567 6.2761936
-6.0316992 -7.1144586 2.4992194
-6.1801853 -7.6567302 2.6365466
-5.9958887 -7.8065262 2.6375291
-5.6633301 -8.1602087 2.6615081
-5.0708885 -8.1163073 2.5643206
-4.6431541 -8.2973948 2.5477111
-4.3717089 -8.2747097 2.5076206
-3.778662 -9.2049932 2.6661983
-8.3041506 -21.705807 6.22716
-6.556963 -21.7341 6.082891
-4.8759179 -21.741751 5.9703903
-3.7815235 -21.722595 5.908092
-2.1790917 -21.726261 5.8507447
-1.65083 -21.727461 5.8386436
-0.59938473 -21.73448 5.8259525
-0.074785158 -21.736511 5.8243175
0.97508788 -21.740561 5.8312216
2.029707 -21.743155 5.8513927
2.5603516 -21.743916 5.8665233
3.6314549 -21.745447 5.9073691
4.1732616 -21.746218 5.9332104
4.7229981 -21.760237 5.9664035
6.4027829 -21.763685 6.0786967
6.9779587 -21.764874 6.1242847
7.5645895 -21.7729 6.176115
9.3813276 -21.776409 6.3534002
10.011562 -21.777632 6.4223833
11.315098 -21.778515 6.5761433
11.992109 -21.780354 6.6621575
12.687451 -21.782246 6.7544336
9.7704391 -8.3225565 3.4390173
11.206083 -8.6484156 3.7928905
11.06832 -8.1236506 3.6788309
11.528233 -8.0405531 3.7661002
11.628916 -7.7004743 3.7371821
11.18333 -7.0232568 3.53848
8.8141603 11.366186 3.8539979
8.4794235 11.496994 3.8278453
8.1479397 11.624614 3.8037541
5.527451 9.2431011 2.885747
5.1534081 9.6455593 2.9302742
5.1694922 10.264104 3.0793817
4.84583 10.228571 3.0327499
4.5328808 10.196877 2.9900453
4.2861328 11.892658 3.3872631
3.7022753 11.105705 3.1367633
3.7552929 12.24164 3.4310055
3.5133789 12.52312 3.4851143
-2.980283 18.370853 4.9868097
-2.4324024 13.000798 3.5440016
-3.1611426 13.307805 3.6650372
-3.4406543 13.07313 3.6222212
-5.3974118 14.610476 4.1734591
-5.7284961 14.426005 4.15905
-7.0549216 16.587856 4.8299923
-7.8359666 17.255915 5.0781093
-7.5327344 15.578359 4.6365867
-7.8144431 15.213027 4.5826478
-8.0897169 14.855674 4.532496
-8.3590822 14.505666 4.4859562
-8.6230078 14.162397 4.4428644
-9.3453121 14.546537 4.6327853
-9.6289062 14.221348 4.6018882
-9.9100685 13.901857 4.5745697
-24.041054 -6.8911691 6.7011948
-21.809668 -6.8251514 6.1233501
-22.421434 -8.8432188 6.4582
-7.044404 -7.4001904 2.7376289
-6.05375 -6.6748552 2.4145424
-6.0378809 -6.9890723 2.474771
-6.0217285 -7.3202209 2.539825
-5.4806347 -8.152648 2.6322238
-5.1824999 -8.1259804 2.5824776
-4.2347751 -7.4053082 2.285779
-4.4751563 -8.2832947 2.5227106
-3.9509959 -8.240591 2.4487336
-8.5358887 -21.705212 6.2494702
-7.9372654 -21.706747 6.1929502
-6.7775583 -21.733097 6.0999718
-6.2070408 -21.735691 6.0568871
-5.6442285 -21.738251 6.0178885
-5.0882907 -21.740784 5.9828467
-4.5338087 -21.720861 5.9455218
-3.9896874 -21.722116 5.9177885
-3.4503417 -21.723356 5.8937216
-2.3831153 -21.725798 5.8563275
-1.8539648 -21.726999 5.8428922
-0.27671874 -21.735729 5.824544
0.77274412 -21.739782 5.8288364
1.8261132 -21.742861 5.8464952
2.3557227 -21.743622 5.86028
2.888164 -21.744387 5.8775635
3.9641016 -21.74592 5.9228272
4.5116501 -21.759804 5.9545321
6.1835546 -21.763237 6.0622635
7.3361425 -21.76561 6.154448
7.9288573 -21.773602 6.2090073
8.5297852 -21.774761 6.2662177
10.406133 -21.778399 6.4674444
11.059013 -21.777817 6.5446305
10.323427 -9.40662 3.7422583
11.103496 -8.735014 3.7854714
12.311298 -7.0782743 3.8051651
12.28666 -6.6749439 3.7466619
20.264961 -10.38403 6.1013451
20.221035 -7.4472704 5.7739921
8.943965 11.314946 3.8646262
8.6078806 11.447026 3.8376646
6.3987403 9.9309578 3.1655192
5.5673532 9.1164827 2.8622398
5.2160544 9.5483398 2.9153316
4.9691114 10.241782 3.0502222
4.6521583 10.208639 3.0060372
4.345283 10.179191 2.9656219
4.0501661 10.160075 2.9307206
4.9549899 13.358222 3.8176341
3.9165819 11.394685 3.2285171
3.8163671 12.040703 3.3844767
3.376533 12.760595 3.5368674
3.1452148 13.162914 3.6262827
-2.8222754 18.481453 5.0094953
-2.2929296 12.918097 3.5154977
-3.3337986 13.162707 3.6383018
-3.6095214 12.931899 3.5975389
-4.1291404 12.441316 3.5124452
-5.3015819 13.721132 3.9414608
-6.9069042 16.668039 4.8344517
-7.3402147 16.571384 4.8563838
-7.422451 15.721286 4.6584024
-7.7067771 15.352685 4.6029549
-7.9844723 14.992332 4.5513654
-8.2560549 14.639567 4.503459
-8.5220213 14.293777 4.459054
-9.2353811 14.673376 4.6456556
-9.5200481 14.345818 4.6133499
-10.081972 13.707958 4.5595016
-23.791817 -7.2034936 6.6607885
-22.750135 -7.4919286 6.4179173
-22.264423 -7.9323692 6.3330607
-7.2134376 -7.0876956 2.7097223
-6.0440235 -6.8662004 2.4510369
-6.027988 -7.1906195 2.5141807
-5.0050292 -8.1107683 2.5537524
-4.9785352 -8.5212574 2.644397
-4.3104882 -8.2696648 2.4988
-4.0494142 -8.2484541 2.4621418
-4.2056837 -9.1164598 2.6901567
-7.5819235 -21.729448 6.1666403
-5.3015332 -21.739811 5.9958768
-4.7494531 -21.742329 5.9632187
-4.1985545 -21.721636 5.9280243
-3.1206543 -21.724112 5.8807101
-2.5875292 -21.725332 5.862432
-2.057373 -21.72654 5.8476543
-1.5297558 -21.730871 5.8371806
-0.4786621 -21.734949 5.8252745
0.57058591 -21.739 5.8269544
2.1515527 -21.743328 5.8545609
3.2173145 -21.744856 5.8899527
4.2985644 -21.746393 5.9396811
9.5251265 -21.776686 6.3688121
11.469287 -21.778933 6.5953956
12.150371 -21.780783 6.6828141
10.273564 -9.5373383 3.7561383
10.637226 -8.5293331 3.6533577
11.267656 -8.5965347 3.7975149
11.68332 -7.6435337 3.7409749
10.957831 -6.7970963 3.4551349
20.210907 -7.6574836 5.7911615
9.4712496 11.755888 4.0451074
8.4028807 11.526635 3.8221214
6.4134083 9.7535477 3.127826
6.3756347 10.225293 3.2288189
5.5032325 9.3196859 2.9000704
5.1156445 9.7041311 2.9393933
4.7729101 10.220947 3.0225863
4.462285 10.190104 2.9807491
4.1637888 10.169427 2.9444485
4.0258884 11.368054 3.231431
3.5798535 10.940576 3.0844607
3.6792772 12.23573 3.4235725
3.4626563 12.611106 3.5041971
3.235625 13.005576 3.5910618
2.9970899 13.42111 3.6847525
-3.4758105 18.023527 4.9183717
-3.2260253 13.253227 3.6548812
-3.5040917 13.020026 3.6128445
-4.0347948 12.545632 3.5311649
-5.473506 14.567136 4.1696968
-7.6528611 18.964426 5.4796491
-7.1432614 16.539978 4.8275266
-7.9041991 17.152561 5.0605307
-7.5981445 15.493562 4.6238308
-8.4202728 14.426101 4.4757414
-8.7937593 14.263938 4.4899702
-9.4108105 14.471174 4.6253519
-9.6938086 14.147344 4.5952864
-9.9744625 13.829102 4.5687799
-23.954227 -7.0104375 6.6877408
-23.505274 -7.4993076 6.611002
-22.623671 -7.8243089 6.4142923
-21.869072 -9.3845863 6.3765526
-7.1387305 -7.2256198 2.7216449
-6.050127 -6.7457409 2.4279962
-5.4979978 -7.4687586 2.4850085
-5.1155663 -8.1201344 2.5715537
-5.115859 -8.5724878 2.6749272
-4.1489744 -8.256485 2.4759374
-3.8926854 -8.2359676 2.4409008
-4.0563865 -9.1473389 2.6812084
-3.8157225 -9.1972837 2.668077
-8.3972464 -21.705568 6.2360544
-7.8010936 -21.707096 6.1806011
-7.2225876 -21.731079 6.1360087
-5.5157714 -21.738834 6.0094843
-4.961318 -21.741362 5.975338
-3.3268847 -21.72364 5.8887005
-2.792412 -21.724863 5.8690524
-2.2611914 -21.726074 5.8529325
-1.7325878 -21.727278 5.8402915
-0.68072265 -21.734167 5.8265095
1.9477148 -21.743034 5.8493619
2.4779198 -21.743799 5.8639483
3.0110936 -21.74456 5.8820372
4.6377931 -21.760063 5.9615526
5.1899509 -21.761194 5.9944406
2.0910156 -7.9159341 2.1938231
6.8882422 -21.764687 6.1169376
8.66959 -21.775028 6.2800465
9.284853 -21.77622 6.3431721
9.9129686 -21.777439 6.4113498
10.554082 -21.776447 6.4841614
11.886005 -21.780066 6.6484246
14.205146 -22.067268 7.0320783
9.6773529 -8.3058996 3.417156
9.9812012 -8.156827 3.4539297
11.164726 -8.6832972 3.789855
12.281162 -6.5839419 3.7337863
20.19916 -9.0135708 5.9267697
8.8663473 11.345622 3.8582382
8.5310736 11.476938 3.8317609
6.4282813 9.5810328 3.0915213
5.5435934 9.1919088 2.8762164
5.1787009 9.6063128 2.9242129
4.5807128 10.201547 2.9964178
4.2760057 10.172918 2.9568338
4.4706445 11.39835 3.2806976
3.7870605 11.220054 3.1730361
3.0903711 13.258467 3.6478252
-2.9168456 18.41526 4.9958692
-2.8300292 13.587263 3.7188308
-3.1172655 13.344753 3.6719778
-3.9394336 12.651225 3.5504303
-5.67624 14.451679 4.1603007
-6.9953904 16.620117 4.8317385
-7.4339938 16.534676 4.8576436
-7.4884667 15.635742 4.6452961
-7.7712207 15.269089 4.5907536
-9.585146 14.271338 4.6064358
-9.8666506 13.951013 4.5785713
-3.4582715 18.109133 4.4976053
-2.9374022 13.592808 3.3925455
-5.4473338 14.577754 3.7964582
-5.7790136 14.396032 3.7843554
-7.5787597 17.636137 4.6828194
-7.8794723 17.180799 4.6110659
-7.592783 15.553905 4.2223854
-8.1485739 14.831467 4.1282945
-8.4174414 14.481516 4.0862446
-8.7859077 14.309228 4.0962696
-23.503819 -6.8323779 5.9711628
-23.06749 -7.9310055 5.9506931
-21.878944 -8.1177626 5.6929679
-21.788008 -9.3030567 5.7794852
-7.1114254 -7.1719103 2.4639044
-5.9354687 -7.2705917 2.2896664
-5.5470896 -7.8987522 2.3546245
-5.3252048 -7.9857731 2.3415685
-4.9398046 -8.2434607 2.3444376
-4.6601758 -8.2203951 2.3052194
-4.3900681 -8.1989431 2.2688286
-4.3042383 -9.0641384 2.4478676
-4.0614648 -9.1141338 2.4341898
-6.6884861 -21.733034 5.5472307
-6.1192479 -21.735624 5.5085926
-3.3672557 -21.724201 5.3629651
-1.2455957 -21.732553 5.3104167
-0.72014648 -21.734592 5.3051219
-0.19545898 -21.736624 5.3029199
0.32913086 -21.738649 5.3038077
1.380332 -21.742701 5.3148685
2.4380662 -21.744114 5.33778
2.9710057 -21.744877 5.3540101
3.5074999 -21.745644 5.3734732
4.0482421 -21.746418 5.3962388
6.2715721 -21.763218 5.5252542
8.0210638 -21.773285 5.6606174
11.834678 -21.779778 6.0469689
13.97039 -21.789194 6.3142843
10.605947 -9.1363134 3.4149747
9.534297 -7.8204532 3.0082662
10.679893 -8.3373098 3.3052733
11.271729 -8.3695984 3.4249241
12.366836 -7.4497757 3.522033
9.7681446 11.286301 3.6413333
5.6767282 9.3742132 2.6734929
5.6536427 10.441978 2.8967638
5.2326169 10.888386 2.9470587
5.0137401 11.112017 2.9739678
4.7890525 11.335981 3.0021002
4.6768165 11.860784 3.110286
4.3764939 11.935309 3.1012263
3.9632518 12.668364 3.238189
3.439209 12.002207 3.04581
3.0572069 11.73094 2.9573805
3.0811424 13.111443 3.2857022
2.5660741 13.900441 3.4483452
-3.303916 18.217705 4.5167532
-3.7022069 17.937426 4.4681172
-3.3726072 13.109824 3.3023131
-5.650166 14.462251 3.787801
-7.4604688 17.815289 4.7117796
-7.7647948 17.354435 4.6381073
-7.4827633 15.696765 4.2421107
-8.0435448 14.968093 4.1453443
-8.314599 14.61541 4.1020551
-23.546005 -6.6080542 5.9660296
-14.140898 -8.0012274 3.9636471
-7.0363965 -7.3100924 2.4752285
-5.960371 -6.8224201 2.2100475
-5.9240918 -7.4805832 2.327852
-5.1465135 -7.9716024 2.3147628
-4.2282028 -8.1863117 2.247721
-4.1545606 -9.0948677 2.4392459
-8.6755371 -21.705746 5.7024679
-7.4909177 -21.729387 5.607091
-6.9098239 -21.732029 5.5631213
-4.1145506 -21.722485 5.3934889
-3.0379295 -21.724953 5.3514295
-2.5052733 -21.72617 5.3352818
-1.9755371 -21.727373 5.322319
-1.4482129 -21.731768 5.3132801
-0.92231441 -21.733809 5.3067932
0.12713867 -21.737871 5.3031011
0.65193355 -21.739895 5.3058896
1.1775976 -21.74192 5.3117747
1.7046288 -21.743055 5.3205557
2.2337012 -21.743818 5.3323808
2.765449 -21.744581 5.3473797
3.3005078 -21.745348 5.3655949
3.8395214 -21.74612 5.3870835
4.9351368 -21.760473 5.4433432
5.490654 -21.761614 5.475183
7.2016797 -21.765129 5.5927777
7.7919822 -21.772846 5.6414399
8.3903809 -21.773996 5.6925473
9.0000677 -21.775171 5.7479706
10.907109 -21.77726 5.9417052
11.573565 -21.77907 6.0166626
13.68622 -21.788837 6.2770658
14.431484 -21.78977 6.3758206
15.931572 -21.702578 6.5677924
16.748426 -21.697748 6.6867175
9.967802 -8.3321276 3.1693337
10.906416 -8.6784105 3.4001856
11.149482 -8.4406233 3.4114578
11.464043 -7.83848 3.3879244
12.267685 -7.144104 3.4632211
12.243554 -6.7398138 3.4094906
20.19253 -8.1251221 5.3099194
9.4655857 11.270475 3.5905046
8.9929104 11.247966 3.5131679
8.1108398 11.21385 3.3762207
7.2649317 11.139021 3.2442675
7.2643161 11.748135 3.3696294
5.315371 10.802375 2.9370174
5.47333 13.511631 3.5563707
4.491787 11.906343 3.1044099
4.0295215 11.514934 2.9761307
3.8305469 12.91364 3.2859888
3.1056836 11.478921 2.9009957
3.1717381 12.955288 3.2538126
2.9327245 13.367612 3.3386233
-4.7206836 17.282829 4.3706422
-7.6487694 17.530128 4.6658716
-7.9473729 17.077993 4.595243
-7.6580367 15.469152 4.2108512
-8.210928 14.750332 4.1183357
-9.2889547 14.167639 4.1328702
-23.418182 -7.568089 6.0038452
-22.446396 -7.8570628 5.8016305
-22.295624 -8.4134636 5.8134484
-21.664482 -9.3928452 5.7604585
-7.0834079 -7.223433 2.4680581
-6.9607906 -7.4497199 2.4872503
-6.0521774 -6.7989883 2.2205732
-5.9494529 -7.0174522 2.2443733
-5.9312401 -7.3483062 2.303735
-5.9015231 -7.6836815 2.3635366
-6.0378613 -8.2666693 2.4973116
-5.2578321 -7.9803596 2.3313875
-4.865078 -8.2219477 2.3306017
-4.5972462 -8.2153559 2.2966137
-4.3291502 -8.19417 2.2608244
-4.2481346 -9.0756502 2.4445708
-4.0060253 -9.1256552 2.4312897
-8.304492 -21.706694 5.6697073
-7.1324315 -21.731018 5.5795789
-6.5568161 -21.733633 5.5380073
-5.9893746 -21.736216 5.5002313
-5.429297 -21.73877 5.4661274
-4.8758302 -21.741293 5.4355903
-4.3238378 -21.722006 5.4031057
-3.2438867 -21.724483 5.3585052
-2.7099512 -21.725702 5.3411169
-2.1791601 -21.726912 5.3269353
-0.07477539 -21.737089 5.3028526
0.97509766 -21.74114 5.3091393
1.5015234 -21.742764 5.3168402
3.6315234 -21.745823 5.3784189
6.4027243 -21.763489 5.5342612
6.9778905 -21.764669 5.5757642
10.654882 -21.776575 5.9142585
11.992011 -21.780205 6.0654755
13.402666 -21.784039 6.2395439
14.870859 -21.745159 6.4266324
16.428104 -21.696537 6.6390228
9.7327728 -8.2904634 3.1189566
9.994873 -8.1058502 3.1393402
10.834736 -8.3618202 3.338778
11.333086 -8.3179741 3.4294863
11.625908 -8.1086674 3.4578707
11.741904 -7.7752991 3.4355569
12.277314 -7.3032894 3.4849424
12.252656 -6.8939199 3.4297161
9.1721869 11.256179 3.5421965
8.7131929 11.235984 3.4686518
5.8238087 9.7386856 2.7681787
5.7736912 10.206155 2.860611
5.2723532 9.8681803 2.7294228
5.397295 10.716406 2.9271495
5.1827831 10.939804 2.9531412
4.6074901 11.877714 3.10797
3.7918847 11.374551 2.9249759
3.9140625 12.759221 3.2558069
3.0272851 11.886088 2.9922125
3.0261815 13.20626 3.3052025
-3.3962986 18.152729 4.5052476
-3.1679981 13.336575 3.3440239
-4.4781737 17.015347 4.2922916
-5.7267184 14.421489 3.785393
-7.5313277 17.707983 4.6943846
-7.5486231 15.61125 4.2302608
-7.8307323 15.244756 4.1809464
-8.7426853 14.358953 4.1011176
-23.520771 -6.7420306 5.9690232
-23.575487 -7.3777471 6.0263453
-22.83581 -7.7559948 5.8834057
-22.471855 -8.8631144 5.8930516
-7.1302342 -7.1373129 2.4611592
-6.0612206 -6.683084 2.201015
-5.9383106 -7.218801 2.2803321
-5.0903125 -7.5720353 2.2258205
-4.9840331 -8.2471828 2.3507805
-4.7028317 -8.2238245 2.3110952
-3.8584666 -9.1563673 2.4239473
-8.5362501 -21.7061 5.690021
-7.9375973 -21.707628 5.6385598
-7.3564157 -21.73 5.5966253
-4.5339355 -21.721521 5.4132295
-3.9898143 -21.722773 5.3879719
-3.4504297 -21.72401 5.3660617
-2.9151073 -21.725233 5.3474302
-1.8540137 -21.727648 5.3197832
-1.3271191 -21.732239 5.3115144
-0.80149412 -21.734278 5.3057384
-0.27672851 -21.736309 5.3030601
0.77277344 -21.74036 5.3069663
1.2987109 -21.742384 5.3135657
2.3557811 -21.743994 5.3355517
3.4241405 -21.745527 5.3702469
3.96416 -21.746296 5.3924961
4.5115919 -21.759607 5.4212198
2.0456152 -7.9218907 1.9959598
6.7554297 -21.764212 5.5593271
7.3360739 -21.765408 5.6032267
8.5295706 -21.774265 5.7049084
11.058955 -21.77767 5.9584756
13.124824 -21.783283 6.204133
13.855635 -21.789049 6.2991934
15.339931 -21.731724 6.4892383
10.373096 -9.4518738 3.4235106
10.111923 -8.3576851 3.2003567
10.577275 -8.3210382 3.2831209
11.230508 -8.4043169 3.4219255
11.32749 -8.0579643 3.3912289
11.467597 -7.747839 3.3762119
11.223652 -7.1948199 3.2523174
12.262031 -7.0499382 3.4505167
20.20915 -8.0017605 5.3024664
8.8873434 11.243325 3.4962549
7.6045995 11.199429 3.3024487
7.2649317 11.275317 3.2721679
5.6853614 10.407438 2.8930571
5.4784079 10.630484 2.9174538
5.048027 11.077349 2.9697194
4.8242478 11.301254 2.9976604
4.7236032 11.849443 3.1119194
4.4228516 11.923603 3.1024585
3.8868945 11.308306 2.9171047
3.5671778 12.275319 3.1184781
2.6130371 13.864245 3.4417675
-3.6410644 17.980482 4.4754167
-5.485918 14.198193 3.7132421
-7.4152246 17.894728 4.7254262
-7.7229295 15.384849 4.1995072
-8.2729883 14.669582 4.1085486
-8.5393066 14.322793 4.0679598
-9.353301 14.094533 4.1266251
-22.264139 -7.3318834 5.718328
-21.968838 -8.4297676 5.7403607
-6.9323239 -7.5023208 2.491925
-5.9452929 -7.0919929 2.2576227
-5.9269824 -7.4270067 2.3180585
-5.7363181 -8.3641233 2.4742131
-5.1910839 -7.9750438 2.3213818
-5.1317091 -8.3160419 2.3838925
-4.5254002 -7.7456698 2.1884422
-4.5347948 -8.2103796 2.2881503
-4.2686815 -8.189455 2.2529514
-8.7696676 -21.705505 5.7109742
-6.9992576 -21.731621 5.5696745
-6.4255958 -21.73423 5.528986
-5.8599219 -21.736807 5.4920673
-4.1986814 -21.722292 5.3972955
-3.1207519 -21.724762 5.3542228
-2.5875976 -21.725981 5.3375731
-2.0574219 -21.727186 5.3241186
-1.5298047 -21.731453 5.3145676
-1.0036914 -21.733494 5.3075938
-0.4786621 -21.735527 5.3037267
0.57061523 -21.739582 5.3052564
1.0960742 -21.741606 5.310657
2.6828809 -21.744463 5.3448472
3.7557421 -21.746 5.3835363
4.849658 -21.760298 5.4387279
5.4041891 -21.761435 5.4700165
5.9654589 -21.762587 5.5048947
6.534277 -21.763758 5.543468
10.158281 -21.777407 5.8622155
11.469218 -21.778784 6.0046959
15.045849 -21.741001 6.4499969
17.769707 -22.07519 6.91328
10.245771 -9.5115528 3.4105041
10.441826 -9.2346163 3.4005814
10.865976 -8.7127571 3.3977051
11.048066 -8.014781 3.3297222
11.444541 -7.8880796 3.3908486
9.0646486 11.251201 3.5247347
7.7603416 11.203435 3.3247423
7.2648926 11.048467 3.2257826
7.2645211 11.650881 3.3495004
5.132627 10.991242 2.9592907
4.9110937 11.215022 2.986757
3.6650391 11.200898 2.8750479
3.8643358 12.851152 3.2737408
3.2019238 11.661511 2.9501436
2.9705565 13.302287 3.3250585
2.7288964 13.774741 3.4256926
-3.4882617 18.088039 4.4939308
-2.958164 13.569697 3.3881123
-5.4721775 14.56361 3.7953534
-7.6016893 17.601433 4.6772518
-7.9016991 17.147131 4.6058693
-7.6141405 15.526172 4.2185969
-7.8947167 15.161593 4.1700959
-8.8068361 14.285151 4.0939441
-9.2455463 14.217048 4.1371732
-22.162889 -7.6649451 5.7209063
-21.304863 -8.5398359 5.5993657
-21.747568 -9.332449 5.7732368
-6.05583 -6.75211 2.21264
-5.9522266 -6.9677515 2.2355793
-5.9340916 -7.2958732 2.2942343
-5.9296093 -7.6607933 2.3632975
-5.5658398 -7.9560909 2.3687036
-5.3031344 -7.983995 2.3382261
-4.3701172 -8.1973772 2.2662003
-4.1091013 -8.1771278 2.2325339
-4.0433397 -9.1178999 2.4332309
-3.8034961 -9.1678286 2.4213529
-8.3975782 -21.706457 5.6778064
-7.8014059 -21.707975 5.627317
-7.2224512 -21.730608 5.5863719
-6.0768261 -21.735821 5.5058422
-4.40833 -21.721811 5.4071198
-3.3269725 -21.724295 5.3614917
-0.15607421 -21.736774 5.3028827
0.89363277 -21.740826 5.308208
1.4198339 -21.742645 5.3154778
2.4779589 -21.744169 5.3388858
3.0111523 -21.744936 5.3553576
4.0890331 -21.746473 5.3980832
5.1899118 -21.760996 5.4575486
2.0910254 -7.9159994 1.9973679
6.3143163 -21.763306 5.5281696
8.065918 -21.773373 5.6644263
9.2846479 -21.775721 5.7749724
13.290429 -21.783733 6.2251782
14.026191 -21.789263 6.3216586
14.75373 -21.747942 6.4111071
16.300478 -21.696054 6.6201758
10.449638 -9.4160061 3.4314702
10.628897 -9.1225882 3.4170349
11.291718 -8.3527603 3.4263966
11.196982 -7.474834 3.2842729
12.316191 -7.388895 3.503792
12.256406 -6.9564929 3.4380214
8.3413572 11.221706 3.4110198
7.5126562 11.197244 3.2894573
7.2648435 11.41382 3.3006115
5.6689844 9.3998022 2.677856
5.7814941 10.13135 2.8456836
5.6382322 10.458718 2.8985684
5.4300389 10.681811 2.9232264
5.2163768 10.905166 2.9490366
4.2999315 11.792521 3.0620966
3.9472558 12.6979 3.2439053
3.3994627 11.945139 3.0297594
-3.334121 18.19647 4.5129781
-3.1261914 13.382974 3.3527038
-4.3830175 16.910358 4.2616439
-5.6748729 14.448188 3.7868037
-7.4836521 17.78018 4.7060733
-7.7872753 17.32041 4.6327767
-7.5043063 15.668801 4.238224
-7.7874608 15.301003 4.1883564
-8.0640821 14.941367 4.1419806
-9.4174995 14.021726 4.1205487
-5.4460449 14.574255 3.42628
-5.7772164 14.391575 3.4151192
-7.8770018 17.175425 4.16115
-7.6086426 15.586382 3.8195474
-7.8901172 15.220056 3.7753406
-8.1652145 14.861738 3.7342565
-8.7884369 14.313354 3.698808
-10.066914 15.541677 4.077827
-17.053602 23.734579 6.4360867
-22.72625 -6.0156431 5.1770988
-22.186415 -7.628077 5.1665716
-21.320967 -8.5014439 5.0547571
-21.762236 -9.2920504 5.2110257
-6.0410156 -6.7110553 1.9884661
-6.000586 -6.9986258 2.0301676
-5.4523044 -8.1763639 2.1642067
-4.8908005 -8.1616898 2.0953538
-4.6148829 -8.1404886 2.0607157
-4.2905564 -9.0353355 2.2026918
-4.048574 -9.085227 2.1903963
-9.0513573 -21.705671 5.1789422
-8.4431152 -21.707218 5.1291971
-7.2659469 -21.729944 5.0457664
-6.6883492 -21.732573 5.0074325
-5.5574317 -21.737726 4.9410172
-5.0025196 -21.740261 4.9127216
-3.906074 -21.723616 4.860661
-3.3673632 -21.724848 4.8413458
-2.8325877 -21.726067 4.8249774
-1.245625 -21.733128 4.7938886
0.85420895 -21.741247 4.7915182
1.3803515 -21.743273 4.7979093
1.9080664 -21.743717 4.8067727
4.0483103 -21.74679 4.8713222
4.5965137 -21.759584 4.8976121
7.4267969 -21.765392 5.0645175
8.6234865 -21.773954 5.1573906
9.237812 -21.775131 5.208961
10.505205 -21.776026 5.3243451
11.161631 -21.777805 5.3890796
12.525596 -21.781504 5.5332432
13.236162 -21.783432 5.6132517
14.697197 -21.749325 5.7806449
18.166855 -21.97613 6.2790647
10.732119 -9.2449961 3.1194031
10.170547 -8.3423252 2.8968072
11.775234 -8.3103437 3.1738806
12.143926 -7.7208433 3.1690516
12.21 -6.9594316 3.094974
8.042861 10.779297 2.9617574
7.5270801 11.174933 2.9671187
6.1769333 10.778906 2.7358479
5.9872851 11.058206 2.7692554
5.1502051 10.716892 2.6184371
4.2115917 11.485571 2.6940181
3.4619238 11.065886 2.5533817
3.5070703 12.238997 2.8037217
3.0547168 12.998964 2.9405909
2.8123925 13.413219 3.0180669
-4.1064548 17.724356 4.0066199
-4.4941893 17.469524 3.9723763
-5.648818 14.458791 3.4184668
-7.458076 17.809578 4.252007
-7.7623434 17.348967 4.1855445
-7.498457 15.729697 3.8374312
-7.7825294 15.360097 3.7919815
-8.060029 14.998776 3.7497149
-8.5973339 14.29831 3.6741252
-8.9600677 14.118593 3.6824422
-15.664765 23.414806 6.203897
-22.877743 -6.4205136 5.2327466
-23.420439 -7.186739 5.3949714
-22.891161 -7.6333361 5.3139458
-22.128212 -7.9771738 5.1800156
-21.970428 -9.1405811 5.240315
-6.0163183 -6.8864679 2.0137596
-5.8423729 -7.3773861 2.0723848
-5.5847754 -8.2087812 2.1864231
-4.8872852 -7.9866114 2.0619733
-4.4497657 -8.1280661 2.0406291
-4.3844824 -9.0160131 2.2078185
-8.6758881 -21.706629 5.1478791
-6.3373241 -21.734173 4.9855814
-5.2154002 -21.739288 4.9232364
-4.664248 -21.741806 4.8968887
-3.5742383 -21.724375 4.8484297
-3.0380175 -21.725597 4.8309293
-1.4482422 -21.732342 4.7964773
-0.39742187 -21.736414 4.78756
0.65197265 -21.740469 4.7898035
1.177627 -21.742493 4.7951179
2.2337401 -21.744186 4.8136716
2.7654979 -21.744953 4.8272138
3.3005664 -21.74572 4.8436604
4.9350877 -21.760279 4.9137173
5.4906249 -21.761415 4.9424558
6.623076 -21.763741 5.0097971
7.7918067 -21.772364 5.0924683
8.3901758 -21.773506 5.1386042
8.9998627 -21.774677 5.1886292
9.6219139 -21.775871 5.2427244
11.573496 -21.778923 5.4312592
12.257353 -21.780775 5.5038962
16.748564 -21.69792 6.0362101
17.697557 -21.818041 6.1866498
10.269394 -9.4622469 3.07514
9.9293261 -8.2999611 2.8499424
10.968252 -8.7276125 3.0867825
10.77461 -8.1568346 2.9760141
11.446748 -7.8266521 3.0536969
11.011797 -7.1455679 2.8908119
12.277646 -7.5523767 3.1743491
12.19579 -6.7135239 3.0657754
28.093681 -8.262434 6.4487724
8.201972 10.782114 2.9833412
7.5228319 10.947737 2.9252274
6.069365 10.965273 2.7599838
5.2394238 10.029623 2.491924
5.1754489 10.518018 2.581481
5.1090817 11.048367 2.6806021
4.9043751 11.314592 2.7156868
4.6118751 11.385005 2.7050824
4.3223634 11.457249 2.6966774
4.0015235 11.434907 2.6679113
3.7921581 12.784245 2.9365709
2.9071581 13.251101 2.98754
2.4258301 14.328781 3.200361
-7.9448829 17.072668 4.1468797
-8.2276564 14.780368 3.7252333
-8.8527832 14.240241 3.6925597
-15.297841 23.332468 6.144165
-16.267694 23.552109 6.3035574
-23.373388 -6.9353962 5.36906
-23.051971 -7.4497495 5.3349833
-22.910673 -8.0195789 5.3455119
-21.42709 -8.0857248 5.0434299
-7.047822 -7.1871433 2.2167461
-6.9254589 -7.4119182 2.2338712
-5.8502145 -7.2479348 2.051198
-5.8295798 -7.5900102 2.1075749
-5.4298925 -7.8238506 2.0972414
-5.0168457 -8.0298328 2.0850737
-4.8264256 -8.1566257 2.0871427
-4.3734469 -8.2780142 2.0617507
-4.4788671 -8.996624 2.2131629
-8.9103708 -21.70603 5.1671448
-5.9892383 -21.73576 4.9650087
-4.3239746 -21.722656 4.8775845
-3.7817383 -21.723902 4.8559537
-2.7100291 -21.726347 4.8216224
-2.1792285 -21.727552 4.8088179
-0.59941405 -21.735632 4.7884078
0.44986328 -21.739687 4.7885056
3.0941601 -21.745424 4.8369827
3.631582 -21.746193 4.8552327
4.7229199 -21.759844 4.9034986
5.2760057 -21.760977 4.9310122
5.8356543 -21.762123 4.9617414
6.4026661 -21.763288 4.9957852
8.1585541 -21.773064 5.1203942
8.7637596 -21.774223 5.1689005
9.380908 -21.775408 5.2214069
10.654824 -21.77643 5.3388233
12.687275 -21.781942 5.5511627
13.402577 -21.783886 5.6324553
14.870889 -21.745199 5.8013945
15.633906 -21.717167 5.8928671
17.31748 -21.75956 6.1241856
10.473193 -9.3665085 3.0942013
9.5915813 -7.7787867 2.7195656
10.934131 -8.4385328 3.0415969
11.19874 -8.2193727 3.0591347
12.193857 -7.6578827 3.1709409
12.228428 -7.2742019 3.1333649
12.204618 -6.8668952 3.0838995
8.3637104 10.785315 3.005595
7.9489942 10.7778 2.9491799
7.5399899 11.944455 3.1106296
6.146162 10.864543 2.7488832
5.2634864 9.8516035 2.4597368
5.2003317 10.325339 2.5459392
5.01791 11.287947 2.7203622
4.1455665 11.502634 2.6925826
3.7966602 11.388857 2.6437297
3.3445604 10.902741 2.5114157
3.2629786 11.630612 2.6601634
-4.5104098 17.137802 3.9025795
-5.3948145 14.603433 3.4283719
-7.564414 15.643909 3.8266878
-7.8469238 15.276277 3.7819819
-8.7450094 14.362771 3.703105
-9.0239553 14.046326 3.6766
-16.892529 23.696875 6.4086943
-23.524872 -7.3619127 5.4283605
-22.57625 -8.2805929 5.295577
-7.0945115 -7.1015549 2.2105813
-6.8493848 -7.5521069 2.2452393
-5.8376269 -7.4560509 2.0853472
-6.072578 -8.154067 2.23893
-5.1495214 -8.0742636 2.1089447
-4.9344625 -8.1651545 2.1009641
-4.6570115 -8.1436825 2.065917
-4.3283105 -9.027566 2.2047293
-4.0858984 -9.0775232 2.1922066
-3.8462889 -9.1274252 2.181206
-6.7772655 -21.732168 5.013144
-5.6439939 -21.737333 4.9456906
-4.5340624 -21.722176 4.8867221
-3.9899316 -21.723423 4.8639231
-2.915205 -21.725878 4.8273191
-1.8540624 -21.728291 4.8023639
-0.80153316 -21.734848 4.7896681
-0.27674803 -21.736879 4.787251
0.24783203 -21.738909 4.7876172
0.77279294 -21.740932 4.7907777
3.4241893 -21.745897 4.8478556
3.9642382 -21.74667 4.8679409
4.5115724 -21.759411 4.8937435
2.0453808 -7.9209099 1.8015487
6.1834474 -21.762838 4.9822817
7.9285059 -21.772625 5.102746
8.5294037 -21.773773 5.1497602
10.405654 -21.77738 5.3151407
11.729189 -21.779343 5.4475203
13.124726 -21.783133 5.600492
16.112471 -21.695515 5.9512248
16.945 -21.702244 6.0634899
17.971006 -21.905457 6.2396307
10.345332 -9.4265671 3.0821583
10.0725 -8.3251047 2.8777318
10.834443 -8.5233498 3.0357606
11.712656 -8.3319616 3.1653905
11.474404 -7.7524295 3.0495448
12.303027 -7.4741602 3.17013
8.9688473 10.800198 3.0915766
8.5281544 10.788911 3.028543
8.1065817 10.780386 2.9703655
6.0204196 11.020791 2.7655032
5.2248926 10.138556 2.5117431
5.1604099 10.636086 2.6033905
5.0934372 11.176955 2.7049022
4.8367968 11.330637 2.7130535
4.5450292 11.401457 2.7029567
4.2561231 11.474135 2.6950479
3.7418261 12.876284 2.9528973
3.0705371 11.604153 2.6433969
3.0560839 12.789826 2.8958471
2.8507617 13.347561 3.0056732
2.3533397 14.385271 3.2100139
-4.0463767 17.766838 4.0127759
-4.3867188 17.319929 3.9346025
-7.4538279 15.787744 3.8447647
-7.7389646 15.416801 3.7988107
-8.0174313 15.054245 3.7560611
-8.2897949 14.699382 3.7163615
-8.5564842 14.351602 3.6795723
-16.49877 23.605356 6.3422184
-23.437422 -7.0962024 5.3927393
-22.952061 -7.5584235 5.3214841
-22.471132 -8.0060101 5.2532487
-22.584921 -8.6661587 5.3271928
-6.8970799 -7.46418 2.2380486
-5.6213965 -8.196559 2.1887503
-5.2854004 -8.1199694 2.1336153
-4.9390626 -8.0038757 2.0711825
-4.491035 -8.1311569 2.0456045
-4.2996092 -8.2487974 2.0484962
-4.1788769 -9.058341 2.1968553
-3.9382129 -9.108222 2.1852648
-8.7700291 -21.706387 5.1555643
-8.167099 -21.70792 5.1076245
-6.9990916 -21.731157 5.027689
-4.749248 -21.741419 4.9007668
-2.5876758 -21.726625 4.8184237
-1.5298437 -21.732025 4.797637
-1.0037206 -21.734064 4.7913427
-0.47868162 -21.736097 4.7878494
0.045898438 -21.738127 4.787148
2.68292 -21.744833 4.8249269
3.7558105 -21.746372 4.8598566
4.2987304 -21.747149 4.881793
5.4041405 -21.76124 4.9377937
5.9654102 -21.76239 4.9692769
7.1114063 -21.764744 5.0423646
8.2967768 -21.773327 5.1312065
10.158037 -21.776903 5.2917547
11.46914 -21.778639 5.4204621
12.150225 -21.780485 5.4923086
12.849999 -21.782385 5.5693688
15.811328 -21.708427 5.9142218
17.543701 -21.794367 6.1613007
18.833652 -22.274424 6.4236441
10.171357 -8.1557903 2.871073
10.993945 -8.3877163 3.0452385
12.199306 -6.7750006 3.0730026
9.1440134 10.805315 3.1172202
8.6954298 10.79292 3.0522118
7.4953809 12.021137 3.1197159
6.2479491 10.580864 2.7060132
5.2491407 9.9573574 2.4788263
5.1855078 10.439763 2.5670156
4.9499903 11.303843 2.7175303
4.6569824 11.373981 2.7065816
4.3670411 11.445932 2.6978357
4.0151267 11.337708 2.6487136
3.2356834 11.784474 2.6912026
3.1088085 12.49582 2.8356943
2.4744043 14.290883 3.1939425
-4.6556835 17.298992 3.9451125
-5.4708591 14.56012 3.425282
-7.599277 17.595837 4.2208619
-7.8992381 17.141769 4.1564622
-7.6300192 15.558566 3.8161142
-8.1856346 14.835124 3.7312901
-8.454463 14.48468 3.6933982
-10.150566 15.608713 4.1002378
-16.113829 23.51684 6.2779517
-17.132275 23.753056 6.4495134
-22.74457 -6.0646391 5.183773
-23.38665 -6.8443222 5.3661976
-22.352617 -7.7305655 5.2085309
-22.43545 -8.3705616 5.2733731
-21.721865 -9.3214264 5.2053976
-7.0666404 -7.152647 2.2142367
-5.95333 -8.087286 2.211483
-5.3938084 -7.7101836 2.0721626
-5.4246969 -8.1670141 2.1591229
-4.5945215 -8.1389484 2.0582135
-4.3283496 -8.119031 2.0261698
-4.2722654 -9.0390987 2.2017188
-8.3979197 -21.707333 5.1256232
-7.8017187 -21.708845 5.0800362
-5.5155563 -21.737919 4.9387832
-4.9611034 -21.740452 4.9107227
-3.3270702 -21.724939 4.8400154
-2.792578 -21.72616 4.8238673
-2.261328 -21.727367 4.8106146
-1.2061425 -21.73328 4.7934341
-0.68076169 -21.735317 4.7888641
-0.15607421 -21.737347 4.7870874
0.8936621 -21.741398 4.7919002
1.4198534 -21.743011 4.7984128
3.0112011 -21.745304 4.8344154
3.5480077 -21.746075 4.852211
4.0891013 -21.746847 4.8729887
6.3142772 -21.763105 4.9902883
7.4708591 -21.765484 5.0676827
9.2844334 -21.775221 5.2130003
9.912529 -21.776428 5.2690306
10.553926 -21.776157 5.3290434
11.211562 -21.777941 5.3941278
13.290351 -21.783581 5.6194854
14.025918 -21.788828 5.7065086
15.515126 -21.723019 5.8786721
17.16663 -21.736347 6.099546
18.262665 -22.010698 6.298388
10.49748 -9.0098009 3.0464566
10.218506 -8.3507528 2.9061573
10.893955 -8.4727011 3.039211
11.445937 -8.046916 3.0811868
11.996689 -8.0086927 3.1764908
12.160214 -7.7002988 3.169656
8.0121193 10.778793 2.9576278
7.6115623 10.773417 2.9049006
7.5279002 11.219963 2.9754503
7.5384274 11.843628 3.0916915
5.2102537 10.249463 2.5320165
5.0637498 11.277289 2.7223372
4.4783397 11.418008 2.7009444
3.8696582 11.464787 2.6646936
3.4231932 11.01206 2.5395272
3.0369627 13.029302 2.9462042
2.7936816 13.445227 3.0241265
2.5942676 14.197175 3.1782479
-3.7449412 17.979851 4.0444713
-4.1355176 17.703814 4.0036635
-7.8035936 15.332692 3.7887013
-8.0806055 14.971968 3.7466655
-8.3516111 14.618786 3.7076495
-8.6170893 14.272541 3.67151
-15.737226 23.431181 6.2157798
-5.1482911 23.823572 4.7947221
-6.4037304 23.967245 4.8801918
-8.3993063 24.246267 5.04777
-12.0321 26.235361 5.6778617
-12.766865 23.237349 5.2156963
-14.258877 22.013363 5.1595135
-15.14288 22.185993 5.2840915
-16.075684 22.373535 5.4195924
-17.063057 22.577539 5.5671396
-18.111689 22.799833 5.7280717
-21.736776 -9.2811832 4.6495028
-6.795742 -7.5494943 1.9981887
-5.7770605 -7.0765367 1.7970608
-5.7548532 -7.4072361 1.8452303
-5.7317872 -7.7568383 1.8973089
-4.8433399 -8.0824823 1.8535894
-4.5708885 -8.0628881 1.8232653
-4.7493749 -8.8699799 1.9792758
-4.2770896 -9.0069952 1.9614667
-4.0359473 -9.0568905 1.9505535
-9.0517187 -21.706551 4.6264749
-7.2658105 -21.729483 4.5072269
-5.0024118 -21.739811 4.388381
-3.9061913 -21.724257 4.3420987
-3.3674512 -21.725489 4.324841
-2.8326659 -21.726706 4.3102207
-2.3011718 -21.727915 4.2981915
-1.7723438 -21.729111 4.2887187
-1.2456738 -21.733694 4.282433
-0.19544922 -21.737761 4.276392
0.32913086 -21.739788 4.2771072
0.85421872 -21.741814 4.2803202
2.4381444 -21.744848 4.3044229
2.9711034 -21.745615 4.317512
4.0483789 -21.747158 4.3515658
2.0737696 -7.9086356 1.608373
6.8446679 -21.763996 4.4881258
8.0207129 -21.77232 4.5644031
9.8646774 -21.775843 4.7027631
11.83454 -21.779484 4.8760867
12.525517 -21.781357 4.9427485
13.236064 -21.783283 5.0142198
13.969824 -21.788326 5.0915132
10.36915 -9.377552 2.7502432
10.703388 -9.2202606 2.7790663
11.543359 -8.1466999 2.7793589
11.111191 -7.4466901 2.6312654
12.096611 -7.2869987 2.7780406
8.1370306 10.373579 2.5935714
8.5540915 12.699668 3.0121288
7.7386522 12.779123 2.9389009
6.958457 12.14269 2.7531118
5.4785743 10.729116 2.3698545
5.1878319 10.795193 2.3561068
4.6717868 10.354114 2.2345815
4.6179786 10.931037 2.3343554
4.3829589 11.115522 2.3504779
4.103662 11.19125 2.344866
3.0289941 12.889475 2.6046693
2.5166698 13.632841 2.727145
2.3515136 14.719311 2.9322774
-6.1580372 23.937101 4.8621955
-6.8007226 24.017962 4.9105277
-7.4588571 24.107389 4.9641719
-5.6474805 14.455373 3.052953
-10.28541 24.561092 5.2381678
-12.464678 26.147411 5.6982355
-12.757656 23.740503 5.3018079
-8.4206057 14.801747 3.3499868
-8.7038965 14.47551 3.3227267
-9.6041994 15.133562 3.5259585
-14.79709 22.117861 5.2349072
-16.676085 22.496943 5.5088305
-17.700293 22.711977 5.6644506
-22.80747 -6.4007816 4.659987
-22.430887 -8.0862913 4.6905408
-21.774286 -9.0589857 4.6393204
-14.141132 -8.0013599 3.196254
-6.8434567 -7.4619122 1.9917474
-5.9277439 -7.1249676 1.8232651
-5.7634959 -7.2777863 1.8262433
-5.7407908 -7.6199002 1.8767785
-5.8032813 -8.1024532 1.9605606
-5.5490232 -8.1562328 1.9406039
-5.2371874 -8.1120691 1.8994683
-4.9507813 -8.0903616 1.8658618
-4.6746974 -8.0703106 1.8346838
-4.4512305 -8.1307516 1.8234698
-4.6041989 -8.9142799 1.9736956
-3.888994 -9.0874825 1.9444952
-8.67624 -21.7075 4.5987258
-8.0749998 -21.709019 4.5564356
-7.4905858 -21.728456 4.5212502
-6.9095407 -21.731106 4.4857984
-6.3371973 -21.733717 4.4534683
-5.7727051 -21.736292 4.4241581
-4.6641603 -21.74136 4.3742466
-4.1147947 -21.723782 4.3494558
-1.9756445 -21.728651 4.2920651
-0.92236328 -21.734949 4.2795138
-0.39742187 -21.73698 4.276782
0.6519922 -21.741035 4.2787862
1.1776562 -21.743061 4.2835317
1.7046777 -21.743788 4.2905312
2.7655468 -21.745319 4.3121638
3.3006151 -21.746086 4.3268542
3.8396678 -21.746861 4.344183
6.052959 -21.762373 4.4435763
6.6230173 -21.763544 4.4751506
8.3899899 -21.773022 4.5901489
8.9996576 -21.774187 4.6348395
9.6216888 -21.775375 4.6831546
10.257187 -21.776594 4.7352834
12.257276 -21.78063 4.9165316
14.430898 -21.788897 5.1411252
15.931464 -21.702438 5.2961011
16.748692 -21.69809 5.3921189
10.573876 -9.2811899 2.7677066
10.191464 -8.1095133 2.5621023
11.142392 -8.4352608 2.7491817
11.136943 -8.0158825 2.6993163
20.18372 -8.1215792 4.2799463
8.2943258 10.374191 2.6128757
7.8928223 12.764589 2.9522939
7.013535 11.979433 2.7307498
5.5916991 10.703979 2.3756747
5.2992477 10.769616 2.361167
4.7016697 10.167336 2.2036026
4.6228223 10.665022 2.2866187
4.491045 11.086719 2.3531082
3.2272851 10.879941 2.2324593
3.2420311 11.982871 2.4420028
3.1153123 12.72481 2.5771294
2.8822949 13.137732 2.6459007
2.6335742 13.559243 2.7171988
2.475332 14.621166 2.9171813
2.150918 14.87779 2.9571636
-4.6775389 23.776491 4.7669263
-5.9143457 23.908163 4.8449464
-7.2035446 24.07192 4.9428763
-9.9974508 24.51009 5.2072577
-10.753672 24.646179 5.289773
-14.458193 22.051836 5.1872644
-16.297773 22.418947 5.452425
-17.298613 22.626993 5.6029301
-22.712812 -6.1472106 4.6287775
-23.140381 -6.8662739 4.7483082
-22.393076 -7.8384032 4.6672053
-22.001944 -8.9148493 4.6699796
-21.613701 -9.3708305 4.634233
-7.0129395 -7.1515675 1.9703915
-5.7720213 -7.1510453 1.8078161
-5.0598044 -8.0985804 1.8785174
-8.9107418 -21.706905 4.6159329
-8.3051462 -21.708437 4.5723071
-7.1321192 -21.730093 4.4990687
-6.5565429 -21.732714 4.4655476
-4.3241014 -21.723301 4.357214
-3.7818456 -21.724541 4.3378935
-3.244082 -21.725769 4.3212461
-2.7101073 -21.726984 4.3072219
-2.1792967 -21.728188 4.295784
-1.1246874 -21.734161 4.2812319
-0.5994336 -21.736198 4.2775373
-0.074785158 -21.738228 4.2763338
1.501582 -21.743496 4.2875338
3.0942187 -21.74579 4.320888
4.1734667 -21.747339 4.3561721
4.7228708 -21.759651 4.3801985
6.4025974 -21.76309 4.462635
6.9777732 -21.764273 4.4960976
7.5640917 -21.77145 4.5339756
8.7635546 -21.773735 4.6172113
9.380703 -21.774916 4.6641164
10.010879 -21.776123 4.7147536
10.654746 -21.776287 4.7690787
13.402471 -21.783735 5.0313721
14.14127 -21.78854 5.1098237
14.870917 -21.745241 5.1823249
15.633847 -21.717098 5.2640119
18.464569 -22.085451 5.6629887
11.675927 -8.1435585 2.8003542
12.064716 -7.5767813 2.8025632
27.653837 -8.4129763 5.6861887
8.4584179 12.709313 3.0032382
7.8338671 12.409995 2.8869889
6.3867087 11.289748 2.5516458
5.4113083 10.744214 2.3665185
4.6536427 10.468534 2.2536643
4.5532813 10.947004 2.3323324
4.3185349 11.132819 2.3490298
4.0396876 11.208859 2.3438199
3.8552344 11.564565 2.398046
3.4217186 11.15426 2.2951717
3.2871971 11.716926 2.3939276
2.9405077 11.545383 2.3436964
2.7308788 13.394233 2.6891012
2.4377344 13.628481 2.7235241
-5.0530467 23.813734 4.7889028
-6.9506836 24.037754 4.9223881
-5.7231836 14.412607 3.0505822
-12.588115 26.033346 5.68852
-15.002851 22.15831 5.2641068
-15.927744 22.343445 5.3978415
-22.864571 -6.5539341 4.6790147
-23.467831 -7.3440604 4.8373322
-21.491377 -8.4764061 4.544703
-21.820156 -9.22048 4.6599283
-6.9380856 -7.2885098 1.9795343
-5.9178514 -7.1939421 1.832482
-5.3361816 -7.538352 1.8168691
-4.8863864 -8.0856123 1.8584841
-4.6125097 -8.0658579 1.8278238
-4.0731444 -9.0491858 1.9521588
-9.1470308 -21.706308 4.6336789
-8.5369234 -21.707853 4.5886898
-7.9382224 -21.709362 4.5471854
-6.7771192 -21.731709 4.4780812
-6.2066698 -21.73431 4.4464612
-5.6438866 -21.736879 4.4178329
-3.4506347 -21.725298 4.327342
-2.915293 -21.726519 4.312314
-1.8541309 -21.728926 4.2900186
-0.27673829 -21.737446 4.2765012
0.24783203 -21.739475 4.276835
0.77280271 -21.741499 4.2796564
2.3558495 -21.744726 4.3026247
2.88833 -21.745495 4.3153114
3.4242382 -21.746264 4.3306041
4.5115232 -21.759218 4.3714857
6.1833887 -21.762642 4.4505739
7.9283299 -21.772141 4.5581222
8.5292091 -21.773289 4.6001163
9.1416206 -21.774458 4.6456227
9.7666302 -21.775654 4.6948042
10.405419 -21.77688 4.747828
11.729111 -21.7792 4.8661695
14.580947 -21.752131 5.1514649
15.339833 -21.731585 5.2327538
16.112608 -21.695681 5.3161969
17.973173 -21.90811 5.5744596
10.317968 -9.4016466 2.7459784
10.651133 -9.2448416 2.7744536
10.610117 -8.3468714 2.6556618
11.214296 -8.3921862 2.7553887
12.094072 -7.3472252 2.783747
12.110732 -6.9629574 2.7480974
8.6188183 12.693089 3.0181918
6.980752 12.076684 2.7440431
5.9438672 10.880644 2.438976
5.2325974 10.78488 2.3581107
4.4264159 11.103906 2.3515053
4.1468067 11.179426 2.3456197
4.0428224 11.761955 2.4466588
3.6273046 11.444211 2.3616648
3.4240332 11.782732 2.4137676
3.065244 12.828186 2.5945795
2.8262303 13.232685 2.6618254
-4.8175292 23.790092 4.7749405
-5.4327049 23.853832 4.8126502
-8.7200003 24.296492 5.0780735
-5.5964942 14.484402 3.0546422
-10.931533 24.679157 5.3097873
-12.375449 26.21208 5.7022099
-12.753858 23.947733 5.3373947
-8.3762884 14.852768 3.354423
-8.6603022 14.525718 3.3267968
-9.444931 15.006352 3.4880643
-15.565674 22.270346 5.3450174
-16.522802 22.465248 5.4859056
-23.220976 -7.6469827 4.8093109
-22.71958 -8.0945311 4.7445469
-22.468008 -8.6213026 4.7340865
-21.865517 -9.0011892 4.651556
-6.8625879 -7.4268436 1.9892199
-5.9343553 -7.0789285 1.8171477
-5.7669435 -7.2264628 1.8187603
-5.7443652 -7.5656271 1.8686856
-5.6089549 -8.1784048 1.9508548
-5.2825193 -8.1155386 1.904891
-4.994463 -8.0936489 1.8709146
-3.9258983 -9.079752 1.945968
-8.7703905 -21.707262 4.6055851
-8.1674318 -21.708786 4.562757
-7.5814352 -21.728045 4.5270338
-5.8596678 -21.735895 4.4285049
-4.7491503 -21.740969 4.3777061
-3.1209373 -21.726049 4.3177872
-2.587744 -21.727262 4.3043666
-1.00375 -21.734631 4.2801595
0.04588867 -21.738693 4.2764115
1.6229297 -21.74367 4.2892814
3.2174804 -21.745968 4.3244076
3.7558594 -21.74674 4.3413234
4.8495603 -21.759909 4.3855982
8.9044333 -21.774004 4.6276827
10.157812 -21.776403 4.7269502
10.805185 -21.776693 4.7822275
12.150126 -21.780338 4.9061799
14.313915 -21.788752 5.1284361
15.811279 -21.708359 5.2830887
16.619257 -21.697599 5.3765182
17.544512 -21.795368 5.5040665
10.522051 -9.3055735 2.7632284
9.8677931 -7.9123759 2.4881516
11.900029 -7.7853031 2.7974248
13.143027 -7.2991052 2.9574301
27.58828 -9.6980953 5.7526798
8.3583393 10.374518 2.6208069
8.3632326 12.71883 2.9944677
5.6374216 10.693909 2.3780987
5.3442578 10.759375 2.363286
4.635293 10.585205 2.2732067
4.4887304 10.963052 2.3304067
4.254209 11.150197 2.347677
3.9757714 11.226552 2.3428693
3.3042479 10.988518 2.2572579
3.1358984 12.604704 2.5551617
2.919668 13.074448 2.635334
2.524785 14.581902 2.9112115
2.2017674 14.83767 2.9508061
-4.5835547 23.767551 4.7616644
-5.1945701 23.828396 4.797576
-7.7673535 24.151543 4.9907174
-8.451396 24.25433 5.0526333
-10.634736 24.624315 5.2765107
-12.016231 21.777407 4.8929
-9.0637398 14.701867 3.3975763
-14.32373 22.025854 5.1685214
-16.147909 22.388273 5.4302459
-18.193163 22.817326 5.7407446
-22.922157 -6.7083883 4.6983504
-21.696484 -9.3105297 4.644485
-7.0316992 -7.1172833 1.9681723
-6.9099216 -7.340095 1.983095
-6.7863965 -7.5666642 1.9994705
-5.7531543 -7.4328322 1.8490061
-5.6945896 -8.1401272 1.9542577
-5.3963084 -8.1242857 1.9186273
-5.1041017 -8.1019354 1.8837085
-4.8225389 -8.0809736 1.8512341
-4.5507812 -8.0614557 1.8210711
-4.4961619 -8.947381 1.9698498
-4.2588868 -9.0107594 1.9606026
-4.0179491 -9.0606232 1.9497833
-9.0056057 -21.706667 4.6230092
-7.2221189 -21.729679 4.5045443
-5.5154295 -21.737469 4.411664
-3.327168 -21.725578 4.3236518
-2.2613964 -21.728004 4.2973905
-1.2062012 -21.733847 4.2820272
-0.68078125 -21.735884 4.2779474
-0.15608399 -21.737911 4.2763596
1.4198925 -21.743376 4.2864356
1.9478124 -21.744141 4.294601
2.4780469 -21.744904 4.3053164
4.08916 -21.747219 4.3530531
5.1898146 -21.760607 4.4007821
2.0910645 -7.9160991 1.6106576
6.314199 -21.762909 4.457725
6.8880467 -21.764086 4.4907064
8.0655661 -21.772404 4.5674753
9.9122944 -21.775932 4.7066555
11.211484 -21.777796 4.8184748
14.025624 -21.788395 5.0974522
14.753779 -21.748024 5.169805
17.167412 -21.737335 5.4488974
18.264893 -22.013388 5.6269579
10.728788 -9.2083216 2.7813225
10.97498 -8.5357161 2.7350836
11.050859 -7.3772888 2.6138113
12.031474 -7.6187835 2.8014412
12.097852 -7.2579064 2.7753015
12.114638 -6.8760266 2.7402828
8.5193548 10.375556 2.6409533
8.1066408 10.373488 2.5898714
7.8303709 12.302331 2.8687336
7.7087207 12.781917 2.9363282
5.4565916 10.734035 2.3687541
5.1661816 10.8002 2.3551536
4.6658888 10.391228 2.2407613
4.3619142 11.121161 2.3499968
4.0827732 11.196984 2.3445127
3.9298437 11.643085 2.4173589
3.5030663 11.269006 2.3214612
3.0148633 11.654958 2.368211
3.0113182 12.919365 2.6096032
2.7694921 13.328798 2.6780248
2.4908984 13.631426 2.7259548
2.3272169 14.738544 2.9352646
-4.350986 23.746096 4.7490616
-4.9580469 23.804081 4.7831964
-5.5758004 23.869577 4.8219976
-7.5089355 24.114466 4.9684224
-10.342002 24.571245 5.2443213
-12.734199 25.02046 5.52279
-14.863964 22.130968 5.2443681
-15.781064 22.313734 5.3763676
-16.750858 22.512461 5.5200553
-4.298408 22.508348 3.9740722
-5.460371 22.61071 4.0340056
-6.6670704 22.73797 4.1093717
-7.9303317 22.892511 4.201623
-5.7736912 14.382802 2.6878247
-9.9622164 23.182524 4.3759556
-12.211191 23.555414 4.6014118
-12.771113 23.245104 4.5996623
-12.039687 20.713266 4.1549659
-15.211093 21.170248 4.5209188
-22.833252 -6.6374469 4.1237903
-23.107206 -7.3261728 4.2039809
-21.390976 -8.5293646 3.9937809
-6.8851562 -7.2872605 1.73867
-5.8647556 -7.1839685 1.6083294
-5.6532125 -7.6504951 1.6497247
-5.6272559 -8.0128946 1.6980908
-5.3651171 -8.0456161 1.6770949
-4.6986327 -8.7752066 1.7262734
-4.2349901 -8.9183264 1.7121938
-4.0060153 -8.9897118 1.7068396
-8.443799 -21.70895 4.0396543
-6.6880665 -21.731659 3.9432747
-6.1188574 -21.734262 3.9158118
-5.5572071 -21.736828 3.8909767
-5.002295 -21.739365 3.8686917
-3.3675487 -21.726122 3.8128686
-2.8327343 -21.727339 3.7999721
-2.30125 -21.728544 3.7893724
-1.2456933 -21.734257 3.7754719
1.9081445 -21.744442 3.785542
2.4381933 -21.745209 3.7948146
2.9711523 -21.745979 3.8063555
3.5076854 -21.746748 3.8201985
4.0484471 -21.747524 3.8363822
2.07375 -7.9085574 1.4179183
6.8446188 -21.763803 3.9566689
8.6231146 -21.772985 4.0613589
9.237402 -21.774155 4.1019688
10.505058 -21.775742 4.1929603
11.834453 -21.779339 4.2987027
13.235976 -21.783134 4.4204726
13.96955 -21.787899 4.4885573
14.697255 -21.749409 4.5523744
10.590957 -9.123395 2.4242697
10.576045 -8.2562408 2.32687
11.636309 -8.2122993 2.4699969
11.902842 -7.1702728 2.409874
27.893261 -7.2001505 4.9959769
5.9952149 11.072834 2.1837234
5.7618747 12.770103 2.4296634
5.2131248 13.220866 2.4646499
4.028779 11.865195 2.1731148
3.0474315 11.693466 2.0956848
2.4446776 11.659441 2.0660164
2.5120995 13.608068 2.3998656
3.7297752 23.346548 4.1002421
-4.6516209 22.537302 3.9909358
-5.8261814 22.647091 4.0554781
-7.0489254 22.782455 4.1358609
-5.646152 14.451982 2.690835
-10.403378 23.25165 4.4176612
-11.907959 23.502283 4.5692267
-12.452421 20.709717 4.1908627
-14.027001 20.966749 4.3748751
-14.873437 21.111397 4.4786539
-16.707745 21.438391 4.7137179
-18.769648 21.824968 4.9922233
-22.737949 -6.3812656 4.0956936
-22.789833 -7.5995469 4.1663003
-21.645868 -8.3987923 4.0266285
-21.899345 -9.1110096 4.1134882
-14.141231 -8.0014248 2.8178248
-6.9320507 -7.2016935 1.7335467
-6.8096871 -7.4250879 1.7472491
-6.6854296 -7.652348 1.7622433
-5.8816013 -7.0695109 1.59487
-5.8373141 -7.3709912 1.6306243
-5.66291 -7.5165038 1.6321048
-5.6373825 -7.8708367 1.6790106
-5.1859665 -8.0327129 1.6581787
-4.3236036 -8.8908253 1.7145529
-4.0939841 -8.9622335 1.7087708
-9.2894726 -21.706823 4.0947614
-8.0753317 -21.709875 4.0170832
-6.9093847 -21.730648 3.9545672
-5.2151756 -21.738394 3.8769753
-4.6640525 -21.740915 3.8562257
-3.5744433 -21.725651 3.8184476
-3.0381932 -21.726871 3.8046625
-1.9756933 -21.729279 3.7839706
-1.44833 -21.733471 3.7775052
-0.92239255 -21.73551 3.772891
0.12715819 -21.739571 3.7702658
1.1776855 -21.743622 3.7764342
4.3834276 -21.748005 3.8475149
4.9349999 -21.759892 3.8695672
6.0529003 -21.76218 3.917397
7.2014942 -21.764534 3.9757962
7.7914453 -21.771406 4.0102339
8.3898144 -21.772541 4.0465598
8.9994631 -21.773701 4.0859566
9.6214647 -21.774887 4.1285496
10.906895 -21.776829 4.2238746
11.57333 -21.778629 4.2771578
12.257187 -21.780483 4.3343582
12.96001 -21.782385 4.3957028
14.430614 -21.788465 4.5322957
15.164473 -21.738308 4.5966506
15.931406 -21.702368 4.6690006
16.748817 -21.698259 4.7536964
9.8905859 -7.8700933 2.1920536
11.441846 -8.2353554 2.4448557
11.030458 -7.5420151 2.3173797
20.179384 -8.119833 3.772382
27.567392 -9.5751085 5.0610743
28.502138 -6.907835 5.086112
7.8400488 12.679228 2.5853186
7.1492772 12.211282 2.454006
6.0395212 10.91134 2.1628442
5.2471094 12.105281 2.2881036
4.2787595 11.341658 2.1022544
3.73083 11.547866 2.104625
2.5651269 11.692048 2.0759292
2.5264258 14.922993 2.6248615
-4.4301267 22.518923 3.9802206
