# .PCD v0.7 - Point Cloud Data file format
VERSION 0.7
FIELDS x y z
SIZE 4 4 4
TYPE F F F
COUNT 1 1 1
WIDTH 1543
HEIGHT 1
VIEWPOINT 0 0 0 1 0 0 0
POINTS 1543
DATA ascii
6.0189157 16.695971 3.4913116
5.1274753 16.708742 3.4382024
4.7196579 16.815876 3.4358134
4.7493553 18.638649 3.7837298
4.7857809 20.873711 4.2127905
5.0875731 28.421398 5.6798797
4.4652052 28.955402 5.7633905
3.7275391 28.76214 5.7053595
2.2991893 28.453102 5.6154962
-20.11146 -6.8163214 4.1773505
-20.00934 -7.3244109 4.191627
-19.253632 -8.1210041 4.1106768
-17.92622 -8.0758533 3.867749
-18.770258 -9.0069122 4.0955567
-18.877022 -21.816801 5.675302
-17.985058 -21.828615 5.563868
-17.119663 -21.830692 5.4575195
-15.482134 -21.834526 5.26546
-3.8197508 -7.056232 1.5784236
-3.7084129 -7.2637982 1.6043696
-3.4125097 -7.5644383 1.6324775
-2.6000245 -7.0915885 1.4858521
-2.2351708 -7.8011212 1.5963737
-2.0296288 -7.7886519 1.5833387
-1.8274511 -7.7770081 1.571551
-1.5837451 -8.5792894 1.7162203
-1.1775147 -8.7151937 1.7300175
-0.97176266 -8.7847528 1.7386628
-0.82537109 -21.825565 4.2965617
0.75815916 -21.918858 4.3144193
1.2913916 -21.974682 4.3302832
2.3808887 -22.176998 4.3876934
3.6519189 -23.341526 4.6475644
13.491596 -9.1386509 3.205595
13.332373 -8.1214027 3.0710106
14.176747 -7.7240119 3.1758966
14.197056 -7.2965851 3.1400909
16.763144 18.254953 4.8754654
12.703344 16.838531 4.1493669
11.122231 16.324629 3.8858631
10.411518 16.102997 3.7722063
9.7454786 15.90146 3.6688428
8.5569382 15.604807 3.5009875
7.6050391 15.610776 3.4159589
7.6304879 16.672886 3.6070306
6.6832809 16.686453 3.5360303
6.2229834 16.693047 3.504591
5.7705665 16.699532 3.4757068
5.3252831 16.70591 3.4492869
4.7684522 19.810507 4.008399
4.4713621 23.508036 4.7073722
3.3291016 28.673227 5.6784387
-8.5399561 28.152052 5.7872276
-20.081787 -7.1052423 4.1904368
-19.82436 -7.5570092 4.1735539
-18.951263 -8.8425465 4.1139121
-18.592417 -9.2276144 4.0831609
-17.504097 -21.829769 5.5043669
-16.656675 -21.831804 5.4019651
-15.050493 -21.835224 5.2169142
-13.546836 -21.837648 5.0553226
-12.828569 -21.838808 4.9824791
-3.3158495 -7.6187835 1.6345476
-2.8055518 -6.8962879 1.4645939
-2.3286133 -7.8068933 1.6026206
-1.917832 -7.7821293 1.5766904
-1.6618408 -7.5197277 1.514961
-1.5911621 -21.832022 4.3061509
-0.0083154291 -21.852751 4.29884
1.0514404 -21.948372 4.3226008
3.3004589 -22.702583 4.5129666
13.307051 -9.2254848 3.1853039
12.890835 -8.0451517 2.9892027
14.317734 -8.0031471 3.2267113
14.552295 -7.6795468 3.2368681
14.011889 17.281969 4.3767076
13.092442 16.968836 4.2161732
11.457446 16.431295 3.9405627
10.039355 15.989604 3.7140515
8.7887545 15.623742 3.5263867
7.3507371 15.612494 3.3946538
7.3657079 16.67668 3.5863519
6.4286327 16.690102 3.5183849
5.9727731 16.69663 3.4883642
5.5243797 16.703056 3.4608502
4.7316356 23.487663 4.7132807
4.3835983 28.898184 5.7498355
3.6408496 28.646393 5.6806078
2.2308984 28.481117 5.6199212
-19.700233 -6.2045646 4.0630627
-19.992889 -7.3742609 4.1919756
-19.200575 -8.1543474 4.1036205
-17.745897 -8.0472193 3.8331037
-18.724634 -9.0417891 4.0904465
-19.677353 -21.770294 5.7727509
-18.787777 -21.821987 5.6646018
-17.895195 -21.828831 5.5526767
-17.033194 -21.8309 5.4470692
-16.202929 -21.832893 5.3484654
-15.401607 -21.834658 5.256331
-14.62664 -21.835907 5.170167
-13.876288 -21.837116 5.0896931
-12.433965 -21.826323 4.9414787
-3.8085496 -7.0770965 1.5809885
-3.394624 -7.5744815 1.6328359
-3.2189989 -7.6734152 1.6369429
-2.5698829 -7.6312256 1.58404
-2.2140429 -7.7998247 1.5949876
-2.0088477 -7.7874088 1.582076
-1.8070019 -7.7758574 1.5704145
-1.5631591 -8.5861301 1.7168134
-1.8294384 -21.83621 4.3106365
-0.77156246 -21.826019 4.2962613
0.28249511 -21.875463 4.3036675
2.4379053 -22.193222 4.3920789
13.688354 -8.7502937 3.1959288
13.436289 -8.1394138 3.0903227
14.008735 -8.0307903 3.176491
14.28979 -7.7400584 3.1969426
14.119765 -7.212954 3.1190538
14.046947 -6.7535825 3.0660808
22.760063 -7.7333136 4.7287164
15.493731 17.800068 4.6422977
14.450688 17.433769 4.4545269
13.495815 17.105349 4.2861595
12.616811 16.80974 4.1346049
11.80353 16.54278 3.9977264
11.047509 16.301018 3.8737555
9.6798048 15.88193 3.6588275
8.5072212 15.6051 3.4963439
8.0266209 15.608039 3.4526043
6.1764646 16.693712 3.501524
4.8420167 16.712839 3.4229224
4.7383885 17.965769 3.6550536
4.5696192 28.070559 5.594686
2.5139306 28.171577 5.5638885
1.9060302 29.337929 5.7834797
-20.065302 -7.1550345 4.1906605
-19.82267 -7.6123061 4.1771317
-18.925898 -7.7968206 4.0266328
-18.802221 -8.8294296 4.0862656
-19.183056 -21.799019 5.7122455
-17.416132 -21.829983 5.4935875
-16.571962 -21.832006 5.3919029
-15.758022 -21.83396 5.2969403
-14.210273 -21.836578 5.1251435
-3.857578 -6.9857974 1.5698363
-3.7474413 -7.1909966 1.5951631
-3.6337206 -7.4032497 1.6223253
-2.8005762 -6.9328899 1.4708989
-2.6839013 -8.3344822 1.7224598
-2.1005468 -7.7929177 1.5877229
-1.8972315 -7.7809567 1.5755016
-1.3913672 -7.19909 1.4424013
-1.2484375 -8.691329 1.7272933
-1.0433739 -8.7604904 1.7355303
-2.0680225 -21.838078 4.3151708
1.1058545 -21.953848 4.324203
2.187876 -22.122082 4.3730502
2.7499657 -22.298908 4.419837
3.3644726 -22.749523 4.5239363
12.989097 -8.0621185 3.0073798
14.469458 -7.5903354 3.214278
15.196978 -7.059371 3.296325
15.276216 -6.6530151 3.2777417
17.192495 18.410803 4.9553504
14.907255 17.593203 4.5362558
13.914501 17.248478 4.3595386
11.380302 16.406637 3.927918
10.652719 16.177488 3.8104088
9.3321095 15.779663 3.6063702
8.2408638 15.606707 3.4718492
7.7668357 15.609707 3.4298272
7.3039694 15.612817 3.3908026
7.3170114 16.677376 3.5826182
6.3817234 16.690773 3.5152025
5.9266748 16.697294 3.4854436
5.0380077 16.710026 3.4333215
4.6724658 23.492367 4.7119031
2.8282764 28.236053 5.5823464
2.1625195 28.509169 5.624392
-19.147675 -8.1876106 4.0966139
-18.677607 -9.0758572 4.0850382
-18.698833 -21.827158 5.6539707
-17.805712 -21.829044 5.5415683
-16.119911 -21.833094 5.3387799
-15.321313 -21.834787 5.2472653
-3.5518456 -7.4864163 1.6300596
-3.201035 -7.6835709 1.6374232
-2.7729688 -7.1362839 1.5060954
-1.9881005 -7.7861705 1.580825
-1.4983544 -7.3258343 1.4709609
-1.5425439 -8.5929832 1.7174187
-1.3399218 -8.6606293 1.7239753
-1.1356786 -8.7292976 1.7316843
-1.7752637 -21.835258 4.3095689
-0.71778804 -21.826471 4.2959905
-0.19108887 -21.838476 4.2961974
0.3363916 -21.879675 4.3046436
1.4008545 -21.988054 4.3342261
5.7999167 -7.7476025 1.9038484
13.726909 -8.7274323 3.1999004
13.885605 -8.3649597 3.1889191
14.683974 -7.4556756 3.2396264
15.262588 -6.4070549 3.2562535
16.517525 18.166227 4.8299866
15.382822 17.760773 4.6221538
11.723857 16.517002 3.9845061
10.272148 16.060314 3.7503166
8.9953852 15.682461 3.5565093
7.5105076 15.611408 3.4079657
7.5320797 16.674294 3.5992742
6.5886621 16.687807 3.5293994
16.50708 16.67827 4.069591
14.403848 16.030817 3.73755
12.66623 15.543899 3.4773798
10.49792 16.628941 3.4104869
9.9497261 16.636528 3.3618262
8.8980513 16.652191 3.2743542
8.3918943 16.659733 3.2350798
7.8974609 16.667097 3.1985753
7.4137692 16.674303 3.1647089
6.0186181 16.695089 3.0777569
5.127368 16.708374 3.0310345
4.7166014 16.804968 3.0270281
4.7459669 18.625374 3.3333311
4.8272605 23.661238 4.1880002
4.325913 28.052155 4.9224763
2.3088329 28.572313 4.9713268
-8.1310835 28.145708 5.080802
-8.8755617 28.156843 5.119978
-19.616547 -6.1251612 3.5640025
-19.652626 -7.7363729 3.6628461
-17.731108 -9.0407991 3.4516907
-19.769463 -21.764256 5.0991755
-18.876455 -21.816162 5.003161
-17.98539 -21.829027 4.9051666
-17.119986 -21.831099 4.8114061
-14.70459 -21.835793 4.5655088
-13.221763 -21.838182 4.4273591
-12.505752 -21.827229 4.3626914
-3.6874363 -7.2227268 1.4064076
-3.3698094 -7.4697843 1.4211744
-3.1963525 -7.5671501 1.4246104
-3.022119 -7.6654625 1.4289763
-2.5135889 -7.4037566 1.3559825
-1.3667139 -8.5548286 1.5024421
-0.8253662 -21.825718 3.7878489
-0.29852051 -21.830486 3.7863243
0.22858398 -21.871653 3.7933142
1.8297168 -22.04101 3.8356285
2.3810155 -22.178204 3.8683751
2.9603662 -22.456057 3.9281554
3.6539257 -23.354364 4.0995212
5.7736473 -7.7921915 1.6819032
13.45375 -9.1130171 2.8181071
13.871865 -8.9157934 2.8597925
14.238496 -8.2091351 2.8503363
14.415097 -7.4086432 2.8107996
15.227988 -6.919414 2.9007776
15.21269 -6.4744058 2.8672705
17.037104 16.844887 4.1550345
15.887871 16.485249 3.9706073
13.887597 15.875783 3.6580346
13.009068 15.616133 3.5248554
11.72999 15.548332 3.3777709
9.6543798 16.640928 3.3364861
8.617651 16.656366 3.2523608
8.1180716 16.663811 3.2146313
7.629663 16.671083 3.1795976
5.3251171 16.705429 3.0407867
4.8863769 16.711967 3.0196362
4.6346192 24.366341 4.3015118
4.6760302 28.285139 4.9719553
3.9692285 28.224993 4.9431067
-19.737539 -6.4520926 3.601248
-19.883554 -7.0351043 3.657799
-20.055542 -8.2045326 3.7579393
-18.644644 -8.6994705 3.56812
-12.341982 -7.6895719 2.5218663
-19.273197 -21.7931 5.0454564
-16.656986 -21.832205 4.7624269
-15.050493 -21.835234 4.599206
-13.546845 -21.83766 4.4567418
-12.123149 -21.827101 4.3300676
-3.7377343 -7.129498 1.3960555
-3.2743065 -7.5233283 1.4229532
-3.1004589 -7.6211967 1.4269011
-2.6039159 -8.0183802 1.4620811
-2.1038475 -7.7293725 1.3892403
-1.6266797 -7.3606286 1.3073235
-1.2557422 -8.5918074 1.5058717
-2.1223192 -21.838444 3.8051934
-1.0621142 -21.823723 3.7892761
-0.53498536 -21.828159 3.7867057
0.51996583 -21.895369 3.7982953
1.0514697 -21.948856 3.8108642
2.13146 -22.107189 3.8517339
2.6903076 -22.266209 3.8896196
3.3009424 -22.705832 3.9791734
13.682597 -9.0050478 2.8407152
14.064301 -8.3129482 2.833322
13.961537 -7.8040423 2.7738812
14.831221 -7.826745 2.9083018
14.058622 -6.9907756 2.7229326
16.389896 16.641611 4.0507932
14.306416 16.001432 3.7224786
12.60292 15.544185 3.4704883
11.99544 15.54703 3.405515
12.184804 16.605791 3.5719898
11.584848 16.614 3.5126081
9.8946819 16.637346 3.3570635
9.3633881 16.645262 3.3121061
8.3409176 16.660492 3.2312291
7.8476267 16.667839 3.1950011
7.3649755 16.67503 3.1613946
6.4281979 16.68899 3.1015809
5.9724708 16.695778 3.0751648
4.7193456 16.975237 3.0555999
4.786128 21.113678 3.7545629
5.0333252 28.522917 5.0230384
3.6924608 29.052521 5.0789857
2.9732225 28.963806 5.0494652
-8.2065277 28.146833 5.0846348
-8.9522018 28.15799 5.1241832
-19.63876 -6.1852012 3.5707941
-19.795595 -7.301497 3.6591492
-20.574575 -8.1578541 3.8384106
-18.30892 -8.3025427 3.4864557
-19.676767 -21.769644 5.0890746
-17.895546 -21.829243 4.8953028
-16.203228 -21.833288 4.7152629
-12.434453 -21.827204 4.3565531
-3.675122 -7.2425628 1.4085029
-3.3521338 -7.4796801 1.4214821
-3.004287 -7.6755571 1.429474
-2.6918213 -7.3982592 1.3653376
-2.5103564 -7.4544845 1.364138
-2.4662793 -7.9529204 1.4440385
-1.9922509 -7.7230573 1.3832237
-1.4918066 -7.203485 1.2757787
-1.3462012 -8.5616541 1.5030543
-1.8294433 -21.836264 3.8002367
-0.77156734 -21.826168 3.7875879
-0.24481933 -21.834681 3.7869353
1.3461083 -21.98193 3.8193755
2.4380419 -22.194426 3.8722425
3.7435107 -23.547245 4.1349854
5.7835741 -7.7655544 1.6792713
13.495825 -9.0931587 2.8222234
14.34726 -7.3291683 2.7940471
15.191015 -7.3036389 2.9231939
15.230547 -6.8753843 2.8980315
15.776748 16.450813 3.9529474
13.794658 15.848062 3.6438158
11.670254 15.54863 3.371582
10.691885 16.626266 3.4281719
10.138124 16.633904 3.3783233
9.6001759 16.641733 3.3319011
9.0765963 16.649534 3.2886553
8.5660982 16.657135 3.2483842
8.0677147 16.66456 3.2109356
6.6354589 16.685898 3.1141815
6.1761036 16.692743 3.0867455
5.7245555 16.699474 3.0615582
5.2800632 16.7061 3.038532
4.8419433 16.712629 3.0175939
4.7685986 20.027781 3.5704346
4.810288 22.610233 4.0089574
4.5733399 24.370768 4.3002939
3.8934863 28.189741 4.9352393
-8.6159515 28.152958 5.1059809
-20.216831 -6.1273465 3.6636145
-19.86725 -7.0844126 3.6579967
-19.861416 -8.1822271 3.7253246
-18.434092 -8.1197691 3.4933445
-17.999559 -8.9886618 3.4891808
-19.182486 -21.79837 5.0357389
-17.416451 -21.830391 4.8432069
-16.572266 -21.832407 4.7535601
-14.210263 -21.83659 4.5182962
-13.472573 -21.83778 4.4499822
-3.8362353 -6.9471469 1.3762999
-3.6053808 -7.3455033 1.4190755
-3.2566063 -7.5332685 1.4233137
-3.0826709 -7.6312356 1.427354
-2.5243115 -7.2358251 1.3290489
-2.5926659 -8.0511646 1.4668909
-2.0830908 -7.728169 1.3880986
-1.8616064 -7.6348248 1.3628676
-1.6361425 -8.4655828 1.4953188
-1.4363574 -8.5316887 1.5004365
-1.0322021 -8.6666737 1.5136482
-2.0680323 -21.838181 3.8042498
-0.48123536 -21.828609 3.7865655
0.045493163 -21.857355 3.7906396
0.57404786 -21.90081 3.7994714
1.1058739 -21.954332 3.8122747
3.3649559 -22.752781 3.9888439
13.311543 -9.1801395 2.804312
14.103682 -8.2894678 2.8371391
14.066411 -7.8172922 2.7908831
14.837187 -7.783236 2.9057055
13.995127 -6.9162774 2.7073236
14.320395 -6.6521735 2.738399
15.221132 -6.6290226 2.87922
16.273872 16.605356 4.0322008
13.305805 15.703215 3.5695219
12.539863 15.544473 3.4636528
11.934702 15.547326 3.3991327
12.12267 16.60664 3.5657446
10.384746 16.630501 3.4002819
9.8398342 16.638165 3.3523314
9.3099852 16.646057 3.3076963
8.2900686 16.661247 3.2274115
7.7978954 16.668581 3.1914551
7.3163085 16.675755 3.1581073
6.8443651 16.682787 3.1272516
5.9263916 16.696466 3.0725946
5.4788084 16.703135 3.0486083
4.7527099 19.043205 3.4038861
4.7903662 21.376289 3.7991436
4.8379736 24.324501 4.3011231
4.951499 28.468456 5.0112858
4.2283983 28.345625 4.9702539
-19.939034 -6.8675089 3.6573009
-19.779341 -7.3508372 3.6594751
-20.402641 -8.1478357 3.8100615
-18.784252 -8.0322065 3.5430052
-18.913422 -8.6328688 3.6056061
-19.584404 -21.775011 5.0790381
-17.806034 -21.829458 4.8855042
-16.120199 -21.833488 4.7067242
-15.321322 -21.834799 4.6259589
-14.548999 -21.836044 4.5505266
-13.801025 -21.83725 4.480083
-13.075429 -21.838421 4.4143109
-3.7761083 -7.0584207 1.3882756
-3.6622753 -7.2614975 1.4104279
-3.1608593 -7.5871367 1.425424
-2.7403905 -7.0524645 1.3121699
-2.5070899 -7.5058012 1.3723948
-1.9716895 -7.7219219 1.3821467
-1.7151074 -7.4637341 1.3281398
-1.4675537 -7.1752429 1.2701335
-1.5262011 -8.5019102 1.4980196
-2.3070753 -21.839338 3.8085821
-0.19109863 -21.838877 3.7875688
0.86664551 -21.930256 3.8062427
1.9402294 -22.054512 3.8395946
2.4951661 -22.210684 3.8761394
13.538075 -9.073225 2.8263774
13.43895 -8.0958872 2.7209015
14.280293 -7.2507067 2.7775195
15.217631 -7.2703791 2.9248602
16.793226 16.768074 4.115643
15.666738 16.416784 3.9354968
14.641231 16.102669 3.7744
13.702397 15.82059 3.6297264
12.838281 15.566318 3.4993036
12.203603 15.546038 3.4275501
11.610796 15.54893 3.3654399
11.20353 16.61923 3.4759576
10.634628 16.627056 3.4229295
10.082534 16.634672 3.3734307
7.5312939 16.67255 3.1727667
6.5881834 16.686604 3.111275
16.08287 15.484089 3.3558056
14.183872 16.57332 3.2789824
12.867685 16.59292 3.156256
11.64373 16.611147 3.0492229
11.061699 16.619814 3.0009472
6.9398923 16.681223 2.7157683
6.475112 16.688148 2.6906743
6.0185642 16.694954 2.6675811
5.1273336 16.708237 2.627085
4.7135692 16.79418 2.6219537
4.7937794 18.812975 2.9182239
4.7782226 20.840727 3.2139478
4.5290089 25.300974 3.8635533
3.7843359 29.200441 4.4259596
-8.1310253 28.145477 4.4036789
-12.187798 21.164534 3.6711218
-19.618809 -6.6493521 3.113764
-19.900288 -7.8338647 3.2147272
-19.224043 -8.1085291 3.1361809
-19.283316 -8.6872349 3.1791234
-18.875912 -21.815525 4.3362994
-16.286856 -21.833483 4.0944176
-15.482153 -21.834551 4.0233898
-14.70459 -21.835806 3.9570966
-13.951792 -21.837019 3.8951726
-13.221772 -21.838196 3.8373554
-12.506249 -21.828102 3.7814531
-11.816054 -21.827864 3.7309313
-3.6320164 -7.1141672 1.200662
-3.5062451 -7.2973132 1.2169389
-3.3284862 -7.3781767 1.2166777
-2.6653564 -7.2697954 1.1638834
-2.4331543 -7.7783518 1.2250673
-1.9878808 -7.6284485 1.1849595
-1.7311914 -7.3673625 1.1375849
-1.3524511 -8.4655428 1.2886305
-1.8836719 -21.837273 3.2946489
0.22858398 -21.872053 3.2878642
0.75818849 -21.919821 3.296839
2.3811474 -22.179399 3.3530395
2.9607811 -22.459204 3.4051518
5.7713037 -7.7890296 1.4571358
14.059233 -8.1057796 2.4393852
14.07353 -7.2330937 2.3784957
14.975224 -7.2453375 2.5006142
16.433807 15.48249 3.3938365
16.72665 16.537962 3.5356982
15.948881 16.548559 3.4546874
14.493745 16.568707 3.3089354
13.154551 16.588648 3.1823583
11.320718 16.615959 3.0222142
10.193657 16.632744 2.9323218
9.6542873 16.640778 2.8918293
9.1293068 16.648598 2.8540747
8.6175728 16.656223 2.8189154
8.1179934 16.66367 2.7862127
7.6295996 16.670942 2.7558465
6.6827197 16.685057 2.7016912
5.7702584 16.698654 2.6556842
4.7798972 17.943922 2.7912884
4.801538 22.299208 3.4287152
4.8088231 25.282234 3.8684204
2.6745117 29.159925 4.4015565
-11.718642 20.86927 3.5976868
-19.422276 -6.3490329 3.0714765
-19.703213 -6.9712963 3.1415911
-19.787533 -7.5429664 3.1831286
-19.204004 -7.8561778 3.1188433
-18.496063 -8.0927305 3.0347009
-12.342065 -7.6896243 2.1858077
-19.272631 -21.792461 4.3729534
-18.385489 -21.828484 4.2899175
-15.050512 -21.835247 3.9862981
-12.828593 -21.838831 3.8071678
-12.123642 -21.827971 3.7531767
-3.6874707 -7.0336223 1.1937406
-3.4355419 -7.4005847 1.2264366
-3.2341015 -7.4309516 1.2181807
-2.8895507 -7.6247172 1.2256459
-2.6746874 -8.2363214 1.3016832
-2.0852442 -7.6610312 1.1934587
-1.8488672 -7.5022922 1.1614426
-1.6392529 -8.3710413 1.2821885
-1.4416162 -8.4360828 1.2864482
-1.2426074 -8.5019312 1.2915416
-2.122329 -21.838545 3.2981145
-1.0621094 -21.823872 3.2843261
-0.53498536 -21.828304 3.2820971
-0.0083105471 -21.85355 3.2849035
0.51998532 -21.895849 3.2921922
2.1315722 -22.108376 3.3386204
2.6904395 -22.267412 3.3714569
13.569795 -8.9308052 2.4418521
14.365371 -7.5809035 2.4415522
14.892007 -7.4051833 2.499964
14.113359 -6.5982871 2.3418436
16.110909 -7.0637493 2.6442456
16.293638 16.543858 3.4903424
12.803144 16.59388 3.1504326
12.182832 16.603115 3.0954735
11.00332 16.62068 2.9962029
10.440849 16.629063 2.9514384
8.8457766 16.652822 2.8343921
8.3408394 16.660347 2.8005998
7.8475633 16.667694 2.7692022
7.3649216 16.674891 2.7400732
6.8920751 16.681936 2.7131164
5.5241308 16.702324 2.6443541
4.7971144 19.021671 2.9487567
4.7823143 21.096813 3.2516124
4.8281932 23.966982 3.6749585
4.4654932 25.305128 3.8624969
2.2171142 28.305199 4.2677112
-8.20646 28.146606 4.4070024
-8.9521332 28.157759 4.4412766
-12.777968 20.885124 3.680294
-20.158228 -6.3488121 3.1768024
-19.634312 -6.7085266 3.1188343
-19.73975 -7.8268356 3.1918957
-19.097528 -8.1105804 3.1187878
-18.864925 -8.5546732 3.113606
-18.346958 -8.8594236 3.0625079
-19.676195 -21.768995 4.4107533
-14.626665 -21.83593 3.9505796
-12.434965 -21.828077 3.7761357
-11.746655 -21.827839 3.7259758
-3.6193211 -7.1326151 1.2022685
-3.4932323 -7.3163004 1.2186683
-3.1395311 -7.4839659 1.2199229
-2.9672313 -7.5808835 1.2236943
-2.4096777 -7.7703948 1.2228761
-2.1840625 -7.6942182 1.2022446
-1.9659667 -7.6211705 1.1830741
-1.5305029 -8.406786 1.2844331
-1.3321484 -8.4722614 1.2891493
-1.1322509 -8.5385952 1.2947093
-1.8294384 -21.836321 3.2938123
-0.77157712 -21.826315 3.28286
0.28250977 -21.876265 3.2885923
1.3461474 -21.982492 3.3104761
1.8849902 -22.048325 3.3262725
3.0231884 -22.504978 3.4132109
13.404355 -9.0315266 2.4295464
13.143154 -7.9618454 2.3098302
14.098393 -8.0821857 2.4427204
14.765181 -7.9975533 2.5240848
15.004448 -6.7733221 2.4745433
16.353319 15.482854 3.3850811
16.645596 16.539064 3.5271618
15.871489 16.549614 3.4467371
15.131484 16.559721 3.371825
14.422847 16.569763 3.3020494
13.742905 16.579887 3.2370379
13.088916 16.589624 3.1763556
12.458637 16.59901 3.1196868
11.850117 16.60807 3.0667608
11.261553 16.616838 3.0173235
10.691275 16.625332 2.9711554
10.13793 16.633572 2.9280579
8.5660353 16.656992 2.8154662
8.0676565 16.664419 2.7830079
5.7245069 16.699339 2.6535418
4.8419142 16.712492 2.6154351
4.7829442 18.13468 2.8191197
4.806201 22.59103 3.4717588
4.7451854 25.28656 3.8672833
2.5885596 29.007858 4.3776269
-12.528095 20.9839 3.673573
-19.49313 -6.4253893 3.0851777
-19.066923 -7.8549204 3.0997131
-18.713993 -8.7880011 3.1077037
-17.911957 -8.9449139 3.0094812
-12.304858 -7.7085619 2.1825745
-20.086821 -21.745125 4.4497452
-19.181938 -21.797731 4.3645306
-18.293955 -21.828701 4.2810893
-16.572573 -21.832802 4.1201591
-15.758589 -21.834742 4.0475903
-14.971406 -21.835375 3.979583
-14.210278 -21.836601 3.9161754
-13.472573 -21.837793 3.8569653
-3.5502391 -7.2331681 1.2111549
-3.4223289 -7.4199023 1.2282387
-3.2166111 -7.4407468 1.2184858
-3.0447071 -7.5372472 1.2219023
-2.8718555 -7.6347136 1.2261128
-2.6505809 -8.2309933 1.2998058
-1.8216845 -7.4711127 1.1559178
-1.5684277 -7.1808691 1.1048356
-1.6191455 -8.3776436 1.2825847
-1.2222021 -8.5087032 1.2921083
-2.0680468 -21.838282 3.2972929
-0.48123536 -21.82876 3.2819769
0.045498047 -21.857752 3.2855444
1.1058984 -21.954817 3.3043115
1.6424561 -22.018694 3.3189213
3.3654344 -22.756018 3.457761
13.983647 -8.67941 2.4739172
13.648671 -8.0220394 2.3797178
14.966392 -7.3962712 2.5093873
16.710497 15.481255 3.4241028
14.044839 16.57539 3.2656677
12.738828 16.594835 3.1446514
10.945131 16.62155 2.9914923
9.3098974 16.645908 2.8668749
8.7936716 16.653601 2.830827
8.2899904 16.661102 2.7972875
7.3162498 16.675611 2.737226
6.8443065 16.682646 2.7104785
6.381279 16.689548 2.6858025
5.9263377 16.696325 2.6631067
5.4787693 16.702997 2.6423168
4.8005176 19.234722 2.9799407
4.8335547 24.302328 3.7245409
4.4020166 25.309238 3.8614593
2.8993311 28.945393 4.3726811
2.2355225 29.471663 4.4427452
-8.2820559 28.147736 4.4103575
-9.0288715 28.158905 4.4449496
-12.294438 21.10866 3.6718891
-20.153578 -6.4019189 3.1785419
-19.649872 -6.7679143 3.123944
-18.938789 -8.0982895 3.0961132
-18.265253 -8.8754768 3.0525086
-17.806381 -21.829863 4.2345219
-16.94772 -21.831911 4.1543889
-16.120493 -21.833879 4.0795588
-13.075435 -21.838432 3.8260424
-12.363906 -21.828054 3.7708576
-3.4801757 -7.3353586 1.2204127
-2.9495897 -7.5908303 1.2241246
-2.6537206 -7.3498302 1.1745918
-1.6792969 -7.3078756 1.127108
-2.8414745 -21.840666 3.3106396
-1.2454003 -21.826054 3.2861071
-0.71778321 -21.826769 3.2826512
0.33641112 -21.880474 3.2893384
0.86666501 -21.930738 3.2990808
1.4009277 -21.989187 3.3119965
3.0858886 -22.550972 3.4213281
5.7984715 -7.7456679 1.4543861
13.441826 -9.0087185 2.4323077
13.813627 -8.7825689 2.4605234
13.23457 -7.9727612 2.3224375
14.551601 -7.8355675 2.4842644
14.803642 -7.5164342 2.4956059
14.980547 -7.1571116 2.4955907
17.103188 15.504223 3.4699523
15.057714 16.560728 3.3644695
12.395605 16.599949 3.1141205
11.789136 16.608978 3.0615563
11.202519 16.617718 3.0124652
10.634087 16.626184 2.9666216
10.082368 16.634401 2.9238281
9.5460052 16.642393 2.8839045
8.514658 16.657759 2.812047
7.5312352 16.672411 2.7499273
7.0550537 16.679504 2.7222271
6.5881395 16.686464 2.6966319
16.370806 16.540581 2.9639208
14.881802 16.562756 2.83583
14.183725 16.573151 2.7782049
12.867554 16.592756 2.6742194
11.643613 16.610991 2.5835345
11.061586 16.619659 2.5426307
10.497377 16.628065 2.5044374
9.9495506 16.636229 2.4687901
8.8979006 16.651901 2.4045517
6.4750538 16.688009 2.2797492
6.0185251 16.694817 2.2601819
5.5695019 16.701511 2.2422407
4.7904148 18.799778 2.4708314
4.7744923 20.824429 2.7209947
2.2951562 28.403124 3.6291864
1.5933985 28.168259 3.5932195
-8.8754196 28.15638 3.7599084
-11.056514 22.882528 3.2366681
-13.709423 21.354383 3.2319226
-19.556826 -7.158772 2.6523676
-19.595444 -8.2651749 2.7085717
-18.339146 -8.8000441 2.5906384
-18.87536 -21.814894 3.6739683
-17.986074 -21.829842 3.6023505
-17.120609 -21.831896 3.5334966
-15.482173 -21.834562 3.4089622
-14.70459 -21.835815 3.3527856
-13.951817 -21.83703 3.3003197
-13.221777 -21.838205 3.2513354
-12.506748 -21.828974 3.2040935
-3.4535155 -7.1875834 1.0155888
-2.8600633 -7.8008451 1.0581775
-2.1617479 -7.5448914 0.99957442
-1.9573388 -7.5112362 0.98857158
-1.9239355 -8.1875839 1.0711651
-1.7298486 -8.2505436 1.0736285
-1.5348192 -8.3142691 1.0767887
-1.3385742 -8.3786831 1.0806332
-2.9509473 -21.841003 2.8069298
-2.4159229 -21.840065 2.7984972
-1.8836817 -21.837328 2.7915118
-0.29852539 -21.831276 2.7806695
0.22858886 -21.872448 2.7858069
0.75820798 -21.9203 2.7934198
1.8298047 -22.042141 2.8169224
5.7699656 -7.7872219 1.2342765
13.57167 -8.722846 2.0547023
13.7658 -7.936604 2.0237162
14.542695 -7.9233913 2.1092069
15.905234 -7.2271423 2.2249892
13.154419 16.588486 2.6963353
11.320615 16.615803 2.5606499
10.748584 16.624327 2.5212607
9.6542034 16.640629 2.4501796
9.1292238 16.648451 2.4181917
8.6175051 16.656078 2.3884022
8.1179247 16.663525 2.3606963
6.6826658 16.684917 2.2890828
6.2225194 16.691774 2.2687621
4.5806346 27.708088 3.5767713
3.9642675 28.189787 3.625551
-9.2906981 28.16259 3.7768986
-12.010386 21.388851 3.124151
-12.704701 21.39924 3.1695209
-13.419907 21.409941 3.218128
-13.863544 20.975725 3.2022009
-20.112089 -6.5745273 2.6948438
-19.488823 -6.8954391 2.6328576
-19.639374 -7.4864941 2.6768224
-19.140331 -7.8301206 2.6337895
-18.705498 -8.7278681 2.6288817
-17.904531 -8.8862066 2.5457077
-20.180536 -21.738991 3.7777343
-17.505043 -21.830984 3.5638256
-15.840581 -21.834934 3.4356017
-13.54685 -21.837683 3.2729113
-12.828588 -21.83884 3.2257452
-12.124116 -21.828833 3.1801343
-11.443931 -21.828583 3.1389575
-3.383496 -7.2884741 1.0233995
-3.1951365 -7.3414178 1.0197102
-2.9413915 -7.7615104 1.0571018
-2.62042 -8.0692148 1.0805194
-2.396831 -8.0355921 1.0679612
-2.0431299 -7.5062957 0.99077541
-1.8101758 -7.3452997 0.96347946
-1.8170751 -8.2221689 1.0724353
-2.122334 -21.838644 2.7944543
-1.5911719 -21.832184 2.787904
-1.0621191 -21.824018 2.7827775
-0.53499025 -21.828451 2.7808869
-0.0083154291 -21.853943 2.7832994
0.51999021 -21.896326 2.7894855
1.5874951 -22.012533 2.810775
2.6906006 -22.268616 2.8567376
3.3018651 -22.712248 2.9230182
14.579717 -8.1495857 2.1272571
14.701499 -7.7582889 2.1170957
14.742812 -7.3309922 2.0969586
14.770835 -6.9056683 2.0766423
15.534106 16.553041 2.8911133
12.803013 16.593718 2.669287
11.003222 16.620529 2.5386121
10.440752 16.628908 2.5006828
9.3632326 16.644966 2.4322758
8.3407764 16.660202 2.3728833
7.3648486 16.674746 2.3216014
6.8920069 16.681797 2.2987611
5.0825148 16.708769 2.2242839
4.7132521 16.953321 2.2410526
4.7785401 21.080158 2.7528636
4.8759274 24.203918 3.1445172
-8.2063913 28.146376 3.7339532
-8.9520502 28.157524 3.7629924
-11.381005 24.917976 3.4888799
-11.022798 22.670099 3.2104516
-11.70498 21.384287 3.1047802
-12.390498 21.394539 3.1487603
-13.096088 21.405094 3.1958892
-13.752905 21.306532 3.2297771
-20.132607 -6.3407416 2.6882317
-18.257368 -8.8161612 2.5821452
-18.786118 -21.820082 3.6670451
-17.896206 -21.830055 3.5951054
-16.203794 -21.834072 3.4628797
-15.40163 -21.834692 3.4030485
-14.626665 -21.835939 3.3472638
-3.1016455 -7.3936644 1.0211508
-2.4941161 -8.0426912 1.0724324
-1.9295068 -7.4798412 0.98381013
-1.904165 -8.1939764 1.0713844
-1.7099853 -8.257019 1.0739207
-1.3184717 -8.3852987 1.0810646
-2.3614991 -21.839802 2.7977123
-1.2993896 -21.827055 2.7847936
-0.24482422 -21.83547 2.7811174
0.81243652 -21.925758 2.7943609
1.3461865 -21.983053 2.8049846
1.8850341 -22.048889 2.8183703
2.4383056 -22.196814 2.8439722
3.023618 -22.50812 2.8923638
13.609311 -8.6997595 2.0571523
13.983266 -8.4707632 2.082175
14.318037 -7.7553539 2.0738499
14.7306 -7.5249925 2.1066909
16.643057 16.536528 2.9880528
15.130874 16.559048 2.8567779
12.458525 16.59885 2.6432354
11.261445 16.616684 2.5565076
10.691176 16.625177 2.5173917
10.137832 16.633423 2.4808757
8.5659418 16.656847 2.3854799
8.0675831 16.664274 2.3579781
6.1759958 16.692469 2.266783
5.724463 16.699202 2.2482834
4.7797022 18.122402 2.3869789
4.7614112 19.997616 2.618078
4.8539548 22.815437 2.9707873
4.4952683 27.613853 3.5631731
3.891001 28.171726 3.6219842
-8.6158104 28.152496 3.7496283
-9.3680372 28.163744 3.7801366
-11.564527 26.063105 3.6314635
-11.175737 23.632145 3.3293543
-11.371122 21.319399 3.0772991
-19.626215 -7.5368509 2.6775482
-19.865 -8.1836996 2.7362695
-12.305971 -7.7092605 1.8494282
-20.086226 -21.744476 3.7700818
-14.971406 -21.835384 3.3718383
-14.210278 -21.836613 3.3181176
-12.053935 -21.828808 3.1758001
-11.375468 -21.828556 3.1349139
-3.1778514 -7.3510704 1.0199615
-3.007915 -7.4461584 1.022788
-2.5956933 -7.4404569 1.0036187
-2.5968847 -8.0642529 1.0789955
-1.6026074 -8.2920856 1.0756155
-1.4068213 -8.3562498 1.079221
-3.1372654 -21.840927 2.8101921
-2.6012354 -21.840963 2.8013024
-1.5370947 -21.831234 2.7872894
-0.48123536 -21.828905 2.7807825
0.57407224 -21.901768 2.7903459
1.1059179 -21.955296 2.7997496
1.642495 -22.019257 2.8121424
2.1882324 -22.125648 2.8316491
3.3659129 -22.759235 2.9301238
13.814184 -8.5742311 2.070708
13.440209 -7.8995147 1.9855021
15.45873 16.554163 2.8846557
14.737017 16.564911 2.8237431
14.044692 16.575224 2.766922
13.379375 16.585135 2.7138989
12.120654 16.603882 2.6181469
11.523286 16.61278 2.5749543
10.945034 16.621397 2.5346222
6.8442578 16.682507 2.2965279
6.3812203 16.689411 2.27562
5.0378318 16.709436 2.2227173
4.8291845 24.280308 3.1529291
4.2143407 28.251427 3.6378894
3.4979882 28.074856 3.6032367
2.90291 28.981161 3.7094848
-9.0288086 28.158674 3.7661052
-11.341415 24.67041 3.4581175
-10.989658 22.461166 3.1846807
-10.835356 20.855873 2.9932714
-11.774092 21.385319 3.1091282
-12.461562 21.395605 3.1534221
-13.778915 21.231915 3.2236023
-20.127949 -6.393784 2.6897039
-19.7435 -6.8001614 2.6594841
-19.58812 -7.2797713 2.6614392
-19.650238 -7.8473582 2.6948192
-18.740469 -8.013484 2.5958147
-18.884678 -8.6197424 2.6438305
-18.176142 -8.8321714 2.5737224
-19.583242 -21.773726 3.7296844
-18.697203 -21.825256 3.6601715
-16.948032 -21.832306 3.5200152
-14.549004 -21.836067 3.3417833
-13.80103 -21.837273 3.2900488
-13.075459 -21.838442 3.2417493
-12.364394 -21.828922 3.1951172
-11.677876 -21.828669 3.1529143
-3.5529051 -7.044641 1.0048475
-3.4277148 -7.2247624 1.0184462
-3.2991259 -7.4102087 1.0330652
-2.9138818 -7.4989281 1.0246255
-2.8230371 -7.8187571 1.05871
-2.4709473 -8.0378428 1.070971
-2.1175585 -7.5304928 0.99627304
-1.9019433 -7.4487543 0.97910339
-1.6901269 -8.2634974 1.0742186
-1.2983545 -8.391923 1.0815029
-2.8415234 -21.841045 2.8050976
-2.3070898 -21.839539 2.7969403
-1.7752734 -21.835423 2.7901154
-1.2453907 -21.826107 2.7842743
-0.71779782 -21.826916 2.7813604
-0.19110352 -21.839664 2.7815869
1.4009619 -21.989746 2.8062718
2.4954345 -22.213076 2.8468323
3.0863233 -22.554123 2.899245
13.647021 -8.6766376 2.0596189
14.021938 -8.4470892 2.0848367
14.733374 -7.4807529 2.1044505
14.3756 -6.8680906 2.0290868
15.961069 -7.1579404 2.2278473
16.562538 16.537724 2.9808972
15.793096 16.549185 2.9134252
14.352036 16.570646 2.7919457
13.674922 16.580732 2.7372551
13.023452 16.590437 2.6862006
12.395483 16.599787 2.6385193
11.789028 16.608826 2.5939848
11.202416 16.617563 2.5523915
10.08228 16.634253 2.4772913
9.5459127 16.642242 2.4434648
9.0237494 16.650024 2.411938
8.0173779 16.665022 2.3552856
7.531167 16.67227 2.3299499
7.0549951 16.679365 2.3064802
6.5880809 16.686325 2.284796
16.37064 16.540403 2.4327323
15.609712 16.551739 2.3783104
13.512949 16.582975 2.2361579
11.061957 16.620224 2.0870361
3.61166 6.3836517 0.76671338
3.4111962 6.383903 0.7566368
7.4142623 16.675423 1.9077028
6.9403076 16.682215 1.8887721
6.4754004 16.688879 1.8712928
2.3376758 6.4845376 0.72056288
2.1624706 6.4847589 0.71458054
1.6525488 6.4854031 0.69961345
1.4869629 6.4856133 0.6955632
1.0002295 6.4862323 0.68605131
0.8406201 6.4864359 0.68372834
0.68199706 6.4866385 0.681817
-0.2595996 6.4878507 0.67874801
-0.4165625 6.4880548 0.67962354
-0.57401854 6.4882574 0.68089795
-0.73216307 6.4884648 0.68257463
-1.3754394 6.4893022 0.69342816
-1.5200536 6.405695 0.68821257
-1.8506885 6.4061284 0.69704908
-10.71769 27.011234 3.0377753
-10.071655 20.844269 2.419986
-10.97082 21.373117 2.5113873
-11.636001 21.383066 2.5448041
-13.748154 21.414654 2.6602044
-19.408604 -6.5781054 2.1422403
-19.879301 -7.2768064 2.2129309
-19.85144 -7.81463 2.2301726
-18.621019 -7.8541794 2.112617
-19.22784 -8.6622391 2.2045357
-18.250254 -8.7573853 2.1160631
-18.874819 -21.814264 3.0154686
-17.986372 -21.830246 2.9568255
-17.120918 -21.832293 2.9003069
-16.287451 -21.834265 2.8475335
-14.704599 -21.835827 2.7519367
-13.951806 -21.83704 2.7088714
-13.221777 -21.838217 2.6686633
-11.14457 -21.829315 2.5621099
-10.488501 -21.829058 2.5316398
-3.2759471 -7.2617326 0.83277524
-3.1272705 -7.4036107 0.84014785
-2.8373144 -7.7388139 0.86163437
-2.1960888 -7.6647215 0.83347106
-1.904668 -8.1056051 0.87039882
-1.7124853 -8.1677608 0.87238246
-3.4893506 -21.841169 2.3121228
-1.8836817 -21.837383 2.2912495
-1.3533642 -21.828058 2.2861774
-0.29854003 -21.831667 2.2823882
0.75822753 -21.920773 2.2928569
1.8298583 -22.042702 2.3121588
2.3813965 -22.181765 2.3320959
3.6598828 -23.392441 2.4750769
14.153798 -8.1603022 1.707863
14.5135 -7.4592185 1.7058179
15.204658 16.557774 2.3499269
14.493452 16.568371 2.3011277
13.810805 16.578539 2.2556
13.154297 16.588322 2.2131042
12.521704 16.597763 2.1734204
11.320912 16.616241 2.1018119
10.19416 16.633547 2.0393586
3.5005369 6.3837895 0.7610724
7.6302242 16.672327 1.916692
7.1519432 16.67918 1.8970875
6.6830616 16.685904 1.8789631
2.0671387 6.4848795 0.71150386
1.8961474 6.4850931 0.7063008
1.7275391 6.4853082 0.70158046
1.5610693 6.485518 0.69732589
1.2336475 6.4859333 0.69016099
1.0722558 6.4861407 0.68723035
0.43746582 6.4869523 0.67965209
-0.03267578 6.4875565 0.67818421
-0.34603515 6.4879632 0.67918134
-0.97924316 6.4887857 0.68598419
-1.14 6.4889946 0.68871367
-1.3021387 6.4892058 0.69186932
-1.6103173 6.4058123 0.69046432
-8.5396824 28.151133 3.0751984
-10.230771 23.211227 2.6516259
-9.9810247 21.240984 2.453346
-12.010278 21.388662 2.5642438
-14.157685 21.42078 2.6841083
-14.623222 21.005445 2.6754944
-19.904726 -7.0425973 2.2071407
-19.321459 -7.9042234 2.1822407
-18.909452 -8.2735987 2.1576288
-18.613495 -8.6849384 2.1471465
-19.271509 -21.791191 3.0409563
-18.386196 -21.829302 2.9835026
-17.505371 -21.831385 2.9252026
-16.657881 -21.833387 2.8707824
-14.286855 -21.836498 2.7278392
-13.546855 -21.837692 2.6863751
-11.444385 -21.829432 2.576524
-3.3332274 -7.180191 0.82751477
-2.7380419 -7.7867904 0.86284667
-2.5233643 -7.770371 0.85403305
-2.3729002 -7.9553723 0.86782008
-1.9907178 -8.0778904 0.86968672
-1.7988671 -8.1397448 0.87141889
-1.6062109 -8.2023153 0.87371457
-3.192246 -21.841284 2.3074377
-2.6558204 -21.841328 2.3000009
-2.1223485 -21.838745 2.2936683
-0.53499508 -21.828598 2.2825389
-0.0083154291 -21.854336 2.2845433
0.52000487 -21.896799 2.2896271
1.0515381 -21.950294 2.2972078
1.5875342 -22.013092 2.3071144
2.1317968 -22.110727 2.3220649
3.3023291 -22.715433 2.3995223
13.983677 -8.2652998 1.6980373
14.084257 -7.8726416 1.6866965
14.500473 -7.6521983 1.7139262
14.529624 -7.2249856 1.6962736
15.533945 16.552868 2.3729703
14.113926 16.574026 2.2756493
13.445967 16.583977 2.231822
12.182734 16.602985 2.1527064
11.583589 16.612204 2.1170452
3.5909569 6.383677 0.7656526
7.3654637 16.676121 1.9056998
6.8924704 16.682899 1.8869243
2.4975927 6.4843364 0.72638273
2.1447606 6.4847794 0.71399945
1.8029639 6.4852128 0.70364136
1.3065673 6.4858418 0.69161665
1.1445508 6.4860492 0.68849272
0.98389643 6.4862528 0.6857959
0.82439452 6.4864569 0.68351483
0.66585934 6.4866595 0.68164396
0.50810057 6.4868622 0.68017972
0.35092285 6.4870634 0.67911571
0.037597656 6.4874673 0.67817777
-0.11892578 6.487669 0.67830151
-0.59012693 6.4882779 0.68105042
-0.74834472 6.4884853 0.68276882
-1.2291601 6.4891105 0.69039869
-1.8677881 6.4061503 0.6975494
-9.7097406 28.168625 3.114635
-10.357685 24.206272 2.7523224
-10.087993 22.087009 2.5382924
-10.135483 20.845224 2.4229851
-11.704878 21.384096 2.5483475
-12.390386 21.394344 2.5844457
-13.823418 21.415781 2.6645637
-19.479364 -6.6555877 2.151854
-19.771963 -7.8396087 2.2234015
-18.785585 -21.819458 3.0097899
-17.896538 -21.830458 2.9508843
-17.034443 -21.832497 2.8947527
-15.401645 -21.834702 2.7931871
-14.626684 -21.835951 2.7474041
-13.876299 -21.837162 2.7046387
-13.148505 -21.838335 2.6647167
-12.435952 -21.829811 2.6262932
-11.747573 -21.829548 2.5914006
-11.076875 -21.829288 2.5588975
-3.2628369 -7.2804193 0.83399308
-3.1138573 -7.4227676 0.84144956
-2.9801707 -7.6139593 0.85472214
-2.8189549 -7.747683 0.86184704
-2.536875 -7.5332189 0.83093959
-1.4996045 -8.2370491 0.87521374
-3.4342382 -21.841188 2.3112242
-2.8962743 -21.8414 2.3031783
-1.2993994 -21.827108 2.2857349
-0.77158689 -21.826609 2.2830694
-0.2448291 -21.835861 2.2827561
0.8124463 -21.926233 2.2936318
1.3462158 -21.98361 2.3023634
2.4384277 -22.197994 2.3344266
3.0240331 -22.511244 2.3743513
13.650986 -7.8256993 1.6448582
15.879858 -7.1685009 1.8213035
22.743315 -7.7276196 2.5109642
14.422558 16.569427 2.2963374
13.088662 16.589298 2.2089274
11.850142 16.608105 2.1327567
10.691655 16.625914 2.0663385
3.3156738 6.4475198 0.75789028
7.1036863 16.679871 1.8951732
6.6357274 16.686583 1.8771958
2.3991551 6.4844608 0.72275954
2.2229247 6.4846821 0.71659726
2.0495801 6.4849014 0.71094924
1.7104639 6.4853287 0.70112592
1.5441895 6.485539 0.69691694
1.3798193 6.4857488 0.69316006
1.0558691 6.4861612 0.6869548
0.89586425 6.4863653 0.68448746
0.42143065 6.4869733 0.67954373
-0.048652343 6.4875784 0.67819715
-0.20522949 6.4877801 0.67853832
-0.51933593 6.4881864 0.68041062
-1.1564746 6.4890156 0.6890167
-1.3187743 6.4892278 0.69221675
-1.7927099 6.4060516 0.69538236
-8.6157417 28.152269 3.0776305
-9.3679638 28.163515 3.1026709
-9.957778 21.056671 2.4348826
-11.403208 21.379585 2.5329404
-12.0802 21.389706 2.5679278
-12.776596 21.400122 2.6054344
-13.494008 21.410854 2.6456103
-14.64078 20.920679 2.669281
-19.959354 -6.5790653 2.1968784
-19.899984 -7.096087 2.2085459
-18.529985 -8.7015905 2.1399765
-16.573174 -21.833588 2.8654363
-14.210278 -21.836622 2.7234764
-12.054395 -21.829664 2.606765
-3.3202684 -7.1986303 0.82869673
-2.7196288 -7.7956982 0.86309052
-2.299751 -7.7799673 0.84806669
-2.0103807 -7.4584007 0.80749065
-1.971167 -8.0841837 0.86983931
-1.779248 -8.1460896 0.87162685
-1.586499 -8.2087326 0.87397933
-1.3926367 -8.2719727 0.87688017
-1.008335 -21.824615 2.2838697
0.045493163 -21.85854 2.284987
1.1059521 -21.95577 2.2980573
2.1883495 -22.126822 2.3243103
2.7514989 -22.311272 2.3499789
3.3663964 -22.762438 2.405355
14.18582 -7.8836508 1.6965284
14.532665 -7.1819263 1.6945601
14.736865 16.564743 2.3176758
14.044556 16.575056 2.271039
13.379248 16.584972 2.2275178
12.738588 16.594517 2.1868804
11.52353 16.613127 2.113539
10.945439 16.622013 2.080467
10.384824 16.630623 2.0495863
3.7751465 6.3834491 0.77525252
3.5703173 6.3837028 0.76459974
3.370913 6.3839517 0.75466579
3.3160985 6.6647024 0.77816999
6.8446922 16.683586 1.8850901
2.3016796 6.4845829 0.71929914
2.1270654 6.4848013 0.71342266
1.7857764 6.4852347 0.70316434
1.4533983 6.4856548 0.69479138
0.80816895 6.4864774 0.6833055
0.64973146 6.48668 0.68147671
0.49204099 6.4868817 0.68005294
-0.13490234 6.4876885 0.67833525
-0.29160157 6.4878922 0.67889494
-9.0287352 28.158443 3.0911591
-9.7877979 28.169792 3.1174231
-12.46145 21.395407 2.5882726
-14.551118 21.279537 2.6948035
-19.692997 -7.8644385 2.2166936
-19.103041 -8.1685305 2.1718395
-18.871025 -8.613512 2.168462
-19.582676 -21.77309 3.0611944
-18.696684 -21.824629 3.0041478
-16.948345 -21.832703 2.889245
-16.121069 -21.834658 2.837204
-15.321352 -21.834831 2.7883728
-14.549018 -21.836077 2.7429008
-13.801044 -21.837284 2.7004383
-13.075449 -21.838453 2.6607964
-12.364882 -21.829784 2.6226196
-11.678334 -21.829521 2.5879772
-3.3770165 -7.1179147 0.82356578
-3.2496874 -7.2991581 0.83522141
-2.9662988 -7.6338325 0.85612977
-2.800581 -7.7565613 0.86206496
-2.5303369 -7.5753794 0.83490062
-2.4391015 -7.9342432 0.86771256
-2.1367626 -7.5987816 0.82514602
-2.8415771 -21.841423 2.3024375
-2.3070996 -21.839638 2.2957129
-1.2454052 -21.826162 2.2853088
-0.7178027 -21.827061 2.2829249
-0.19111328 -21.840057 2.2831376
0.33642578 -21.881262 2.2876279
0.86670899 -21.931694 2.2944212
1.4010059 -21.990303 2.3034182
2.4955711 -22.21426 2.3367743
3.0867479 -22.557255 2.3799968
5.7970362 -7.7437525 1.0111909
13.853588 -8.3456688 1.6906663
14.4904 -7.8026099 1.7203956
13.02333 16.590273 2.2047834
12.39543 16.599712 2.165659
10.082895 16.635256 2.033457
3.6615672 6.3835883 0.76929015
3.3157518 6.4868717 0.76155406
8.0182276 16.666759 1.9333982
7.0554881 16.680561 1.893271
21.348774 16.088718 2.1871891
16.372328 16.542122 1.9042647
15.61166 16.553808 1.8617079
14.883794 16.56498 1.8220429
5.532793 6.4649029 0.69620895
5.2682862 6.4652309 0.68235624
4.7689352 6.4658537 0.65735185
4.5324707 6.4661479 0.64607632
4.0824366 6.466712 0.62570709
3.8268309 6.3987284 0.61001557
3.2657323 6.4832292 0.59394133
3.0720751 6.4834733 0.58700192
2.6975 6.4839458 0.57458144
2.5158789 6.4841752 0.56905758
2.1624267 6.484622 0.55928189
1.8201269 6.4850564 0.55109632
1.6525146 6.4852691 0.54756761
1.4869336 6.4854803 0.54439664
1.3231689 6.4856901 0.5415768
1.1609912 6.4858952 0.53909761
1.0002148 6.4861016 0.53695339
0.6819824 6.4865093 0.53363889
0.36693847 6.4869123 0.53159499
0.053559568 6.4873161 0.53079772
-0.10294922 6.4875188 0.53086257
-0.25959471 6.4877214 0.53123778
-0.73214841 6.4883327 0.53423125
-1.2125878 6.4889579 0.54010433
-1.8506494 6.4059963 0.5455597
-9.6739159 26.207834 2.2856951
-9.4401703 23.791573 2.0942206
-10.939746 21.312578 1.9600618
-12.284609 21.332685 2.0141182
-12.986103 21.343176 2.0440974
-14.496758 21.425655 2.1165693
-15.228042 21.376701 2.1474106
-19.703905 -7.212604 1.7167506
-19.767128 -21.761692 2.4053864
-18.874281 -21.813643 2.3601031
-16.287724 -21.83465 2.2287641
-15.482178 -21.834585 2.1899908
-13.951821 -21.837053 2.1202004
-13.221802 -21.83823 2.0887275
-12.507725 -21.8307 2.0585403
-11.817446 -21.830425 2.0310347
-11.14498 -21.830153 2.0054078
-10.488901 -21.829885 1.9815571
-3.22791 -7.1552329 0.64224195
-3.0989647 -7.3365917 0.65162015
-2.8150342 -7.6780443 0.66909558
-2.448745 -7.8281894 0.67109281
-1.885874 -8.0256243 0.67452788
-1.5043114 -8.148984 0.67799938
-3.4894092 -21.841545 1.8097001
-2.4159374 -21.840265 1.7978315
-1.353374 -21.828115 1.7893647
0.22860351 -21.873232 1.7897233
0.75824708 -21.921247 1.794629
1.8299023 -22.043259 1.8097426
2.3815284 -22.182941 1.8253975
2.9620116 -22.468531 1.854239
3.6618652 -23.405054 1.9382536
5.7673097 -7.7836375 0.79256755
13.984936 -8.0629425 1.3207735
14.686982 -8.0020046 1.3684437
22.690132 -7.7719259 1.9624962
15.948936 16.548628 1.8804426
14.495693 16.570934 1.8013414
5.1269383 6.4654069 0.6751222
4.405571 6.4663076 0.64018291
3.7033496 6.383389 0.60380799
3.3144336 6.4062552 0.5901413
3.1584668 6.4833636 0.59005523
2.596992 6.4840727 0.57148266
2.4172606 6.4842997 0.56619841
2.2407274 6.4845233 0.561333
2.0670996 6.4847431 0.55687255
1.56104 6.4853864 0.54577726
1.3964893 6.4855947 0.54279983
1.2336181 6.4858036 0.54016888
0.91213375 6.4862151 0.53591061
0.7530908 6.4864178 0.53427094
0.43746093 6.4868231 0.53194535
-0.50323731 6.4880362 0.53243268
-0.81964844 6.4884467 0.5350914
-0.97922361 6.4886541 0.53689939
-1.1399755 6.4888639 0.53903687
-1.3021142 6.4890738 0.54150695
-1.4592822 6.4603152 0.54189223
-1.7756689 6.4058976 0.54388058
-9.2905416 28.162128 2.4263191
-9.7943068 27.445385 2.3842356
-9.1822901 20.832468 1.8627015
-11.303041 21.31801 1.9742054
-13.381733 21.349091 2.0615165
-14.157543 21.420584 2.1007974
-15.406401 21.029795 2.13293
-19.670801 -7.4984727 1.7223997
-19.072811 -8.3450813 1.7033372
-18.34123 -8.557909 1.6559645
-12.342075 -7.6896362 1.1897651
-20.17934 -21.737709 2.4267499
-15.841137 -21.835703 2.2071934
-15.050522 -21.835279 2.1698012
-14.286855 -21.836512 2.1350453
-13.546875 -21.837704 2.1025903
-12.125083 -21.830549 2.0431471
-10.133902 -21.829741 1.9691374
-3.1573045 -7.2544889 0.64732617
-2.5227685 -7.7685161 0.6682803
-1.9710888 -7.9982481 0.67398041
-1.7810888 -8.0593348 0.67531019
-3.1922948 -21.84166 1.8060359
-2.6558349 -21.841427 1.8001884
-1.5911816 -21.832294 1.7910151
-0.53499025 -21.828745 1.7865242
1.5875683 -22.013649 1.8057942
2.1319139 -22.111895 1.8175431
14.504052 -8.1072912 1.3595036
15.668506 -7.3253479 1.4151524
14.811255 16.566095 1.8181486
5.5053077 6.4649382 0.69475019
4.5087986 6.466177 0.64496732
3.590874 6.383532 0.59925199
3.2457616 6.4832549 0.59321046
3.0525682 6.4834991 0.58632231
2.8637011 6.4837346 0.57992536
2.3196142 6.4844232 0.56346649
1.9725683 6.4848638 0.55458218
1.4701415 6.4855008 0.54409331
1.1445312 6.4859161 0.53886455
0.50808591 6.4867325 0.53235811
0.35091797 6.4869328 0.53152388
0.037597656 6.4873371 0.53078979
-0.59011716 6.4881496 0.53303879
-0.74833006 6.4883537 0.53438336
-1.0676416 6.48877 0.53803647
-1.2291309 6.4889789 0.54035568
-1.3921143 6.4891911 0.54301238
-1.7011621 6.4057989 0.54227662
-1.867749 6.4060187 0.54594988
-9.6479979 25.940823 2.2644715
-9.2264156 21.562447 1.9189219
-9.725976 21.294428 1.9153974
-10.439732 21.470949 1.9533668
-11.00664 21.313576 1.9626378
-11.671738 21.323521 1.9889072
-15.308359 21.377903 2.1513054
-19.930307 -6.8096662 1.7232172
-19.697779 -7.2654166 1.7177708
-19.877182 -7.8813291 1.7494905
-19.674463 -21.767082 2.4006221
-16.204374 -21.834846 2.224705
-15.40165 -21.834713 2.1861937
-13.148491 -21.838346 2.08564
-11.748036 -21.830397 2.0283377
-3.0856006 -7.3554082 0.65261382
-2.9524364 -7.5431061 0.66275388
-2.7968113 -7.6868296 0.66925889
-2.6021044 -7.7269192 0.66708726
-2.4167528 -7.7932181 0.66758299
-2.1201415 -7.4690447 0.63524628
-1.8664892 -8.0318556 0.67466247
-1.6760741 -8.0933027 0.67623061
-3.9764111 -21.841705 1.8164268
-2.8963134 -21.841778 1.8027009
-1.8294531 -21.836483 1.7928804
-0.77158689 -21.826752 1.7869391
1.3462499 -21.984161 1.802075
13.975156 -8.465848 1.3368611
14.942436 -7.6332102 1.3728459
15.528471 -7.4658813 1.4097291
15.827188 -7.1447229 1.4207835
22.739183 -7.7262158 1.96494
16.644468 16.537939 1.919753
5.3588428 6.4651189 0.68705273
4.6135936 6.4660478 0.64990139
3.8998582 6.3986382 0.61309659
3.6823926 6.3834171 0.60294998
3.3145018 6.4452395 0.5929817
3.1387451 6.4833889 0.58935195
2.7613573 6.4838653 0.57660323
2.3991015 6.484323 0.56568223
2.2228808 6.4845452 0.5608601
1.7104297 6.4851947 0.54874998
1.2170947 6.4858246 0.53992021
1.0558496 6.4860306 0.53766036
0.73690915 6.4864383 0.53412151
0.57883787 6.4866409 0.5328334
0.26450196 6.4870462 0.53119808
0.10786133 6.4872465 0.53084761
-0.04864746 6.4874492 0.53080505
-0.51932615 6.4880581 0.53253704
-0.67719728 6.4882622 0.53373963
-1.1564502 6.4888859 0.53927231
-1.6270654 6.4057026 0.54074401
-8.6156635 28.152039 2.4088016
-9.5164204 24.581938 2.1567037
-9.3087006 22.423212 1.986432
-9.2432909 20.831709 1.8646592
-10.753036 21.38759 1.9586134
-12.740415 21.339502 2.0334632
-14.234209 21.421728 2.1043391
-15.42229 20.943211 2.1279988
-20.980888 -6.9157867 1.8074698
-19.55538 -6.9732084 1.6986637
-19.00868 -7.8309288 1.6820683
-18.996084 -8.3673134 1.6983213
-18.268906 -8.5789938 1.6513352
-12.307998 -7.7105231 1.1883051
-18.294975 -21.829922 2.3303869
-12.756459 -21.838976 2.0693069
-10.714741 -21.829977 1.9896351
-10.068647 -21.829716 1.9668956
-2.7121191 -7.7741799 0.67366379
-1.9687451 -7.3039541 0.61892408
-1.5707763 -8.1274195 0.67727643
-3.6771386 -21.841473 1.81218
-3.137373 -21.841682 1.8053905
-2.0680711 -21.838579 1.7947868
1.6425781 -22.02037 1.8066713
2.188457 -22.127991 1.8193055
2.7518799 -22.314323 1.8395479
14.331797 -8.4235449 1.3601451
13.965581 -7.7612567 1.3072362
16.214272 16.54455 1.8953334
5.2155809 6.4652982 0.67964399
4.9632225 6.4656119 0.6668939
4.4851904 6.4662075 0.64386672
4.0380812 6.4667668 0.62377989
3.5702391 6.3835578 0.59842771
3.3708398 6.3838077 0.59065366
3.2258348 6.4832807 0.59248382
2.8446581 6.4837589 0.57929975
2.6601367 6.4839935 0.57341903
2.301626 6.484446 0.56297439
2.1270216 6.4846659 0.55837554
1.6185595 6.4853129 0.54689085
1.289956 6.4857316 0.54104352
0.9675439 6.4861431 0.53655469
0.80815917 6.4863467 0.53480393
0.33489746 6.4869547 0.53145659
-0.60622066 6.4881706 0.53316146
-0.76452637 6.4883747 0.53453809
-0.92373532 6.4885821 0.53623623
-1.2456933 6.4890008 0.54061157
-1.408833 6.4892144 0.54330248
-1.5533788 6.4056058 0.53928345
-1.7180468 6.4058218 0.54263455
-9.028657 28.158215 2.4193873
-9.6226072 25.678982 2.2436769
-9.7898483 21.295383 1.9176463
-10.505634 21.471935 1.9558018
