# .PCD v0.7 - Point Cloud Data file format
VERSION 0.7
FIELDS x y z
SIZE 4 4 4
TYPE F F F
COUNT 1 1 1
WIDTH 1499
HEIGHT 1
VIEWPOINT 0 0 0 1 0 0 0
POINTS 1499
DATA ascii
3.3950975 5.2877607 -1.7980409
3.2648926 5.3654609 -1.7971435
2.9991698 5.5110955 -1.7953091
2.8638279 5.578948 -1.7943732
2.7269433 5.6434455 -1.7934259
2.5885839 5.7045503 -1.7924674
2.0223143 5.9144669 -1.788535
1.8779297 5.9581952 -1.7875302
1.732666 5.9983706 -1.7865182
1.5864941 6.0349908 -1.7854992
1.4395996 6.0680289 -1.7844741
0.99519527 6.1455483 -1.7813684
0.84611326 6.164156 -1.7803247
0.69671875 6.1791425 -1.779278
0.54708004 6.1904998 -1.778229
0.39734375 6.1982365 -1.7771782
-0.051953122 6.1997004 -1.7740207
-0.20142578 6.1929679 -1.7729684
-0.49936521 6.168725 -1.7708688
-0.64767575 6.1512432 -1.7698224
-0.94256836 6.1056376 -1.7677392
-1.0889844 6.0775552 -1.7667037
-1.2346094 6.0459795 -1.7656729
-1.3793163 6.0109382 -1.7646478
-1.5230664 5.9724493 -1.7636286
-1.6657715 5.9305573 -1.7626163
-2.2245703 5.7294607 -1.7586427
-2.3608594 5.6709809 -1.7576715
-2.4956446 5.6092911 -1.7567101
-2.628828 5.5444388 -1.7557591
-2.760371 5.4764619 -1.754819
-2.8901856 5.4053974 -1.7538904
-3.1443455 5.2542009 -1.7520695
-3.2685449 5.1741691 -1.7511783
-3.3907421 5.0912418 -1.7503005
-3.5108593 5.0054731 -1.7494369
-4.184453 4.4341593 -1.7445722
-4.2885642 4.3300261 -1.7438165
-4.4798827 4.31002 -1.7787889
-4.6933494 4.3022075 -1.8217825
-5.1789646 4.0992193 -1.8899093
-5.3667383 3.8417938 -1.8885309
-5.4559665 3.709882 -1.8878735
-5.6248922 3.4400659 -1.8866247
-5.704453 3.3023088 -1.8860343
-5.9232421 2.8785436 -1.8843997
-6.0521092 2.5880938 -1.8834277
-6.1113377 2.4407196 -1.8829778
-6.1670508 2.2920341 -1.8825525
-6.3543162 1.6856933 -1.881098
-6.3921485 1.5316418 -1.880797
-6.526123 0.75066221 -1.8796771
-6.5538182 0.43487731 -1.8794105
-6.5665917 0.11817749 -1.8792486
-6.5644531 -0.19875671 -1.8791914
-6.5473828 -0.51525021 -1.8792392
-6.5154295 -0.83059263 -1.8793919
-6.4071679 -1.4551349 -1.8800105
-6.3709373 -1.6094918 -1.8802301
-6.2875781 -1.9155184 -1.8807461
-6.2405176 -2.0669928 -1.8810422
-6.1898828 -2.2173536 -1.8813637
-6.0780272 -2.51436 -1.8820825
-6.0168457 -2.6608355 -1.8824791
-5.9522266 -2.8058798 -1.8829
-5.4939256 -3.6411819 -1.885931
-5.1241598 -4.1591892 -1.8884119
-4.9210935 -4.4047561 -1.8897831
-4.8152342 -4.5239267 -1.8905002
-4.7064743 -4.6406116 -1.8912379
-4.5949903 -4.7547235 -1.8919953
-4.2443748 -5.0810461 -1.8943853
-3.8709667 -5.3819933 -1.8969415
-3.6102245 -5.5677299 -1.8987318
-3.4764745 -5.655962 -1.8996518
-3.2027538 -5.8228741 -1.9015375
-2.4756932 -6.1588006 -1.8993058
-2.305918 -6.1621246 -1.8826177
-2.1389551 -6.1652188 -1.8672462
-1.6524805 -6.1732206 -1.8285726
-1.494375 -6.1754837 -1.8180288
-1.3379492 -6.1775556 -1.8086059
-1.1830175 -6.1794415 -1.8002722
-0.7253418 -6.184021 -1.7816018
-0.42440429 -6.1862116 -1.7742585
-0.12521484 -6.1877337 -1.7708969
0.024189452 -6.1918707 -1.7717307
0.77478516 -6.1883597 -1.7845358
0.92688477 -6.1878858 -1.7903301
1.7068163 -6.1829081 -1.8353231
1.8680176 -6.181366 -1.8477097
2.031455 -6.1796288 -1.8613049
2.1973436 -6.1776929 -1.8761494
2.365957 -6.175549 -1.89229
2.537539 -6.1731906 -1.9097793
2.7123241 -6.1706104 -1.9286691
2.8835351 -6.1526389 -1.9442409
3.0327637 -6.0846057 -1.9453055
3.1804783 -6.012908 -1.94636
3.4705076 -5.858707 -1.9484338
3.8912108 -5.6009898 -1.9514495
4.0272264 -5.5082264 -1.9524267
4.1610255 -5.4121127 -1.9533889
4.2924805 -5.3127117 -1.9543356
4.5480762 -5.104249 -1.9561795
4.9119725 -4.7683215 -1.9588138
5.5619922 -4.0194073 -1.9635534
5.7535543 -3.7490811 -1.9649615
5.844336 -3.6103976 -1.9656312
6.0959473 -3.1812224 -1.9674975
6.3811131 -2.5817184 -1.9696386
6.5555663 -2.1148314 -1.9709712
6.6059961 -1.9564307 -1.9713616
6.6524997 -1.7967901 -1.971725
6.7336426 -1.474234 -1.9723687
6.7682128 -1.3115094 -1.972649
6.8476758 -0.81880677 -1.9733196
6.8660059 -0.65338558 -1.9734863
6.8904099 -0.3214221 -1.9737334
6.8964353 -0.15506652 -1.9738138
6.8898435 0.34416932 -1.9738811
6.8648338 0.67612731 -1.9737811
6.8235059 1.0064343 -1.9735659
6.796699 1.1706891 -1.9734149
6.7309861 1.4969336 -1.9730276
6.6921091 1.658717 -1.9727911
6.5516891 2.1374738 -1.9719132
6.4385738 2.4501617 -1.9711895
6.3102145 2.7567644 -1.9703572
6.1669235 3.05653 -1.9694183
6.0897946 3.2036066 -1.9689097
6.0090818 3.3487146 -1.9683756
5.9248533 3.4917462 -1.9678161
5.6515331 3.9075153 -1.9659899
5.4527049 4.1727762 -1.9646528
5.3104687 4.2709808 -1.9499731
4.5134568 4.4105144 -1.8057016
4.2918653 4.6192584 -1.8041917
4.1773438 4.7194328 -1.8034097
4.0604491 4.8167191 -1.8026102
3.9412596 4.9110637 -1.8017939
3.6963086 5.0907316 -1.8001132
3.1822069 5.4126043 -1.7965732
2.6402049 5.6822195 -1.792825
2.3604491 5.7966962 -1.7908846
2.2186718 5.8487458 -1.7899002
1.7868066 5.9838409 -1.7868954
1.640957 6.0217853 -1.7858789
1.4943457 6.0561566 -1.7848563
1.3469824 6.0869412 -1.7838274
1.0505469 6.1376996 -1.7817554
0.60276365 6.1866975 -1.7786193
0.15342773 6.2030716 -1.7754649
0.0037207031 6.2012882 -1.7744122
-0.29512694 6.1868987 -1.7723085
-0.44407225 6.1743169 -1.7712587
-0.7405566 6.1384463 -1.7691665
-1.0346093 6.0884061 -1.7670883
-1.1805176 6.0581303 -1.7660558
-1.3255762 6.0243754 -1.7650286
-1.6128125 5.9465351 -1.762992
-1.895664 5.855125 -1.7609831
-2.0352538 5.8044047 -1.7599905
-2.173496 5.7503901 -1.7590066
-2.4456933 5.6326141 -1.7570662
-2.5794823 5.5689287 -1.7561116
-2.7116406 5.5021024 -1.7551674
-2.8421092 5.4321856 -1.7542346
-2.9708104 5.3592081 -1.7533133
-3.2225683 5.2042756 -1.7515085
-3.4664257 5.037703 -1.7497565
-3.8162205 4.7668986 -1.747236
-3.9283006 4.6712666 -1.7464263
-4.0380468 4.5730376 -1.7456328
-4.1507616 4.4784541 -1.7472659
-4.2501559 4.3690472 -1.7440953
-4.4029784 4.3127861 -1.7635496
-4.612793 4.3051777 -1.8054354
-4.8327146 4.2970076 -1.8503882
-5.2392087 4.0193291 -1.8894677
-5.4231639 3.7591999 -1.8881155
-5.5104098 3.626004 -1.8874717
-5.5944529 3.490833 -1.8868502
-5.6752634 3.3537652 -1.886251
-5.7527537 3.214859 -1.8856747
-5.8977833 2.9318933 -1.8845909
-5.9651856 2.7879851 -1.8840842
-6.1467381 2.3474908 -1.8827078
-6.2501755 2.0473456 -1.8819124
-6.3393359 1.7427856 -1.8812163
-6.3784962 1.5890466 -1.880906
-6.4139938 1.4344653 -1.8806212
-6.4458594 1.2790997 -1.8803618
-6.5364256 0.65164733 -1.8795822
-6.5594234 0.33549988 -1.8793484
-6.5653415 0.17711425 -1.8792708
-6.5659666 -0.13982788 -1.8791941
-6.5606833 -0.2982263 -1.8791952
-6.5389452 -0.61442137 -1.8792758
-6.5023336 -0.92926329 -1.8794613
-6.4509177 -1.2420727 -1.8797516
-6.3848338 -1.5521747 -1.8801452
-6.3463082 -1.7060034 -1.8803811
-6.3041892 -1.8588873 -1.8806422
-6.2091403 -2.1615522 -1.8812411
-6.1562696 -2.3111632 -1.8815787
-6.04 -2.6065154 -1.8823287
-5.9766603 -2.7521067 -1.8827407
-5.9099021 -2.8961828 -1.8831772
-5.7661619 -3.1795247 -1.8841227
-5.6893358 -3.3186367 -1.884631
-5.5257521 -3.5913184 -1.8857187
-5.2565427 -3.9854071 -1.887521
-5.1606054 -4.1124845 -1.8881662
-5.0616598 -4.2373095 -1.8888333
-4.9597459 -4.3598051 -1.8895217
-4.7472653 -4.5975037 -1.8909609
-4.6367674 -4.7125783 -1.8917114
-4.5235643 -4.8250556 -1.8924814
-4.4076462 -4.934854 -1.8932711
-4.2891307 -5.0419302 -1.8940798
-4.0444531 -5.2476158 -1.8957525
-3.526494 -5.6235013 -1.8993075
-3.3914256 -5.7097573 -1.9002371
-3.1151464 -5.8726068 -1.9021419
-2.9740527 -5.9491081 -1.9031161
-2.8311229 -6.022265 -1.9041042
-2.686367 -6.0920267 -1.9051056
-2.539619 -6.1575046 -1.9058592
-1.711748 -6.1723289 -1.8327851
-1.552959 -6.174665 -1.8218193
-1.0864062 -6.180532 -1.7955871
-0.78163081 -6.183538 -1.7834134
-0.63059568 -6.1847816 -1.7788634
-0.33032227 -6.1867609 -1.7727767
-0.18078125 -6.187501 -1.7712224
0.11795899 -6.1930985 -1.7723898
0.26753905 -6.1921177 -1.7734413
0.41721678 -6.1888194 -1.7748636
0.71846676 -6.1884937 -1.7826437
1.0229297 -6.187501 -1.7944975
1.1768261 -6.186749 -1.801993
1.33208 -6.1858234 -1.8105605
1.647373 -6.1834335 -1.8310161
1.8078027 -6.1819615 -1.8429627
1.9703808 -6.1802979 -1.8561047
2.1353612 -6.1784368 -1.8704791
2.6469042 -6.1715965 -1.9214752
2.8238573 -6.1688695 -1.941282
3.1257226 -6.0400023 -1.945969
3.4171386 -5.8884616 -1.9480518
3.8400781 -5.6346216 -1.9510825
4.1115427 -5.4482498 -1.9530329
4.2438574 -5.3500695 -1.9539852
4.3738279 -5.2486167 -1.9549218
4.7485743 -4.9253168 -1.9576297
4.8681836 -4.8114381 -1.9584963
4.9850097 -4.694603 -1.9593441
5.0990233 -4.5748887 -1.9601727
5.3181052 -4.3270831 -1.9617691
5.4230957 -4.1991425 -1.9625361
5.6235743 -3.9355659 -1.9640054
5.7189355 -3.8000777 -1.9647064
6.0664549 -3.2354517 -1.9672778
6.1446095 -3.0890477 -1.9678603
6.2191014 -2.9407151 -1.9684179
6.2899413 -2.790545 -1.9689502
6.3570995 -2.6386459 -1.9694568
6.4204884 -2.4850876 -1.9699374
6.53582 -2.1734188 -1.970819
6.5876951 -2.0155008 -1.9712195
6.635654 -1.8563031 -1.971593
6.679697 -1.6959424 -1.9719391
6.7197657 -1.5345287 -1.9722576
6.8158689 -1.0448724 -1.9730448
6.8398046 -0.88020629 -1.9732504
6.8596778 -0.71496701 -1.9734277
6.8871188 -0.38325012 -1.9736962
6.8946776 -0.21695983 -1.9737873
6.8981347 -0.050544433 -1.9738494
6.8926463 0.28231445 -1.9738868
6.88375 0.44854796 -1.9738623
6.8707519 0.61449158 -1.9738085
6.8536325 0.78007382 -1.9737262
6.8324313 0.94517148 -1.9736148
6.7444334 1.4365155 -1.9731082
6.7070408 1.5986573 -1.9728824
6.6656637 1.7597919 -1.9726282
6.6202927 1.9198498 -1.9723458
6.4607811 2.3924468 -1.9713323
6.3998828 2.5471263 -1.9709398
6.3352051 2.700238 -1.97052
6.2668066 2.8516626 -1.9700737
6.1946678 3.0013306 -1.9696008
5.8701758 3.5804682 -1.967452
5.7803025 3.7199395 -1.9668521
5.3876266 4.2539873 -1.964214
4.9208593 4.2865925 -1.8673452
4.3338671 4.5812798 -1.8044782
4.2202344 4.6825042 -1.8037025
3.865283 4.9687967 -1.801273
3.490752 5.2278738 -1.7986996
3.3619237 5.3079634 -1.7978125
3.2312694 5.3848357 -1.7969116
3.0988085 5.4584599 -1.7959973
2.8289158 5.5957856 -1.7941318
2.5529394 5.7196465 -1.7922201
2.4128516 5.7764497 -1.7912484
2.271543 5.8297915 -1.7902673
2.1290331 5.8796501 -1.789277
1.9854199 5.9260025 -1.7882785
1.4018847 6.0759125 -1.7842109
1.2541406 6.104434 -1.7831789
0.80790037 6.168334 -1.7800571
0.50875974 6.1928263 -1.7779601
0.20915039 6.2028117 -1.7758566
-0.3886914 6.1794171 -1.7716491
-0.53737301 6.1645904 -1.7706008
-0.83316404 6.1242533 -1.7685125
-1.1263379 6.0698004 -1.7664394
-1.2717383 6.0373297 -1.7654099
-1.5597265 5.9620476 -1.7633688
-1.7021484 5.9192777 -1.762358
-1.8434374 5.8731427 -1.7613543
-1.9834863 5.8236551 -1.7603587
-2.1222363 5.7708635 -1.7593714
-2.5299022 5.5929861 -1.7564654
-2.6626854 5.5273237 -1.7555172
-2.7937889 5.4585514 -1.75458
-2.9231446 5.3867059 -1.7536545
-3.1763279 5.2339873 -1.7518401
-3.3000097 5.1532111 -1.7509521
-3.421699 5.0695453 -1.7500781
-3.5412891 4.983057 -1.7492176
-3.6587207 4.8937969 -1.748372
-3.7739356 4.8018012 -1.7475412
-3.9975097 4.6098676 -1.7459259
-4.1057324 4.5100508 -1.7451426
-4.7496676 4.3001151 -1.8332922
-4.9764743 4.2915668 -1.880307
-5.2036815 4.0667548 -1.8897281
-5.2983594 3.9385612 -1.8890334
-5.3898826 3.8082182 -1.8883605
-5.5635743 3.5413365 -1.8870788
-5.799746 3.1267328 -1.8853244
-5.8718262 2.9850171 -1.8847853
-6.0057812 2.69682 -1.883778
-6.0675974 2.5504792 -1.8833102
-6.125947 2.4027734 -1.8828665
-6.1807618 2.2537498 -1.8824471
-6.2320313 2.1035223 -1.8820525
-6.4012203 1.4920459 -1.8807242
-6.4344335 1.3369726 -1.8804553
-6.4898534 1.0247382 -1.8799945
-6.5562792 0.39436951 -1.8793839
-6.5671582 0.077584229 -1.8792351
-6.5669918 -0.080886841 -1.8792003
-6.5630856 -0.23932678 -1.8791918
-6.555459 -0.39761475 -1.8792093
-6.5441113 -0.55569762 -1.8792529
-6.5290427 -0.71345824 -1.8793228
-6.4317379 -1.3397833 -1.879864
-6.3982224 -1.4947393 -1.8800644
-6.3610644 -1.648891 -1.8802904
-6.1763573 -2.2556603 -1.8814502
-5.9351072 -2.8427682 -1.8830121
-5.7939157 -3.127337 -1.8839395
-5.7182908 -3.267101 -1.8844393
-5.6393356 -3.4050808 -1.8849627
-5.557168 -3.5411856 -1.8855093
-5.1966505 -4.0654731 -1.8879238
-5.0988083 -4.1911473 -1.8885827
-4.6781931 -4.670074 -1.89143
-4.3335056 -5.0024252 -1.8937768
-3.9655859 -5.309824 -1.8962928
-3.5761817 -5.5906196 -1.8989658
-3.167119 -5.8433065 -1.9017833
-2.8844824 -5.9954495 -1.9037353
-2.7404394 -6.0664806 -1.9047314
-2.5945897 -6.1340799 -1.9057412
-2.2629199 -6.1629376 -1.8785577
-1.932832 -6.1687975 -1.8497306
-1.7712988 -6.1714096 -1.837159
-1.6118164 -6.1738191 -1.8257637
-1.2981542 -6.1780567 -1.8063684
-1.1435742 -6.1798944 -1.7983118
-0.8380273 -6.183032 -1.7853652
-0.68668944 -6.184339 -1.7804385
-0.53607422 -6.1854753 -1.7765225
-0.38603514 -6.1864433 -1.7736083
-0.23637694 -6.1872449 -1.7716849
0.21200195 -6.1929049 -1.7730508
0.36146483 -6.188807 -1.7738583
0.66223633 -6.1886053 -1.780892
0.81364256 -6.1882544 -1.7859226
1.4303613 -6.1851511 -1.8164999
1.9096484 -6.1809392 -1.8510756
2.0737011 -6.179152 -1.8649856
2.4096093 -6.1749663 -1.8966378
2.5819726 -6.1725516 -1.9144796
2.757627 -6.1699119 -1.9337401
2.921875 -6.1355686 -1.9445144
3.0707617 -6.0665879 -1.9455768
3.2179883 -5.9939685 -1.946628
3.3634765 -5.9177322 -1.947668
3.6488671 -5.7546067 -1.9497111
3.7886035 -5.6678009 -1.950713
3.9262598 -5.5775547 -1.951701
4.0617185 -5.4839263 -1.9526746
4.194922 -5.3869739 -1.953633
4.4541893 -5.1832719 -1.9555017
4.9418845 -4.7384086 -1.959031
5.0569334 -4.6197505 -1.9598666
5.1691012 -4.4982505 -1.9606826
5.5872459 -3.9853392 -1.9637387
5.6838379 -3.8507638 -1.9644482
5.7771287 -3.7137861 -1.9651351
6.0365329 -3.2893975 -1.9670553
6.1159568 -3.1437347 -1.9676467
6.1917968 -2.9961121 -1.9682133
6.2640038 -2.8466268 -1.9687551
6.3325291 -2.6953516 -1.9692712
6.4583492 -2.3878572 -1.9702255
6.5155368 -2.2318172 -1.9706631
6.5688572 -2.0743952 -1.9710737
6.6637793 -1.7557309 -1.9718136
6.7053223 -1.5946881 -1.9721423
6.7428613 -1.4326575 -1.972443
6.7764258 -1.2697076 -1.9727162
6.8059278 -1.1059613 -1.9729608
6.8527637 -0.77648497 -1.9733652
6.8832517 -0.44504333 -1.9736551
6.8923535 -0.27884644 -1.9737567
6.8973141 -0.11245666 -1.9738296
6.8981833 0.054011229 -1.9738737
6.8760738 0.55280334 -1.973832
6.8407812 0.88381165 -1.9736593
6.7573142 1.375976 -1.9731851
6.6815133 1.699978 -1.9727261
6.4229684 2.4897692 -1.9710888
6.3597069 2.6434801 -1.9706793
6.2926755 2.7955382 -1.9702427
6.2219334 2.945874 -1.9697796
6.1475196 3.0943725 -1.9692906
5.8141308 3.6683295 -1.9670782
5.6267967 3.9420354 -1.9658239
5.4262986 4.2060122 -1.9644748
5.2469625 4.2735615 -1.936312
4.7790527 4.2921391 -1.8379996
4.0301466 4.8411551 -1.8024027
3.014746 5.5030146 -1.7954167
2.1821778 5.8615141 -1.7896466
2.0389941 5.9091706 -1.788651
1.8947265 5.9533072 -1.787647
1.7495507 5.9938931 -1.786636
1.6034961 6.0309296 -1.7856176
1.4566699 6.0643864 -1.7845935
1.3091503 6.0942426 -1.7835631
0.86341792 6.1621819 -1.7804458
0.71405274 6.1775918 -1.7793996
0.56445312 6.1893716 -1.7783508
0.11508789 6.2029581 -1.7751952
-0.18410155 6.1939325 -1.7730905
-0.33329099 6.18402 -1.7720394
-0.48213866 6.1705217 -1.7709903
-0.63049805 6.15345 -1.7699435
-0.9255566 6.1086626 -1.7678595
-1.2177734 6.0498161 -1.7657923
-1.3625878 6.0151763 -1.7647665
-1.6493067 5.9355912 -1.7627331
-2.2086816 5.7360296 -1.7587559
-2.3451562 5.6779251 -1.7577834
-2.6134863 5.5521183 -1.7558688
-2.8752344 5.4137869 -1.7539974
-3.2542479 5.1835966 -1.7512808
-3.4970312 5.0155549 -1.749536
-3.6153026 4.9273162 -1.748685
-3.7313378 4.8363385 -1.7478485
-4.1725488 4.4460721 -1.7446585
-4.455781 4.3108916 -1.7739966
-4.6680665 4.3031416 -1.8166412
-4.8907809 4.2948184 -1.8624233
-5.3562107 3.85695 -1.8886082
-5.4458008 3.7252789 -1.8879485
-5.5322361 3.5915802 -1.8873104
-5.6954103 3.3183696 -1.8861014
-5.7720799 3.1790142 -1.8855307
-5.8454003 3.0379205 -1.8849832
-5.981904 2.75088 -1.8839582
-6.0450196 2.6050866 -1.8834814
-6.3078613 1.8565447 -1.8814633
-6.4225192 1.3947436 -1.8805523
-6.5613084 0.29494932 -1.879326
-6.548779 -0.49693298 -1.8792337
-6.535078 -0.65481508 -1.8792938
-6.5176854 -0.81235719 -1.8793801
-6.4717579 -1.1260034 -1.8796314
-6.4432712 -1.2819402 -1.8797961
-6.2928028 -1.8978882 -1.8807133
-6.0241208 -2.6439419 -1.8824317
-5.9599023 -2.7891448 -1.8828501
-5.8922558 -2.9328334 -1.8832927
-5.8212008 -3.0749118 -1.8837597
-5.6690917 -3.3539631 -1.8847653
-5.5039062 -3.6256719 -1.8858644
-5.4164939 -3.7585895 -1.8864483
-5.3259177 -3.8894432 -1.8870552
-5.0358496 -4.2688956 -1.8890076
-4.9331837 -4.3907838 -1.8897015
-4.7192478 -4.6272163 -1.8911511
-4.1366796 -5.1724534 -1.8951216
-4.0124216 -5.2731137 -1.8959721
-3.8858006 -5.3708558 -1.8968397
-3.4920995 -5.6458955 -1.8995441
-3.3565135 -5.7313285 -1.9004778
-3.2188573 -5.8135533 -1.9014266
-2.7942383 -6.0404487 -1.9043592
-2.495537 -6.1584001 -1.9013264
-1.9934961 -6.1677723 -1.8547167
-1.3559864 -6.1773252 -1.8096414
-1.2009082 -6.1792321 -1.8011837
-0.89455074 -6.1825023 -1.7874588
-0.74288082 -6.1838732 -1.7821516
-0.44179687 -6.1861029 -1.7745749
-0.29203126 -6.1869659 -1.7722851
-0.14253905 -6.1876636 -1.7709838
0.0068457029 -6.1914873 -1.7716092
0.15640625 -6.1931872 -1.7726599
0.3059375 -6.1912866 -1.7737113
0.45566404 -6.1888142 -1.7756352
0.75719726 -6.1884046 -1.7839313
0.90920895 -6.1879492 -1.7896054
1.2164258 -6.1865282 -1.8040833
1.3720801 -6.1855569 -1.8129302
1.8491992 -6.1815543 -1.8462111
2.8660936 -6.1602936 -1.9441168
3.0155468 -6.0926838 -1.9451826
3.4539061 -5.8680363 -1.9483148
3.5963769 -5.7860074 -1.949335
3.7368553 -5.7004943 -1.9503419
4.6578221 -5.0080929 -1.956973
4.7794433 -4.8964505 -1.9578532
4.8983593 -4.7818131 -1.9587152
5.014502 -4.6642199 -1.9595584
5.1277246 -4.5437803 -1.9603814
5.2380075 -4.4205441 -1.9611849
5.4494824 -4.1659617 -1.9627291
5.550488 -4.0347877 -1.963469
5.6482811 -3.9011176 -1.964187
5.8339844 -3.6265898 -1.9655547
6.0060349 -3.3430858 -1.9668287
6.1639843 -3.0512547 -1.9680053
6.3074899 -2.751817 -1.9690822
6.3736715 -2.5994866 -1.9695822
6.6003318 -1.9748592 -1.9713176
6.6473141 -1.8153698 -1.9716842
6.6903319 -1.654711 -1.9720232
6.7643943 -1.3304309 -1.9726177
6.845293 -0.83794737 -1.9732985
6.8641014 -0.67259824 -1.9734685
6.878828 -0.5067938 -1.9736097
6.895957 -0.17437255 -1.9738059
6.8983593 -0.0079376223 -1.9738607
6.8966208 0.15854004 -1.9738867
6.8907714 0.32489562 -1.9738833
6.8485937 0.82239133 -1.9737004
6.8263378 0.9873364 -1.9735816
6.8000193 1.1516681 -1.973434
6.7352343 1.4781189 -1.973053
6.6544237 1.8008642 -1.9725585
6.5577536 2.1191645 -1.9719516
6.4455566 2.4321985 -1.9712344
6.1756153 3.0393548 -1.9694756
5.9348044 3.4752753 -1.9678824
5.8474803 3.6163874 -1.9673007
5.7567673 3.7552691 -1.9666947
5.6626463 3.8918266 -1.9660645
5.0947948 4.2796879 -1.9038794
4.4167771 4.5041509 -1.8050433
4.3049803 4.6074629 -1.8042812
3.9551952 4.9002776 -1.8018893
3.8340428 4.9919815 -1.8010587
3.4579589 5.2486835 -1.7984738
3.3286524 5.3279495 -1.7975831
2.9300683 5.5462542 -1.7948314
2.793916 5.6123981 -1.7938894
2.6562598 5.6751604 -1.7929361
2.2351465 5.8428922 -1.7900146
2.0923827 5.89185 -1.7890222
1.6579199 6.0175714 -1.7859973
0.76965821 6.1722784 -1.7797891
0.62011719 6.1854143 -1.7787411
0.47041991 6.1949148 -1.7776911
0.32059568 6.2007904 -1.7766393
0.17082031 6.2030435 -1.7755871
0.021054687 6.2016802 -1.7745341
-0.27781248 6.1881256 -1.7724304
-0.42682615 6.1759586 -1.7713803
-0.72341794 6.1409149 -1.7692877
-0.87084961 6.1180668 -1.7682462
-1.596289 5.9514203 -1.7631094
-2.0191405 5.810451 -1.7601051
-2.5640624 5.5764761 -1.7562215
-2.6963964 5.5100226 -1.7552763
-2.8270605 5.4404569 -1.754342
-2.9559765 5.3678265 -1.7534193
-3.0830176 5.2921891 -1.7525092
-3.5715625 4.9604678 -1.749
-3.6884179 4.8705082 -1.748158
-3.8030858 4.7778144 -1.7473309
-3.9154394 4.6824861 -1.7465194
-4.0254493 4.5845599 -1.7457238
-4.2381053 4.3811393 -1.7441828
-4.3792481 4.3136382 -1.7588763
-4.5879297 4.3060894 -1.8004235
-4.8066697 4.2979841 -1.8450112
-5.1312985 4.1606865 -1.8902584
-5.2281833 4.0341558 -1.8895487
-5.8185153 3.0906212 -1.8851842
-5.9575586 2.8047466 -1.8841417
-6.082871 2.5127881 -1.8831942
-6.1942186 2.2154114 -1.882344
-6.2445898 2.0648878 -1.8819555
-6.3345604 1.7605468 -1.8812537
-6.3741307 1.6069274 -1.8809406
-6.410068 1.4524127 -1.8806529
-6.4423532 1.2971466 -1.8803905
-6.4709668 1.1411841 -1.8801539
-6.4958982 0.98460877 -1.8799429
-6.548418 0.51203674 -1.8794659
-6.5585055 0.35383788 -1.8793591
-6.5674801 0.037021484 -1.8792239
-6.5406151 -0.59610653 -1.8792683
-6.5245895 -0.75378174 -1.8793449
-6.4814353 -1.0678234 -1.8795767
-6.3509665 -1.6882025 -1.8803524
-6.309248 -1.8412036 -1.8806106
-6.2150388 -2.144129 -1.8812038
-6.1625977 -2.2938716 -1.881538
-6.1066012 -2.4423873 -1.8818978
-5.984199 -2.7352917 -1.8826915
-5.5355954 -3.5757239 -1.885653
-5.3599706 -3.8410194 -1.8868269
-5.2674704 -3.9705312 -1.8874475
-5.0732813 -4.2229676 -1.8887548
-4.9717188 -4.345727 -1.8894408
-4.8672361 -4.4660859 -1.8901477
-4.7598925 -4.5839891 -1.8908752
-4.5368457 -4.8121567 -1.892391
-4.4212499 -4.9222674 -1.8931785
-4.3030176 -5.0296545 -1.8939849
-4.1822071 -5.1342673 -1.8948101
-4.0589256 -5.2360082 -1.8956534
-3.9331932 -5.3348374 -1.8965149
-3.8050683 -5.4307184 -1.8973935
-3.407207 -5.6999149 -1.9001286
-3.270293 -5.7833476 -1.9010718
-2.9905176 -5.9404078 -1.9030026
-2.7032518 -6.0841179 -1.9049888
-2.3884082 -6.1605315 -1.8905923
-2.220078 -6.1637368 -1.8745834
-1.7302636 -6.1720457 -1.8341312
-1.5712793 -6.1744041 -1.8230307
-1.2584473 -6.178544 -1.8042041
-1.1041992 -6.1803355 -1.7964208
-0.49760741 -6.185739 -1.775681
-0.34768555 -6.1866641 -1.7730218
-0.19812499 -6.1874237 -1.7713525
-0.048740234 -6.1880178 -1.7706695
0.10070312 -6.1929784 -1.7722683
0.25031251 -6.1924181 -1.7733203
0.3998535 -6.1888175 -1.7745358
0.55007809 -6.1887574 -1.7778076
1.3140038 -6.1859398 -1.8095105
1.7890821 -6.1821418 -1.8415173
2.116123 -6.1786633 -1.8687484
2.6265917 -6.1718979 -1.9192721
3.108623 -6.0483422 -1.9458468
3.5436034 -5.8169346 -1.948957
4.096045 -5.459425 -1.9529214
4.3588963 -5.2605443 -1.9548144
4.6118846 -5.0488515 -1.9566407
4.7345505 -4.9383245 -1.957528
5.085947 -4.5888987 -1.9600776
5.1973534 -4.4666967 -1.9608885
5.3057227 -4.341743 -1.9616787
5.4110641 -4.2141142 -1.9624482
5.8004684 -3.6783309 -1.9653075
5.889502 -3.5384905 -1.9659649
6.1357322 -3.1061096 -1.9677942
6.2106543 -2.9580066 -1.9683546
6.2819238 -2.8080542 -1.9688897
6.5818844 -2.0338604 -1.9711746
6.7843652 -1.227857 -1.9727817
6.8372459 -0.89931089 -1.9732281
6.8575878 -0.73414731 -1.9734088
6.8738279 -0.56851929 -1.9735606
6.8859763 -0.40252745 -1.9736838
6.8940134 -0.23624694 -1.9737784
6.8934274 0.26304808 -1.9738879
6.8849998 0.42929015 -1.9738666
6.8724704 0.59527099 -1.9738163
6.8102927 1.0906341 -1.973492
6.6257715 1.9013408 -1.97238
6.5769334 2.0603588 -1.972073
6.5241795 2.2180707 -1.9717382
6.4071288 2.5292871 -1.9709866
6.2749219 2.8341985 -1.9701267
6.1278806 3.1321051 -1.9691612
5.5023727 4.1090007 -1.9649874
5.3997264 4.2390766 -1.9642956
4.9475684 4.2855411 -1.8729141
4.3468456 4.5693669 -1.8045667
3.8793554 4.9582305 -1.8013694
3.2465038 5.3760896 -1.7970167
3.1142676 5.4500885 -1.7961041
2.9802928 5.5208097 -1.7951785
2.8447266 5.5881915 -1.794241
2.5690625 5.7128434 -1.7923318
2.4291797 5.7700396 -1.7913617
2.1456347 5.8740449 -1.7893924
2.0021191 5.9208112 -1.7883945
1.7122363 6.0037141 -1.786376
1.4189551 6.0723701 -1.7843301
1.2712988 6.1013079 -1.783299
1.1230469 6.1266437 -1.7822626
0.6757617 6.1809502 -1.7791312
0.52609372 6.1918073 -1.7780817
0.22651367 6.20263 -1.7759786
-0.072910152 6.1989799 -1.7738731
-0.3714453 6.1809039 -1.7717707
-0.52013671 6.1664896 -1.7707223
-0.66842771 6.14851 -1.7696759
-0.81609374 6.1269817 -1.7686331
-0.96313477 6.1019144 -1.767594
-1.2549316 6.041275 -1.7655292
-2.1062305 5.7771454 -1.7594855
-2.6473827 5.5350957 -1.7556264
-2.7786913 5.4666877 -1.754688
-2.9082325 5.3951945 -1.7537613
-3.2857909 5.1627226 -1.7510545
-3.4076855 5.0793977 -1.7501788
-3.5275097 4.9932232 -1.7493168
-3.6452148 4.9042792 -1.7484694
-4.0933104 4.5217533 -1.7452327
-4.1994138 4.4197283 -1.7444634
-4.5092087 4.3089581 -1.7846316
-4.9496288 4.2925882 -1.8746859
-5.1925292 4.0814738 -1.8898098
-5.3794532 3.8234234 -1.8884372
-5.4682322 3.6912372 -1.8877832
-5.5538473 3.5570323 -1.8871506
-6.0606251 2.5675273 -1.8833631
-6.1745701 2.27109 -1.8824948
-6.2262692 2.1210003 -1.8820971
-6.2743845 1.9697661 -1.8817245
-6.4307909 1.355003 -1.8804849
-6.460752 1.1992596 -1.8802389
-6.487041 1.0429009 -1.8800185
-6.5096579 0.88598567 -1.8798237
-6.5437207 0.57079041 -1.8795124
-6.5551953 0.41271177 -1.8793957
-6.5629296 0.25441405 -1.8793054
-6.5669432 0.095956422 -1.879241
-6.5637302 -0.22095031 -1.8791914
-6.5309863 -0.69518554 -1.8793133
-6.5126367 -0.85260987 -1.8794063
-6.4905758 -1.0095898 -1.8795257
-6.4648337 -1.1659912 -1.879671
-6.2811913 -1.9367923 -1.8807861
-6.1825094 -2.2383292 -1.881411
-6.0696583 -2.5349808 -1.8821365
-5.8743749 -2.9693542 -1.88341
-5.8024802 -3.111037 -1.883883
-5.7272263 -3.2509909 -1.8843801
-5.6486716 -3.3891706 -1.8849008
-5.566865 -3.5254898 -1.8854446
-5.4818068 -3.6599045 -1.886012
-5.3935938 -3.7922904 -1.8866016
-5.2077928 -4.0507703 -1.8878487
-5.1103125 -4.1766973 -1.8885052
-4.5791502 -4.7704978 -1.8921031
-4.1050782 -5.198494 -1.8953378
-3.0431249 -5.9122 -1.9026392
-2.9010742 -5.9869905 -1.9036206
-2.4517283 -6.1592803 -1.8968838
-2.1157813 -6.1656351 -1.8651959
-1.9516894 -6.1684813 -1.8512655
-1.4723339 -6.1757855 -1.8166409
-1.3161426 -6.1778312 -1.8073722
-1.1614159 -6.1796904 -1.7991916
-1.0079784 -6.1813684 -1.7920747
-0.40341794 -6.1863394 -1.7738949
0.045029297 -6.192265 -1.7718771
0.19462891 -6.1930499 -1.7729286
0.34410155 -6.1887989 -1.7735734
0.49413085 -6.1887989 -1.776473
0.94830078 -6.1878052 -1.791225
1.256162 -6.1862965 -1.8062451
1.4121581 -6.1852798 -1.8153708
1.5697851 -6.1840839 -1.8256085
1.8907909 -6.1811337 -1.8495414
2.0545604 -6.1793699 -1.8633096
2.2208202 -6.1774054 -1.8783314
2.7370605 -6.1702294 -1.9314331
2.9045606 -6.1433325 -1.9443908
3.2009571 -6.0025744 -1.9465063
3.3467381 -5.9267612 -1.9475482
3.490576 -5.8473582 -1.9485773
3.9104004 -5.588202 -1.9515872
4.0461426 -5.4949522 -1.9525626
4.3107028 -5.2985229 -1.9544669
4.5656247 -5.0891623 -1.9563065
4.8101463 -4.8673797 -1.9580756
4.928369 -4.7519636 -1.9589329
5.0437303 -4.6336517 -1.9597708
5.3722558 -4.261888 -1.9621644
5.4756346 -4.1326203 -1.9629205
5.6728125 -3.8664773 -1.9643672
5.8567772 -3.5907824 -1.965723
6.106904 -3.1607273 -1.9675792
6.1831737 -3.0133328 -1.9681487
6.2558594 -2.8640311 -1.9686939
6.4514647 -2.4058611 -1.970173
6.7006931 -1.6134076 -1.9721055
6.8504977 -0.79565793 -1.9733447
6.8682613 -0.63016051 -1.9735073
4.9022851 -3.9659939 -1.9589286
4.9983201 -3.8479297 -1.9596307
5.0914941 -3.7275047 -1.9603131
5.1817088 -3.6047826 -1.9609751
5.2689061 -3.4798427 -1.9616165
5.3530173 -3.3527548 -1.9622366
5.5118165 -3.0924501 -1.9634122
5.6577439 -2.8244894 -1.9644989
5.7903709 -2.54954 -1.9654937
5.851572 -2.4096503 -1.9659557
5.9093161 -2.2682571 -1.9663938
5.9635935 -2.1254599 -1.966808
6.0143161 -1.9813397 -1.9671972
6.0615134 -1.8359823 -1.9675622
6.1450682 -1.5419244 -1.9682165
6.1813965 -1.3934039 -1.9685056
6.2140427 -1.2440125 -1.9687692
6.2429981 -1.0938421 -1.969007
6.2682519 -0.94298524 -1.9692189
6.2897754 -0.79153931 -1.9694046
6.3215723 -0.48724121 -1.9696975
6.3318357 -0.33458373 -1.9698043
6.3410449 -0.028724365 -1.9699389
6.3399706 0.12429504 -1.9699663
6.3265429 0.43001097 -1.9699415
6.3141403 0.58252621 -1.969889
6.2780857 0.8863855 -1.9697049
6.2544727 1.0375421 -1.9695735
6.227119 1.1880591 -1.9694155
6.1960545 1.3378454 -1.9692312
6.0352149 1.9277899 -1.9682353
5.9859762 2.072525 -1.9679222
5.9332128 2.2159753 -1.9675841
5.8171778 2.4986866 -1.966833
5.6874022 2.7752221 -1.9659839
5.6174512 2.9109662 -1.965523
5.5442185 3.0449109 -1.9650389
5.1301951 3.6849139 -1.9622748
4.9432516 3.925601 -1.9610156
4.2317677 4.286386 -1.8712292
4.0392966 4.2939115 -1.8314209
3.8695018 4.3175726 -1.8011541
3.7626855 4.4078984 -1.800424
3.1978416 4.8183441 -1.7965475
3.0792577 4.8918753 -1.7957308
2.7135448 5.0946198 -1.7932065
2.4621875 5.2145352 -1.7914671
2.3344922 5.2698236 -1.7905822
2.0754688 5.3709135 -1.7887846
1.8120703 5.4591947 -1.7869534
1.6789551 5.498477 -1.7860267
1.4102441 5.5672283 -1.7841537
1.2748339 5.5966668 -1.7832087
1.1387988 5.6228032 -1.7822585
1.0022558 5.6456194 -1.781304
0.86528319 5.6651068 -1.7803457
0.45250976 5.7035708 -1.7774533
0.17663085 5.7125297 -1.7755162
-0.64731443 5.659677 -1.7697128
-1.4524707 5.4893208 -1.7640148
-1.583662 5.4497967 -1.7630836
-1.8427929 5.3614397 -1.7612424
-1.9706347 5.3126688 -1.7603325
-2.2223632 5.2061038 -1.758539
-2.3461816 5.1483731 -1.7576556
-2.7084179 4.9578691 -1.755066
-2.8258984 4.8887296 -1.7542245
-3.0556054 4.7422395 -1.7525766
-3.3859961 4.5026932 -1.7501998
-3.7585547 4.3098979 -1.7765471
-4.1281543 4.29637 -1.8510019
-4.3247948 4.2888751 -1.8921957
-4.4339747 4.1898456 -1.8951663
-4.8101172 3.737581 -1.8924192
-4.9815431 3.4988353 -1.8911599
-5.0628805 3.3765466 -1.8905604
-5.1413279 3.2524047 -1.8899807
-5.2891798 2.9988353 -1.8888836
-5.5478806 2.4725745 -1.8869455
-5.7992477 1.785006 -1.8850219
-5.8396287 1.6442822 -1.884706
-5.9104004 1.3602276 -1.8841439
-5.9407129 1.2170599 -1.8838981
-5.9676657 1.0732354 -1.8836758
-5.9911914 0.92882931 -1.8834777
-6.0112987 0.78392452 -1.8833032
-6.0510349 0.34698913 -1.8829244
-6.0573926 0.20086974 -1.8828464
-6.0231347 -0.67523682 -1.8828875
-6.0053906 -0.82041138 -1.882979
-5.9841895 -0.96513975 -1.883095
-5.959619 -1.1093347 -1.8832349
-5.9002633 -1.3958222 -1.8835869
-5.8655272 -1.5379614 -1.8837985
-5.8274217 -1.6792483 -1.8840343
-5.6932516 -2.0973015 -1.8848819
-5.6419725 -2.2344537 -1.8852111
-5.5297461 -2.5050113 -1.885938
-5.4688478 -2.6382656 -1.886336
-5.4047751 -2.7700794 -1.8867561
-5.3376365 -2.9003701 -1.8871984
-5.2673926 -3.0290637 -1.8876628
-5.1941013 -3.1560912 -1.8881489
-4.956367 -3.5264797 -1.8897353
-4.7834082 -3.763804 -1.890897
-4.599277 -3.9928219 -1.892139
-3.8726268 -4.7215228 -1.8970803
-3.6433301 -4.9069052 -1.8986497
-3.2831542 -5.1642981 -1.9011226
-3.158994 -5.2443719 -1.9019771
-3.0329297 -5.3214989 -1.9028454
-2.9049706 -5.3956347 -1.903728
-2.7752538 -5.4667296 -1.9046235
-2.6437988 -5.5347409 -1.9055319
-2.3760059 -5.661345 -1.9073852
-1.9632128 -5.8271165 -1.910249
-1.8229883 -5.8757877 -1.9112234
-1.6815332 -5.9211082 -1.9122072
-1.5389843 -5.9630542 -1.9131998
-1.2508007 -6.0366888 -1.9152083
-1.1053516 -6.0683274 -1.9162235
-0.81221676 -6.1211243 -1.918272
-0.66458005 -6.1422491 -1.9193047
-0.36723632 -6.1624994 -1.917854
-0.21821289 -6.1633024 -1.9159068
0.079355463 -6.1643777 -1.9151995
0.22821288 -6.1646509 -1.916437
0.52692384 -6.1646676 -1.9221129
0.67708004 -6.1644096 -1.9265671
0.82705075 -6.1565428 -1.9297857
1.1242774 -6.1161199 -1.9318842
1.2722266 -6.090507 -1.93293
1.4195801 -6.0613041 -1.9339721
1.5662793 -6.028522 -1.9350107
1.7121972 -5.9921727 -1.9360447
1.8572656 -5.9522767 -1.9370733
2.0013964 -5.9088516 -1.9380963
2.1445117 -5.8619108 -1.9391131
2.5668554 -5.7002673 -1.9421185
2.7050488 -5.6395288 -1.9431034
2.8417382 -5.5754161 -1.9440789
2.9769433 -5.5079565 -1.9450445
3.110498 -5.4371924 -1.9459994
3.2423437 -5.3631506 -1.946943
3.3724217 -5.2858801 -1.9478749
3.5006444 -5.2054281 -1.9487945
3.8733203 -4.9453797 -1.951473
4.2264061 -4.6583285 -1.9540204
4.339365 -4.5569077 -1.9548374
4.6632032 -4.2361784 -1.9571866
4.8658204 -4.0092926 -1.9586624
5.4042578 -3.2718751 -1.962615
5.4832325 -3.1414659 -1.9632
5.8291993 -2.4618623 -1.9657867
5.8882422 -2.3210199 -1.9662337
5.9438181 -2.1787364 -1.9666568
5.9958692 -2.0350988 -1.9670553
6.0893064 -1.7440994 -1.9677783
6.1306248 -1.5969326 -1.9681023
6.2023239 -1.299682 -1.9686741
6.2592969 -0.99917477 -1.969143
6.3284669 -0.39139646 -1.9697677
6.3404684 -0.085635982 -1.9699218
6.3408203 0.067379758 -1.9699593
6.3373632 0.22035949 -1.9699697
6.3191795 0.52582765 -1.9699116
6.3044333 0.67813355 -1.9698427
6.2377148 1.1321533 -1.9694772
6.1746287 1.4314959 -1.9691021
6.0525975 1.873642 -1.9683452
5.9532614 2.1627655 -1.967713
5.7125487 2.7242851 -1.966149
5.643877 2.8606751 -1.9656973
5.4965429 3.128078 -1.9647229
5.336328 3.3877745 -1.9636559
5.0727439 3.7614911 -1.9618884
4.9788961 3.8815508 -1.9612563
4.680254 4.22715 -1.9592359
4.109951 4.2911711 -1.8459133
3.6944726 4.4632587 -1.7999573
3.584209 4.54919 -1.7992017
2.8825781 5.0052629 -1.794374
2.6352246 5.1336079 -1.7926648
2.3821483 5.2496271 -1.7909126
2.2536621 5.3029337 -1.7900217
1.9931933 5.4000287 -1.788213
1.4604394 5.5554338 -1.7845037
1.3252832 5.586103 -1.7835608
1.0531152 5.6375198 -1.7816595
0.50376952 5.7004352 -1.7778127
0.36587891 5.7078214 -1.7768453
0.089990236 5.7125921 -1.7749072
-0.047832031 5.7099738 -1.7739379
-0.18549804 5.7040434 -1.772969
-0.5966211 5.6664057 -1.7700708
-0.73279297 5.6472869 -1.7691092
-0.86834961 5.6249127 -1.7681512
-1.0032812 5.5993009 -1.7671971
-1.1374902 5.5704656 -1.7662473
-1.2708789 5.5384345 -1.7653024
-1.4034277 5.5032229 -1.7643628
-1.6655176 5.4233832 -1.7625022
-1.7949511 5.3788104 -1.7615825
-2.175957 5.2268252 -1.7588699
-2.3002832 5.170186 -1.7579831
-2.7824023 4.9147735 -1.7545362
-2.8987889 4.8438921 -1.753702
-3.1261816 4.6940298 -1.7520695
-3.2370605 4.6151323 -1.7512722
-3.3460155 4.533649 -1.7504879
-3.5577929 4.3631315 -1.7489604
-3.6929686 4.3122172 -1.7637689
-3.871455 4.3058453 -1.7988573
-4.3968163 4.2300787 -1.8954366
-4.6860251 3.8966339 -1.893328
-4.7770114 3.7810931 -1.892662
-5.0329685 3.4222558 -1.890781
-5.1124902 3.2987976 -1.8901941
-5.3331056 2.9178216 -1.8885565
-5.4005079 2.7875414 -1.8880531
-5.4648046 2.6557508 -1.8875711
-5.6386523 2.2519453 -1.8862572
-5.7384176 1.976488 -1.8854932
-5.7833495 1.837116 -1.8851455
-5.8249998 1.6967351 -1.8848208
-5.8982615 1.4133031 -1.8842413
-5.9580469 1.1268109 -1.8837558
-6.0221777 0.69269466 -1.8832058
-6.0478024 0.40130004 -1.8829596
-6.0554295 0.25523865 -1.8828726
-6.0596385 0.10905212 -1.8828098
-6.0576758 -0.18341248 -1.8827569
-6.0515137 -0.32953492 -1.8827668
-6.0123825 -0.76646298 -1.8829422
-5.9924707 -0.91135985 -1.8830492
-5.9424415 -1.199585 -1.8833351
-5.8017969 -1.7675241 -1.8841941
-5.7583008 -1.9072738 -1.8844681
-5.711494 -2.0459881 -1.8847653
-5.6081347 -2.3199735 -1.8854294
-5.5515919 -2.4550862 -1.8857962
-5.2217188 -3.1090395 -1.8879657
-4.9033008 -3.6018591 -1.8900912
-4.7267675 -3.8366399 -1.8912786
-4.3410058 -4.2802339 -1.8938888
-4.2380271 -4.385344 -1.8945886
-4.1325388 -4.4880314 -1.8953067
-4.0245895 -4.5882258 -1.8960427
-3.8016014 -4.7808871 -1.8975661
-3.4502149 -5.0497346 -1.8999746
-3.2054198 -5.214932 -1.9016573
-2.9527929 -5.3684134 -1.903398
-2.8237207 -5.4406419 -1.9042888
-2.6928711 -5.5098076 -1.9051929
-2.5604002 -5.5758557 -1.9061086
-2.4262891 -5.6387634 -1.907037
-2.2906444 -5.6984701 -1.9079766
-2.1535449 -5.7549481 -1.9089276
-1.7342968 -5.9046445 -1.9118402
-1.4489062 -5.9876523 -1.9138272
-1.0136132 -6.0864158 -1.9168643
-0.71957028 -6.1348057 -1.9189199
-0.57166016 -6.1537018 -1.9199553
-0.42276368 -6.1621542 -1.9188501
-0.27363279 -6.1630239 -1.9165064
0.024013672 -6.1642313 -1.9150103
0.47121093 -6.1647177 -1.9207338
0.62116212 -6.1645265 -1.9247839
1.2172461 -6.1004562 -1.9325411
1.3648535 -6.0725851 -1.9335848
1.8033984 -5.9675326 -1.9366913
1.9478906 -5.9254136 -1.9377165
2.2338183 -5.8306479 -1.9397479
2.3750975 -5.778039 -1.9407529
2.9268456 -5.5334339 -1.9446865
3.0609961 -5.4639001 -1.9456455
3.4531834 -5.2357264 -1.9484539
3.7051854 -5.0677414 -1.9502636
3.9489062 -4.8874755 -1.9520177
4.2976074 -4.5949607 -1.9545354
4.4090624 -4.4917712 -1.9553421
4.5179782 -4.3858533 -1.9561318
4.6243262 -4.2772484 -1.9569039
4.8289552 -4.052249 -1.9583937
4.9271288 -3.9359961 -1.95911
5.0224805 -3.8173206 -1.9598074
5.2907324 -3.4474971 -1.9617773
5.4542379 -3.1902018 -1.962985
5.6050196 -2.9250164 -1.9641054
5.6754785 -2.7896731 -1.9646313
5.8666892 -2.3735847 -1.9660702
5.9235449 -2.2318249 -1.9665021
5.9769044 -2.0886865 -1.9669098
6.0267477 -1.9442319 -1.967293
6.1156836 -1.6517966 -1.9679849
6.1901073 -1.3552344 -1.9685757
6.2498145 -1.0552795 -1.9690636
6.2741208 -0.90425903 -1.9692689
6.3338671 -0.29546082 -1.9698275
6.339375 -0.14254211 -1.9699011
6.3411231 0.010457153 -1.9699484
6.3390918 0.1634668 -1.969969
6.3332911 0.31636781 -1.9699631
6.3237109 0.46909177 -1.9699305
6.293242 0.77357054 -1.9697857
6.2478223 1.0761456 -1.9695355
6.1518064 1.5247985 -1.968963
6.0229392 1.9649719 -1.9681573
5.737246 2.6731157 -1.966311
5.6698141 2.8101451 -1.9658682
5.5990233 2.9454279 -1.9654015
5.524951 3.0789099 -1.9649111
5.4476171 3.2104919 -1.9643977
5.3670897 3.340086 -1.9638613
5.1966891 3.5930376 -1.9627212
5.0141697 3.8371575 -1.961494
4.9184861 3.9557304 -1.9608483
4.7186618 4.1855278 -1.9594963
4.5881443 4.2719684 -1.9475514
3.9912987 4.2957587 -1.8216559
3.8423533 4.3409538 -1.8009689
3.7349021 4.4306011 -1.8002341
3.6254785 4.5175481 -1.7994845
3.5138965 4.6017523 -1.7987196
3.2849414 4.7617512 -1.7971469
3.0486231 4.9102325 -1.7955197
2.9278905 4.9800491 -1.7946868
2.8055468 5.0468755 -1.7938423
2.6816504 5.1106644 -1.7929862
2.5563281 5.1713748 -1.7921191
2.4296288 5.2289934 -1.7912414
2.3016014 5.2834721 -1.7903543
1.7780762 5.4695635 -1.7867169
1.6447167 5.5080094 -1.7857882
1.240039 5.6036758 -1.7829658
0.96721679 5.6509256 -1.7810589
0.83012694 5.6695585 -1.7800996
0.69272459 5.684865 -1.7791373
0.41720703 5.7054644 -1.7772055
0.27926758 5.7107573 -1.776237
0.14130859 5.7127128 -1.775268
0.0034082031 5.7113395 -1.7742983
-0.27183592 5.6986198 -1.7723608
-0.54583985 5.6726813 -1.770429
-0.81799805 5.6336174 -1.7685074
-0.95318359 5.6092072 -1.7675515
-1.087666 5.5815678 -1.7666
-1.7469434 5.3957477 -1.7619238
-1.875664 5.3492436 -1.7610084
-2.0031445 5.2996964 -1.760101
-2.1293652 5.2471342 -1.7592019
-2.3776073 5.1331244 -1.757431
-2.4995508 5.0717425 -1.7565598
-2.6199317 5.0075016 -1.7556993
-2.7386522 4.9404278 -1.7548496
-2.8556933 4.8705826 -1.7540109
-2.9709864 4.7979913 -1.7531838
-3.0844727 4.7227154 -1.7523692
-3.1960645 4.6447859 -1.751567
-3.3057225 4.5642557 -1.7507778
-3.6341112 4.3216448 -1.754209
-3.8042576 4.3082657 -1.7855309
-4.3592868 4.2699833 -1.8957095
-4.5567675 4.0516238 -1.8942715
-4.7434959 3.8243146 -1.8929074
-4.9191208 3.5885723 -1.8916192
-5.1609473 3.220324 -1.8898356
-5.2356052 3.09395 -1.889282
-5.3758006 2.8361943 -1.8882378
-5.6186719 2.3026476 -1.8864093
-5.6713767 2.1659484 -1.8860077
-5.8099022 1.7490606 -1.8849387
-5.8494434 1.6081066 -1.8846289
-5.8856344 1.4662664 -1.884342
-5.9184961 1.3236474 -1.8840786
-5.9479394 1.1802948 -1.883839
-5.9740233 1.0363073 -1.8836226
-6.0440722 0.45557922 -1.882998
-6.0530076 0.30959654 -1.8829021
-6.0604978 0.017196655 -1.8827828
-6.0541992 -0.27520263 -1.8827603
-6.0458789 -0.42120361 -1.8827856
-6.0189257 -0.71244019 -1.8829086
-5.8916798 -1.4322882 -1.8836389
-5.8171482 -1.7152804 -1.8840982
-5.7748828 -1.8554101 -1.8843634
-5.680459 -2.1325314 -1.8849638
-5.572988 -2.4049797 -1.885657
-5.5144334 -2.5392694 -1.8860381
-5.4527636 -2.6721568 -1.8864413
-5.3879004 -2.803587 -1.8868672
-5.3199511 -2.9334688 -1.887315
-5.0978122 -3.3131769 -1.8887899
-4.849072 -3.6764672 -1.8904555
-4.6690431 -3.9086351 -1.8916677
-4.3786426 -4.2405257 -1.8936332
-4.1720505 -4.4501276 -1.8950377
-4.0650392 -4.5512457 -1.8957666
-3.8437986 -4.745842 -1.8972775
-3.6133397 -4.9298606 -1.8988552
-3.4948437 -5.017755 -1.8996681
-3.2515624 -5.1850743 -1.9013399
-3.0003417 -5.3407645 -1.9030702
-2.7417579 -5.4844427 -1.9048549
-2.6098633 -5.5516596 -1.9057666
-2.4763477 -5.6157379 -1.9066905
-2.3412988 -5.6766357 -1.9076258
-2.0667675 -5.7887521 -1.90953
-1.9274414 -5.8398948 -1.9104975
-1.786914 -5.8877091 -1.9114742
-1.3584667 -6.0109043 -1.9144577
-0.77444333 -6.1268711 -1.9185361
-0.62673825 -6.1470842 -1.9195696
-0.47833008 -6.1617851 -1.9199955
-0.3290332 -6.1627221 -1.9172541
0.1174414 -6.1644645 -1.9154152
0.41560546 -6.1647434 -1.9195023
0.56532228 -6.1646185 -1.9231513
0.86517578 -6.152174 -1.9300545
1.1622168 -6.1099067 -1.9321524
1.3100488 -6.0833697 -1.9331973
1.8942969 -5.9414921 -1.9373361
2.0381446 -5.8971653 -1.9383574
2.1809766 -5.8493328 -1.9393722
2.322705 -5.7980137 -1.9403799
2.8765137 -5.5584564 -1.944327
3.1444237 -5.418541 -1.9462422
3.2758496 -5.343668 -1.9471829
3.4054589 -5.2655845 -1.9481117
3.5331836 -5.1843162 -1.949028
3.6589258 -5.0999203 -1.949931
4.0236425 -4.8283963 -1.9525564
4.1407518 -4.7319536 -1.9534014
4.3678904 -4.530477 -1.9550439
4.6897559 -4.2077045 -1.9573797
4.791738 -4.0948634 -1.9581224
4.8909473 -3.9795265 -1.958846
4.9873438 -3.861738 -1.9595503
5.0808592 -3.7415762 -1.9602351
5.258955 -3.4944298 -1.9615432
5.4247656 -3.2386739 -1.9627669
5.5029883 -3.1077545 -1.9633465
5.7180176 -2.7037759 -1.9649501
5.8446383 -2.4259429 -1.9659033
5.9028125 -2.2847202 -1.9663442
5.9574704 -2.1420853 -1.9667611
6.0086131 -1.9981066 -1.9671534
6.140615 -1.5590717 -1.9681813
6.1773729 -1.4106696 -1.9684734
6.2104588 -1.2613659 -1.96874
6.2874804 -0.80912656 -1.9693844
6.3056836 -0.65722656 -1.969547
6.3358984 0.25951049 -1.9699683
6.3157616 0.56485593 -1.9698966
6.3000488 0.7170648 -1.9698209
6.2806053 0.86883116 -1.9697186
6.2573829 1.0200518 -1.9695901
6.0859275 1.7648797 -1.9685546
6.0406833 1.9109442 -1.9682699
5.9918652 2.0558124 -1.9679598
5.9395118 2.1994183 -1.9676244
5.8836327 2.3416588 -1.9672644
5.8242774 2.4824634 -1.9668792
5.6952929 2.7593756 -1.9660357
5.476738 3.1617768 -1.9645914
5.3974218 3.2921143 -1.9640635
5.3149118 3.4204369 -1.9635128
4.9544139 3.9119084 -1.9610909
4.8569336 4.0289679 -1.9604325
4.75667 4.1435504 -1.959754
4.4565916 4.277359 -1.9189981
3.8848729 4.3105474 -1.8027493
3.7751172 4.3975677 -1.800509
3.6664355 4.485518 -1.7997652
3.5556445 4.570756 -1.799006
2.9729784 4.9544315 -1.7949982
2.7279296 5.0872955 -1.7933059
2.6031346 5.1491523 -1.7924429
2.349375 5.263576 -1.7906854
1.5605469 5.5304875 -1.7852017
1.0181152 5.6431451 -1.7814151
0.88116211 5.6630192 -1.7804568
0.60627925 5.6927714 -1.7785314
0.46850586 5.7026482 -1.7775655
0.33056641 5.7091775 -1.7765973
0.19261718 5.7123723 -1.7756286
-0.083105467 5.7087727 -1.7736897
-0.63153321 5.6618228 -1.7698241
-0.76753902 5.6418729 -1.7688638
-0.90297848 5.6186652 -1.7679064
-1.1717285 5.5625677 -1.7660049
-1.8279296 5.3668976 -1.7613479
-1.9558593 5.3184834 -1.7604376
-2.0825684 5.2670364 -1.7595354
-2.2079198 5.2126079 -1.758642
-2.4543848 5.0949063 -1.7568828
-2.6946874 4.9657035 -1.7551643
-2.8123631 4.8968863 -1.7543216
-3.1547656 4.6740766 -1.751864
-3.2651563 4.5945086 -1.7510699
-3.4798338 4.4277191 -1.7495229
-3.5842285 4.3405938 -1.7487695
-3.7380176 4.3106265 -1.7725308
-4.1059079 4.2972016 -1.8464068
-4.6165528 3.9811907 -1.8938354
-4.70959 3.8672442 -1.8931555
-5.0536227 3.3908184 -1.8906288
-5.1323829 3.2668834 -1.890047
-5.2081738 3.1411626 -1.8894856
-5.4172559 2.7539392 -1.8879278
-5.480752 2.6217663 -1.8874513
-5.5410743 2.4881511 -1.8869967
-5.7502246 1.940899 -1.8854021
-5.9373922 1.2336926 -1.8839251
-6.009131 0.80073726 -1.8833224
-6.0398731 0.50982177 -1.88304
-6.0500879 0.36392272 -1.8829349
-6.0568261 0.21781738 -1.8828542
-6.0601563 0.071593627 -1.8827975
-6.0599999 -0.074642941 -1.8827654
-6.056406 -0.2208496 -1.8827572
-6.0388865 -0.51279479 -1.8828137
-6.007617 -0.80360532 -1.8829672
-5.935039 -1.2363164 -1.8833787
-5.9040623 -1.3792932 -1.883564
-5.593955 -2.354691 -1.8855212
-5.4760642 -2.62289 -1.8862888
-5.3455663 -2.8853388 -1.887146
-5.275703 -3.014231 -1.8876077
-4.9660449 -3.5124819 -1.8896707
-4.8813181 -3.6323841 -1.8902389
-4.7937498 -3.7502706 -1.8908274
-4.7033787 -3.8660965 -1.8914361
-3.9965723 -4.6134706 -1.8962338
-3.8856347 -4.7104392 -1.8969914
-3.6568749 -4.8964601 -1.8985568
-3.5391991 -4.9853888 -1.8993636
-3.2974315 -5.15483 -1.9010245
-3.1734862 -5.2352409 -1.901877
-3.0476563 -5.3127089 -1.9027441
-2.7903612 -5.4586473 -1.9045192
-2.6591113 -5.5270195 -1.9054261
-2.526201 -5.5922704 -1.9063455
-2.2556739 -5.7132468 -1.9082192
-2.1182518 -5.7688861 -1.9091727
-1.8393066 -5.8703156 -1.91111
-1.1222558 -6.0648389 -1.9161056
-0.23545898 -6.163219 -1.9160773
-0.086640626 -6.1638651 -1.9150708
0.062119137 -6.1643353 -1.9151254
0.5095703 -6.1646862 -1.9216671
0.65963864 -6.1644487 -1.9259951
0.80973631 -6.1584435 -1.9296637
0.95864254 -6.1404533 -1.9307144
1.1071191 -6.1188593 -1.9317629
1.2550781 -6.0936618 -1.9328086
1.6953223 -5.9965677 -1.9359251
1.8405273 -5.9570818 -1.9369546
1.9847363 -5.9140673 -1.9379781
2.1279883 -5.8675351 -1.9389955
2.6891015 -5.6467443 -1.9429897
2.961328 -5.515944 -1.9449332
3.3574705 -5.2950025 -1.9477676
3.4858789 -5.214921 -1.9486886
3.6124022 -5.1316772 -1.9495966
3.7368748 -5.0453315 -1.9504913
3.8592675 -4.9559355 -1.951372
3.9794922 -4.8635221 -1.952238
4.3263865 -4.5688105 -1.9547436
4.4371972 -4.46491 -1.9555459
4.5454493 -4.3583045 -1.9563311
4.9518261 -3.9058282 -1.9592907
5.0464063 -3.786552 -1.9599825
5.2267284 -3.5410805 -1.961306
5.4742575 -3.1566851 -1.9631335
5.5504394 -3.0245352 -1.963699
5.6233497 -2.890537 -1.9642419
5.8221192 -2.4780915 -1.9657332
5.8815622 -2.3374286 -1.9661831
5.9375486 -2.1953008 -1.966609
5.9900193 -2.0518091 -1.9670105
6.0389352 -1.9070523 -1.9673873
6.1641307 -1.465979 -1.9683677
6.1985741 -1.3170086 -1.9686438
6.2293262 -1.1672003 -1.9688941
6.2563963 -1.0166632 -1.9691186
6.279736 -0.86549926 -1.9693173
6.3356347 -0.25632203 -1.9698489
6.3401952 -0.10337341 -1.9699159
6.3409762 0.049649049 -1.9699563
6.3379588 0.20263 -1.9699701
6.3311911 0.35550475 -1.9699572
6.3206444 0.50815004 -1.9699179
6.2882614 0.81242615 -1.9697596
6.2664552 0.96387023 -1.969641
6.2116504 1.2648638 -1.9693244
6.1787109 1.4142425 -1.9691268
6.1018262 1.7102685 -1.968654
5.8467579 2.4302649 -1.9670254
5.785244 2.5701067 -1.9666247
5.5054493 3.1127801 -1.9647819
5.4272947 3.2438641 -1.9642625
5.3459764 3.3729522 -1.9637203
5.2615037 3.4999468 -1.9631556
5.0834374 3.7474248 -1.9619604
4.8935447 3.9857025 -1.96068
4.5340428 4.2741961 -1.9357592
4.3286915 4.282526 -1.8916591
4.1321974 4.2903047 -1.8505052
3.9463475 4.3003669 -1.8132327
3.815078 4.3641582 -1.8007823
3.5970898 4.5393672 -1.7992902
3.4850097 4.6228657 -1.7985214
3.3709862 4.7035637 -1.7977383
3.1373436 4.85637 -1.7961309
3.0178516 4.9283929 -1.7953076
2.7739842 5.0634952 -1.7936243
2.5240135 5.1864252 -1.7918953
2.3969531 5.2432404 -1.7910151
2.1390722 5.3474298 -1.7892263
1.8766797 5.4388518 -1.7874029
1.7440234 5.4797187 -1.7864797
1.4760644 5.5516667 -1.784613
1.340957 5.5827188 -1.7836703
0.93215817 5.6560135 -1.7808136
0.65749019 5.6882463 -1.7788905
0.24393554 5.711575 -1.7759891
-0.031865235 5.7104521 -1.7740502
-0.16957031 5.7048979 -1.7730811
-0.30698243 5.6960382 -1.7721133
-0.44412109 5.6838689 -1.7711465
-0.58080077 5.6684113 -1.7701821
-0.85268551 5.6276751 -1.7682621
-0.9876855 5.6024384 -1.7673074
-1.5197754 5.4694743 -1.7635373
-1.6504589 5.42835 -1.7626094
-1.7800293 5.3841324 -1.7616885
-2.0355859 5.2865229 -1.7598699
-2.2859375 5.1769071 -1.7580855
-2.6504784 4.9905915 -1.7554808
-2.7687988 4.922812 -1.7546335
-3.0002246 4.7789726 -1.7529742
-3.2243359 4.6244111 -1.7513638
-3.3334863 4.5432243 -1.7505782
-3.4405468 4.4595037 -1.7498065
-3.6744432 4.3149662 -1.7606828
-3.8504002 4.3066068 -1.7946669
-4.0352244 4.2998381 -1.8319027
-4.2277832 4.2925968 -1.8717444
-4.3851757 4.2425494 -1.8955214
-4.4845409 4.1339312 -1.8947979
-4.8551073 3.6772113 -1.8920895
-5.0235839 3.4364476 -1.8908503
-5.1034179 3.3132036 -1.8902612
-5.1803222 3.188128 -1.8896921
-5.2542186 3.0613225 -1.8891438
-5.3928514 2.8027208 -1.8881105
-5.4575095 2.6711016 -1.8876261
-5.5190134 2.5380132 -1.8871632
-5.5773339 2.4035473 -1.8867227
-5.6843653 2.1307557 -1.8859081
-5.7783103 1.853313 -1.8851846
-5.8203321 1.7130609 -1.8848572
-5.8943849 1.4298223 -1.8842725
-5.9263573 1.2869965 -1.884015
-5.9549413 1.1434863 -1.8837814
-6.0018945 0.85466915 -1.8833855
-6.0202637 0.70954591 -1.8832232
-6.0466795 0.41822141 -1.8829712
-6.0604687 -0.020246582 -1.8827744
-6.0581541 -0.16646484 -1.8827574
-6.0432029 -0.4585675 -1.8827958
