# .PCD v0.7 - Point Cloud Data file format
VERSION 0.7
FIELDS x y z
SIZE 4 4 4
TYPE F F F
COUNT 1 1 1
WIDTH 1464
HEIGHT 1
VIEWPOINT 0 0 0 1 0 0 0
POINTS 1464
DATA ascii
-14.268779 -7.966073 -0.13801147
-20.143984 -21.708097 -0.25010276
-19.193329 -21.711172 -0.24473105
-17.40584 -21.715439 -0.2350328
-14.972461 -21.730103 -0.22285636
-13.479365 -21.736963 -0.21599662
-12.759766 -21.72978 -0.21281426
-12.065469 -21.731323 -0.20991439
-11.389414 -21.732826 -0.20721748
-7.0590234 -21.746977 -0.19309272
-6.4838572 -21.747805 -0.19165543
-5.9168358 -21.748621 -0.19034645
-4.8040819 -21.750219 -0.18811676
-3.1779296 -21.759546 -0.18571441
-2.6437988 -21.76062 -0.18512535
-2.1127148 -21.761688 -0.18464431
-1.5840527 -21.762753 -0.18427864
-0.53161132 -21.768278 -0.18389587
-0.0064550778 -21.769238 -0.18384819
1.0446386 -21.77116 -0.1840747
1.5717676 -21.772121 -0.18435302
2.1010058 -21.775299 -0.18475357
3.1674609 -21.778145 -0.18585701
3.7061229 -21.779579 -0.18657646
4.2492967 -21.781031 -0.18741432
5.903955 -21.752117 -0.19035254
2.828701 -8.0633631 -0.072166748
9.5666208 -22.025429 -0.20280129
11.557031 -23.444126 -0.22077018
28.481699 6.1855087 -0.24614418
19.124609 6.1332569 -0.16960754
16.611689 6.2257566 -0.1498194
15.475547 6.229651 -0.14088616
13.57248 6.2401195 -0.12615752
11.347129 6.2477512 -0.10939697
9.6358395 6.2536182 -0.097012863
8.5762987 6.1734619 -0.089244992
8.2597847 6.2535019 -0.087493666
7.8602343 6.2548728 -0.084834442
7.1287789 6.25738 -0.080107041
6.7924023 6.258534 -0.078001633
5.6022558 6.2626133 -0.070963435
5.3367872 6.2635226 -0.069494247
5.0819235 6.2643957 -0.068123318
4.8367772 6.2652369 -0.066843718
4.3724804 6.2668271 -0.06453415
3.6799998 6.1835165 -0.060770873
2.5932031 6.2710314 -0.057309341
2.4180079 6.2716293 -0.056764603
2.2460351 6.2722201 -0.05626373
2.0769629 6.272799 -0.055803757
1.9105371 6.2733688 -0.055382155
1.7465234 6.2739291 -0.054998856
1.5846484 6.2744846 -0.05465332
1.2664942 6.2755737 -0.054066237
0.80010742 6.2771716 -0.053441238
0.49410155 6.2782187 -0.053184662
0.19030273 6.2792578 -0.053053893
-0.11272461 6.2802954 -0.053047255
-0.26436523 6.2808151 -0.053089295
-0.72205079 6.2823815 -0.053405304
-1.1876367 6.2839732 -0.054008864
-1.484502 6.1994653 -0.05383461
-1.6437206 6.2000108 -0.054169159
-2.1636231 6.2855773 -0.056139983
-2.6870215 6.2873678 -0.057743605
-2.8685839 6.2879906 -0.058368836
-3.6392968 6.2906237 -0.061375577
-4.0572267 6.2920532 -0.063226625
-4.2760253 6.2928014 -0.064252779
-4.9792576 6.2952051 -0.067784347
-5.2316794 6.2960682 -0.069132611
-5.4944825 6.2969666 -0.070577927
-6.0553417 6.2988815 -0.073789366
-6.5907617 6.2250204 -0.076566622
-6.9098825 6.2180123 -0.078504257
-7.7348728 6.3127222 -0.084316783
-8.1291409 6.3140683 -0.08692985
-8.5489063 6.3155026 -0.089761272
-8.9971676 6.3170347 -0.092841491
-11.816103 6.3259115 -0.11319145
-12.372822 6.2447739 -0.1170433
-13.330576 6.3295093 -0.12462471
-15.194902 6.3358774 -0.13903557
-20.670507 6.3617649 -0.18264763
-22.304403 6.2798791 -0.1956926
-24.869864 6.3589563 -0.21678962
-19.651239 -21.70915 -0.24731018
-17.828495 -21.714428 -0.23727584
-16.970087 -21.716478 -0.23275764
-16.148018 -21.724697 -0.22860435
-15.35123 -21.728359 -0.22467667
-13.834892 -21.735327 -0.21759048
-13.10543 -21.729013 -0.21430084
-11.0496 -21.733578 -0.2059043
-10.398447 -21.735027 -0.2034784
-9.7633591 -21.73951 -0.2012625
-8.5307417 -21.744247 -0.19726463
-7.3434472 -21.748814 -0.19386199
-6.7632031 -21.747402 -0.19233939
-6.1923337 -21.748224 -0.1909693
-5.6291795 -21.749033 -0.18973014
-3.9796386 -21.757929 -0.18679634
-3.4396679 -21.759018 -0.18604071
-2.9038281 -21.760098 -0.18539955
-1.8415819 -21.762236 -0.18444473
-1.313916 -21.763296 -0.18412825
1.3145508 -21.77165 -0.18420623
2.9062402 -21.777447 -0.18554519
5.0810938 -21.784174 -0.18891166
5.6385546 -21.784809 -0.19003998
6.7566209 -21.725702 -0.19214614
7.9146872 -21.698826 -0.19506073
8.5343552 -21.752966 -0.19733977
9.9743166 -22.208754 -0.2056073
10.908213 -22.800293 -0.21345748
26.899267 6.1909375 -0.23311454
24.245224 6.199481 -0.21134697
17.219687 6.2236695 -0.15463287
13.145146 6.2415843 -0.12289398
11.667842 6.2466516 -0.11177094
10.433115 6.250885 -0.10271507
9.3812208 6.2544923 -0.095220104
8.784668 6.1679125 -0.090653531
8.4639063 6.2528024 -0.088870317
7.6646776 6.2555432 -0.083552241
6.9541602 6.2579784 -0.079008482
6.6267676 6.2591004 -0.076981276
6.3155274 6.2601686 -0.07509964
6.0190234 6.2611837 -0.073347621
5.2049022 6.2639747 -0.068779908
4.258574 6.2672181 -0.063991621
4.0416017 6.2679615 -0.062983856
3.2336328 6.2688365 -0.059569702
2.8603418 6.2701144 -0.058202207
2.6798632 6.2707334 -0.057590254
2.5030077 6.2713389 -0.05702522
2.1590526 6.2725167 -0.056023404
1.6633105 6.2742138 -0.054817121
1.5024706 6.2747655 -0.054489363
1.3434472 6.27531 -0.054197539
1.1860352 6.2758493 -0.05393875
1.0300195 6.2763829 -0.053714905
0.87520504 6.2769141 -0.053522948
0.26423827 6.2790051 -0.053074263
-0.038837891 6.2800426 -0.053037032
-0.19039062 6.2805624 -0.053065259
-0.34219727 6.2810812 -0.053122863
-0.49442381 6.2816029 -0.053213805
-0.64725584 6.282125 -0.053334348
-1.4075586 6.1992016 -0.053685453
-1.5658398 6.1997437 -0.054002609
-1.7260742 6.2002916 -0.054353788
-1.889043 6.2025828 -0.054758377
-2.0811522 6.2852955 -0.055914383
-2.423789 6.2864671 -0.056900024
-2.7795801 6.287684 -0.058058243
-2.9631641 6.2883129 -0.058706969
-3.7440331 6.2909827 -0.061825257
-3.9530077 6.2916965 -0.062751234
-4.168457 6.2924328 -0.063743055
-4.3909764 6.2931943 -0.064805605
-4.8596973 6.294796 -0.067159191
-5.1073437 6.2956433 -0.068463132
-5.3649902 6.2965231 -0.069860764
-5.6335058 6.2974415 -0.071358033
-6.20749 6.2994027 -0.074689023
-6.5154099 6.3004565 -0.076544262
-6.7479296 6.2174582 -0.077489167
-7.9339061 6.3134007 -0.085628204
-8.3408985 6.3147922 -0.088352658
-9.2391205 6.3178601 -0.0945253
-9.7375975 6.3195639 -0.098036729
-10.274931 6.3214002 -0.10188179
-10.856484 6.3233848 -0.10610473
-12.012431 6.2412143 -0.11432488
-12.932929 6.3281503 -0.12159584
-13.770517 6.3310118 -0.1279972
-15.744521 6.3377538 -0.1433329
-16.921621 6.3417749 -0.15261383
-18.283535 6.3536119 -0.16346648
-19.828661 6.3588901 -0.17585838
-21.628584 6.3650365 -0.19040526
-26.234911 6.3636179 -0.22798409
-20.119843 -21.708149 -0.24996284
-6.6569629 -7.9162521 -0.087350383
-16.542685 -21.717499 -0.23058586
-14.95334 -21.730188 -0.22277114
-14.195771 -21.733669 -0.21922882
-12.742333 -21.729818 -0.21273667
-11.372851 -21.732861 -0.20715263
-9.4427929 -21.740742 -0.20017654
-8.222558 -21.745432 -0.19633849
-7.6291404 -21.747715 -0.19464867
-7.0446677 -21.747 -0.19305374
-5.3433886 -21.749443 -0.18914169
-3.7023828 -21.758492 -0.1863948
-2.6305468 -21.760647 -0.18511283
-2.0995605 -21.761713 -0.18463676
-1.5709473 -21.762777 -0.18427001
-1.0443262 -21.767344 -0.18404457
-0.51856446 -21.768301 -0.18389122
0.0065624998 -21.769262 -0.18384704
0.53181642 -21.770222 -0.18391052
1.0576757 -21.771181 -0.18408187
3.1807518 -21.778179 -0.18587624
4.8116112 -21.783867 -0.18840362
5.9178224 -21.751787 -0.19037665
7.0475974 -21.711359 -0.19277817
2.8353515 -8.0668659 -0.072211988
8.2222261 -21.704876 -0.19601692
8.8669529 -21.804209 -0.19878753
28.400986 6.1857848 -0.2454769
23.069227 6.2035165 -0.20174712
17.868155 6.2214465 -0.15978889
15.449072 6.2297435 -0.14067909
13.55125 6.2401929 -0.12599525
10.715342 6.249917 -0.10476334
10.148076 6.2518625 -0.10066024
9.6232815 6.2536621 -0.096923597
8.565527 6.1734986 -0.08916977
7.850625 6.2549047 -0.084771648
6.1618552 6.2606945 -0.074185409
4.8308105 6.2652574 -0.066813655
4.5948048 6.2660656 -0.065620951
4.3669238 6.2668467 -0.064507753
3.136328 6.2691684 -0.059200592
2.949785 6.2698083 -0.058517151
2.4137108 6.2716441 -0.056753006
1.9064355 6.2733827 -0.055372696
1.420791 6.2750463 -0.054335251
1.2625977 6.2755871 -0.054060895
1.1059277 6.276124 -0.053819045
0.79628903 6.2771835 -0.053437039
0.49032226 6.2782311 -0.053181838
0.33823243 6.2787523 -0.05310211
0.035019532 6.2797899 -0.053034589
-0.42013672 6.2813478 -0.053165894
-0.87993163 6.2829208 -0.053578183
-1.0351074 6.283452 -0.053779602
-1.3310449 6.1989403 -0.053544767
-1.4884278 6.1994772 -0.053843841
-1.6476953 6.2000232 -0.054178618
-1.9993652 6.2850156 -0.05569908
-2.1678319 6.2855921 -0.056152496
-2.5136034 6.2867761 -0.057179488
-2.6914842 6.287384 -0.057758559
-2.8731346 6.2880054 -0.058383942
-3.4440429 6.289957 -0.060562287
-3.6443357 6.2906418 -0.061397322
-3.850332 6.2913461 -0.062292859
-4.5079103 6.2935934 -0.065378189
-4.9854002 6.2952256 -0.067816921
-5.5011425 6.2969894 -0.070615388
-5.7756443 6.2979259 -0.072166823
-6.918242 6.2180405 -0.078557357
-7.3723435 6.311482 -0.081960678
-8.5596676 6.3155394 -0.089835741
-10.566992 6.3223972 -0.10399414
-12.391376 6.2448387 -0.11719078
-14.234931 6.3325987 -0.13157776
-16.329218 6.3397522 -0.14793472
-17.351572 6.2594528 -0.15578087
-20.598808 -21.707127 -0.25272423
-19.627645 -21.709198 -0.24716529
-17.806776 -21.714481 -0.23716255
-15.331855 -21.728449 -0.22458397
-14.562119 -21.731987 -0.22092567
-13.087705 -21.729052 -0.21422631
-11.700117 -21.732134 -0.20844299
-10.382481 -21.73506 -0.20341301
-7.9172363 -21.746607 -0.19544846
-6.749033 -21.747423 -0.19230506
-6.1783204 -21.748243 -0.19093673
-3.9662304 -21.757959 -0.18678054
-3.4263768 -21.759045 -0.18602577
-2.3581347 -21.761196 -0.18485336
-1.8285253 -21.76226 -0.18443343
-0.24945311 -21.768793 -0.18385567
1.3275976 -21.771675 -0.18421097
2.3862696 -21.776058 -0.1850058
2.9194727 -21.777483 -0.1855638
5.0947948 -21.784189 -0.18893768
5.6524315 -21.784826 -0.19007094
6.7706738 -21.72501 -0.19217934
7.9293747 -21.698881 -0.19510825
9.2235641 -21.901445 -0.20069771
10.934199 -22.819592 -0.21369842
26.827118 6.191185 -0.23251815
21.995243 6.207201 -0.19301026
20.145517 6.2135448 -0.17804381
17.18791 6.2237792 -0.15437858
15.984053 6.2279086 -0.14487495
13.783545 6.1516647 -0.12747459
13.125068 6.2416539 -0.12274071
9.3691311 6.2545338 -0.095136181
8.7735443 6.1679502 -0.090574875
7.6553903 6.2555747 -0.083492279
6.945879 6.2580075 -0.078957058
5.458281 6.2631063 -0.070160829
4.9490819 6.2648535 -0.067425765
4.7088184 6.2656751 -0.066192165
4.4770899 6.2664709 -0.065040357
4.2531247 6.2672362 -0.06396576
4.0363183 6.2679796 -0.062960282
3.5725489 6.1838841 -0.060312118
3.3777051 6.1864462 -0.059526823
2.85583 6.2701292 -0.058186416
2.6754491 6.2707481 -0.057575759
1.9872558 6.2731066 -0.055571973
1.1821582 6.2758627 -0.053932801
0.41233397 6.2784996 -0.053137437
0.26046875 6.2790184 -0.053073041
-0.042587891 6.2800546 -0.053037718
-0.34595701 6.2810936 -0.053125761
-0.49820313 6.2816138 -0.05321518
-0.65103513 6.2821383 -0.053338088
-0.95929688 6.2831931 -0.053677902
-1.411455 6.1992135 -0.053694151
-1.5697753 6.1997571 -0.054010618
-1.8931054 6.2025962 -0.054767761
-2.2552147 6.285892 -0.056399383
-2.6043067 6.287086 -0.057471007
-2.7840526 6.2877002 -0.058073957
-2.9677539 6.2883286 -0.058722839
-3.1557128 6.2889709 -0.059423216
-3.34833 6.2896299 -0.060174711
-3.7491307 6.2909994 -0.061848372
-3.958252 6.2917161 -0.062775187
-4.1738768 6.2924523 -0.063769303
-4.3966017 6.2932129 -0.064833142
-4.8657031 6.2948179 -0.067191772
-5.1136131 6.2956638 -0.068495937
-5.3715234 6.2965455 -0.069896318
-5.6402731 6.2974644 -0.071395874
-5.9210348 6.2984238 -0.073005676
-6.2149415 6.2994285 -0.074734263
-6.523242 6.3004823 -0.076591261
-6.756084 6.2174864 -0.077541195
-7.0933299 6.2186399 -0.079667971
-7.9437008 6.3134336 -0.085693359
-8.3513088 6.3148279 -0.088422775
-9.2510347 6.3179016 -0.094608307
-10.288818 6.3214478 -0.10198227
-11.504971 6.325603 -0.11087974
-12.030078 6.2412753 -0.11445495
-13.792431 6.3310862 -0.12816566
-15.771934 6.3378477 -0.14355087
-16.952784 6.3418822 -0.15286194
-19.870155 6.3590317 -0.17619263
-21.676874 6.3652015 -0.19079392
-23.746983 6.3551207 -0.20760879
-26.304647 6.3638573 -0.22855942
-20.095732 -21.708202 -0.24982879
-19.147274 -21.711281 -0.24447334
-17.363272 -21.715542 -0.23480895
-16.522198 -21.717548 -0.23046531
-15.716484 -21.726681 -0.2264611
-14.177265 -21.733755 -0.21914901
-13.443457 -21.737129 -0.21583427
-11.356347 -21.732901 -0.20708823
-10.697871 -21.73436 -0.20458266
-10.055927 -21.738384 -0.20227858
-8.207715 -21.745487 -0.19629402
-6.4555469 -21.747847 -0.19158645
-5.888906 -21.748661 -0.19028527
-5.3295798 -21.749464 -0.18911484
-4.7767477 -21.750257 -0.18806084
-3.689033 -21.758514 -0.18638007
-3.1513476 -21.7596 -0.18568298
-2.6173437 -21.760674 -0.18510009
-2.0864649 -21.761744 -0.18462814
-1.5579003 -21.762804 -0.18426414
-1.03125 -21.767365 -0.18403572
-0.50554687 -21.768324 -0.18389289
0.019648436 -21.769287 -0.18384667
0.54482418 -21.770245 -0.18391472
1.0707324 -21.771206 -0.18408646
1.5979785 -21.772167 -0.18436569
2.1273632 -21.775372 -0.1847757
4.8252439 -21.783884 -0.18843062
5.9317188 -21.751457 -0.19040641
6.4952731 -21.738062 -0.19160645
7.0617967 -21.710659 -0.19280823
9.6038771 -22.038897 -0.20302956
10.437217 -22.456387 -0.20913322
19.830936 -8.1046743 -0.18092613
-7.6585641 -21.748171 -0.71420294
-5.9308982 -21.748955 -0.69828147
-5.3710642 -21.74976 -0.69394529
-3.7291698 -21.758247 -0.68379742
-2.6569824 -21.760406 -0.67904174
-1.0703906 -21.766855 -0.6750508
-0.019472655 -21.768776 -0.67429566
0.50573242 -21.769735 -0.67450744
1.0315429 -21.770699 -0.67511243
1.558623 -21.77166 -0.6761151
2.0878222 -21.775133 -0.67758816
2.6193848 -21.776552 -0.67939675
3.1541307 -21.777979 -0.68162018
3.6926756 -21.779419 -0.68425274
4.7839646 -21.78233 -0.6907953
5.8900585 -21.752476 -0.69805342
9.5488186 -22.020508 -0.7434622
11.524658 -23.413731 -0.80835247
25.605078 6.1948485 -0.81601071
23.176649 6.2026672 -0.74316907
21.14665 6.2096691 -0.68268293
13.593115 6.2397494 -0.46329314
10.174805 6.2515321 -0.36990324
9.6480665 6.2533469 -0.35613304
8.5867577 6.173214 -0.32758215
8.2697458 6.2532616 -0.3211464
7.1371288 6.257163 -0.29400444
6.8003416 6.2583213 -0.2862674
6.1763964 6.2604685 -0.27240798
5.8862205 6.261467 -0.26619568
5.3430858 6.2633371 -0.2550112
4.6062012 6.2658715 -0.2408863
4.3779492 6.2666564 -0.23678817
4.1572165 6.2674155 -0.23295906
3.2934179 6.1865954 -0.21709335
2.9588768 6.2696385 -0.21474327
2.5975292 6.2708788 -0.21024635
2.4222655 6.271482 -0.20824584
2.081084 6.2726526 -0.20470993
1.9145995 6.2732224 -0.20316283
1.5886133 6.2743421 -0.2004808
1.4286425 6.2748899 -0.19933929
1.2703906 6.2754331 -0.19832504
1.1136523 6.2759705 -0.19743545
0.95821285 6.2765012 -0.19666831
0.65050781 6.2775574 -0.19548827
0.19404297 6.27912 -0.19458885
0.04253906 6.2796397 -0.19451697
-0.10896484 6.2801576 -0.1945581
-0.26059571 6.2806764 -0.19471198
-0.41256836 6.2811952 -0.19497986
-0.56504881 6.2817173 -0.19536224
-0.7182129 6.2822399 -0.19586067
-0.87225586 6.2827682 -0.19647652
-1.4805468 6.1993246 -0.19742431
-1.639707 6.1998682 -0.19864456
-1.8014355 6.2021532 -0.20005035
-1.9910253 6.2848558 -0.20420967
-2.1593554 6.2854309 -0.20586173
-2.863955 6.2878356 -0.21401817
-3.4341698 6.2897801 -0.22197562
-3.6341796 6.2904611 -0.22502753
-4.2704196 6.2926292 -0.23556121
-4.496377 6.2933993 -0.23958114
-4.7303419 6.2941966 -0.2438845
-4.9730077 6.295023 -0.24849266
-5.7615819 6.2977085 -0.2643927
-6.3479295 6.2997046 -0.27702126
-6.5826464 6.224812 -0.28063309
-6.9013281 6.2177963 -0.28773558
-7.3542089 6.3112254 -0.30018172
-7.7251463 6.312489 -0.30901542
-8.1188278 6.3138266 -0.31857824
-8.5378714 6.3152528 -0.32894698
-8.9854097 6.3167734 -0.34021887
-9.4649801 6.3184042 -0.35250342
-9.9807806 6.3201585 -0.36593062
-11.141835 6.3241038 -0.39684039
-13.309258 6.3291416 -0.45649919
-14.188095 6.3321276 -0.48126242
-15.168368 6.3354578 -0.50918138
-17.285116 6.2588596 -0.56943095
-22.308065 6.2952819 -0.71798873
-27.552431 6.3584032 -0.87587744
-20.64871 -21.707651 -0.92801404
-19.6754 -21.709713 -0.90752971
-6.5811911 -8.0058737 -0.32101759
-16.991796 -21.717411 -0.85413688
-16.167734 -21.724077 -0.83881694
-14.599404 -21.731304 -0.8109324
-13.123545 -21.729677 -0.78631026
-10.414736 -21.735659 -0.74656785
-9.7792578 -21.740038 -0.73839736
-9.1564159 -21.742426 -0.730766
-8.5459766 -21.744768 -0.7237038
-7.9468746 -21.747065 -0.71718949
-6.777617 -21.747744 -0.70559907
-5.0867872 -21.750166 -0.69189805
-3.9930272 -21.757715 -0.68520778
-3.4530077 -21.758802 -0.68241882
-2.3844628 -21.760956 -0.67808729
-1.8546777 -21.76202 -0.67652756
0.77501953 -21.770229 -0.67477036
1.3014257 -21.771191 -0.67558163
2.8929687 -21.777283 -0.68048263
3.9703515 -21.780155 -0.68576729
5.6245313 -21.784433 -0.69690812
6.7425485 -21.726332 -0.70464087
7.9000096 -21.6989 -0.71529126
8.5186329 -21.75124 -0.72358322
9.1879101 -21.890053 -0.73535877
9.9545898 -22.200399 -0.75363147
10.884589 -22.785858 -0.78219074
11.443809 -8.1459885 -0.43511218
24.249765 6.1851768 -0.77519202
20.229189 6.2128344 -0.65549284
18.633614 6.2184277 -0.60847712
17.250683 6.223197 -0.56805176
16.039385 6.2273741 -0.5329572
11.684013 6.2463293 -0.41038871
8.0616207 6.2539768 -0.3160421
7.673779 6.2553134 -0.30666426
6.3228807 6.2599645 -0.27560356
5.4712696 6.2628965 -0.25759497
5.2110934 6.2637901 -0.25238737
4.7204199 6.2654786 -0.24298942
4.4882617 6.2662768 -0.23875237
4.2639451 6.2670493 -0.23479323
3.2383008 6.2686791 -0.21855156
3.0493846 6.2693286 -0.21594673
2.8648045 6.2699609 -0.21352485
2.3337207 6.2717843 -0.20728202
1.995459 6.2729468 -0.20389961
1.6672949 6.2740722 -0.20108505
1.5064062 6.2746239 -0.19988021
1.3473535 6.2751684 -0.19880417
1.1899023 6.2757092 -0.19785354
0.72519529 6.2773008 -0.19573334
0.57220703 6.2778244 -0.19526245
0.41986328 6.278347 -0.19490638
0.26797852 6.2788672 -0.19466574
0.11638672 6.279386 -0.19453788
-0.18663086 6.2804236 -0.19462295
-0.33841795 6.2809424 -0.1948349
-0.797041 6.2825108 -0.19616172
-0.95159179 6.2830396 -0.19683746
-1.1073145 6.2835703 -0.19763306
-1.2643847 6.2841086 -0.19855163
-1.4036328 6.1990609 -0.19687645
-1.8849511 6.2024403 -0.20079818
-2.0769336 6.2851501 -0.20503791
-2.2466795 6.2857285 -0.20676444
-2.419414 6.2863183 -0.20864387
-2.5954199 6.2869177 -0.21068001
-3.3385839 6.289454 -0.22056311
-3.5359862 6.2901268 -0.22351241
-4.1629395 6.2922645 -0.23369919
-4.6152244 6.2938046 -0.24175033
-5.3583202 6.2963352 -0.25609505
-5.626543 6.2972484 -0.26157683
-5.9066796 6.2982016 -0.26745826
-6.199863 6.2992005 -0.27377281
-6.7396092 6.2172484 -0.28402305
-7.5416112 6.3118639 -0.30462265
-8.330205 6.3145456 -0.32378477
-8.7634182 6.3160191 -0.33460319
-9.2268744 6.317595 -0.34637985
-9.7244625 6.3192868 -0.35923102
-10.841005 6.323081 -0.38874829
-13.748008 6.3306322 -0.46882823
-15.716269 6.3373179 -0.52490419
-16.889648 6.3413048 -0.55882072
-19.786259 6.3583288 -0.64375228
-26.1633 6.3628354 -0.83403844
-22.83621 -8.086669 -0.75040203
-19.194248 -21.712202 -0.89766651
-6.6674414 -7.9190769 -0.3206594
-15.755683 -21.725977 -0.83130163
-14.972129 -21.729589 -0.8173877
-11.389775 -21.733505 -0.76004803
-10.087773 -21.738855 -0.74233717
-8.8421288 -21.743633 -0.72707456
-7.0591407 -21.747339 -0.70822948
-6.4839649 -21.748163 -0.70295852
-5.9169335 -21.748976 -0.6981656
-5.3572655 -21.749777 -0.69384396
-3.1779199 -21.759357 -0.68115431
-2.6437597 -21.760433 -0.6789909
-2.1126757 -21.761503 -0.6772368
-1.0573339 -21.76688 -0.67503065
-0.53161132 -21.767841 -0.67446595
-0.0064453124 -21.768801 -0.67429757
0.51875973 -21.76976 -0.67451936
2.1009862 -21.775171 -0.67762727
2.632627 -21.776588 -0.67944813
3.7061033 -21.779453 -0.68432415
4.7978711 -21.783491 -0.6909259
6.4671288 -21.73876 -0.70253235
8.2067671 -21.703182 -0.71872199
10.395225 -22.436157 -0.76593918
19.800713 -8.1200008 -0.66290307
25.539307 6.1950755 -0.81402975
23.121962 6.2028575 -0.74153417
19.123369 6.1328573 -0.62206542
16.610743 6.2254052 -0.54947221
15.474727 6.229321 -0.51671445
14.282216 6.1535826 -0.48171955
12.019775 6.245173 -0.41957071
11.346669 6.2474937 -0.4012199
10.729589 6.249619 -0.38462061
9.0181932 6.166893 -0.33840889
8.5759954 6.1732516 -0.32730421
8.2595119 6.2532959 -0.32089463
7.8599801 6.2546716 -0.31114486
7.483779 6.2559681 -0.30213767
7.1285644 6.2571912 -0.29380637
6.1690331 6.2604942 -0.27224898
5.879209 6.2614927 -0.26604727
5.6020994 6.262445 -0.26026908
5.0817966 6.2642355 -0.24985549
4.6004491 6.2658911 -0.2407824
4.1518359 6.2674341 -0.23286773
3.4811425 6.1840549 -0.21981475
3.2886815 6.1866126 -0.21702255
2.417959 6.2714963 -0.20819862
2.2459862 6.2720861 -0.20635994
1.910498 6.2732372 -0.20312484
1.2664844 6.2754464 -0.19830208
0.64670897 6.2775693 -0.19547714
0.49409178 6.2780933 -0.19506584
0.34199217 6.2786131 -0.19476867
0.038779296 6.2796521 -0.19451614
-0.26435545 6.2806883 -0.1947168
-0.41634765 6.2812085 -0.19498809
-0.56883788 6.2817307 -0.19537285
-0.72203124 6.2822547 -0.195875
-0.87608397 6.2827821 -0.19649284
-1.1876074 6.2838464 -0.1980883
-1.329746 6.2110167 -0.19674338
-1.4844726 6.1993384 -0.19745277
-1.8054589 6.202168 -0.20008574
-2.1635644 6.2854452 -0.20590408
-2.3348045 6.2860289 -0.20770819
-2.5091796 6.2866244 -0.20966682
-2.6869726 6.2872314 -0.21178772
-3.054121 6.2884836 -0.21654464
-3.4390624 6.2897959 -0.22204788
-3.6392088 6.2904782 -0.22510673
-3.8450487 6.2911801 -0.22838493
-4.7362595 6.2942162 -0.24399611
-6.0551758 6.298707 -0.27063727
-6.5905662 6.2248387 -0.28080833
-7.7346287 6.3125205 -0.30924445
-8.9968653 6.3168125 -0.34051055
-9.4773045 6.3184471 -0.35282218
-9.994092 6.3202038 -0.36627731
-11.15748 6.3241577 -0.39726338
-14.211132 6.3322058 -0.48191455
-19.007519 6.3556833 -0.62080669
-16.970839 -21.717461 -0.85374898
-16.147617 -21.724173 -0.83844376
-14.580595 -21.731392 -0.81061244
-13.10584 -21.729717 -0.78603101
-12.402001 -21.73127 -0.7750389
-11.049932 -21.734255 -0.75523764
-10.39876 -21.735693 -0.74635339
-9.7636328 -21.740097 -0.73820388
-6.7633104 -21.747763 -0.70546728
-4.5230274 -21.750977 -0.68815506
-3.9795995 -21.757744 -0.68513334
-2.9037988 -21.759909 -0.67999649
-2.3712988 -21.760983 -0.67804444
-1.3139062 -21.763109 -0.67534423
-0.78781247 -21.767372 -0.67469221
2.3730469 -21.775898 -0.67851132
3.9837987 -21.780193 -0.68584102
5.6384568 -21.784449 -0.69701856
6.1916795 -21.745308 -0.70034176
6.7566013 -21.725641 -0.70475286
8.5346479 -21.753706 -0.72382599
9.2061033 -21.896626 -0.7357626
9.975625 -22.211655 -0.75421584
10.910537 -22.805141 -0.7830776
11.443857 -8.1356812 -0.43496624
24.24329 6.198988 -0.7751053
22.043505 6.2065759 -0.70935363
18.596846 6.2185535 -0.60739499
16.011162 6.2274704 -0.53214192
14.943427 6.2311535 -0.50150502
12.370908 6.2439623 -0.42923731
11.667343 6.2463865 -0.40993458
9.8868551 6.2525244 -0.36235014
8.463623 6.2525916 -0.32594359
8.0517092 6.2540121 -0.31580025
7.2992773 6.2566028 -0.29778761
6.9539452 6.2577929 -0.28977522
6.6265721 6.2589197 -0.28234321
6.3153415 6.2599912 -0.27543709
5.7356834 6.2619858 -0.26303467
5.4646974 6.2629185 -0.25746229
5.2047653 6.2638135 -0.25226286
4.7145605 6.2654991 -0.24288109
4.4826169 6.2662964 -0.23865074
4.2584667 6.2670665 -0.23469847
4.0415039 6.2678123 -0.23100792
3.7788768 6.1830335 -0.22445655
3.577373 6.1837244 -0.22128333
3.2335644 6.2686949 -0.2184848
3.0447557 6.2693443 -0.21588379
2.159004 6.2723837 -0.20547546
1.9913379 6.2729602 -0.20386107
1.8261719 6.2735267 -0.20238937
1.3434179 6.2751818 -0.1987786
1.1860156 6.2757225 -0.19783179
1.0299902 6.276257 -0.19700821
0.72138673 6.2773142 -0.19572021
0.41608396 6.2783594 -0.19489966
-0.34219727 6.2809558 -0.19484168
-0.95543945 6.2830529 -0.19685555
-1.1111816 6.2835836 -0.19765426
-1.2683008 6.284122 -0.19857605
-1.4075292 6.1990733 -0.19690475
-1.7260351 6.2001624 -0.19935332
-2.2509375 6.2857432 -0.20680931
-2.5998437 6.2869334 -0.21073219
-2.7795117 6.2875462 -0.21293807
-2.9630859 6.2881737 -0.21531852
-3.5409472 6.290144 -0.22358856
-3.7439353 6.2908349 -0.22675788
-3.9529197 6.2915478 -0.23015365
-4.85957 6.2946386 -0.24632148
-5.9137793 6.2982273 -0.26760948
-6.207324 6.2992258 -0.27393684
-6.7477536 6.2172751 -0.284208
-7.0845017 6.2184205 -0.2919873
-7.5508204 6.3118958 -0.30484268
-7.9336424 6.3131981 -0.31405783
-10.274531 6.321156 -0.37366524
-10.856045 6.3231335 -0.38915163
-11.488154 6.3252816 -0.40622076
-12.011914 6.2409449 -0.4192943
-12.932343 6.3278613 -0.44596538
-18.282402 6.3532214 -0.59952199
-23.687635 6.3544273 -0.75967407
-26.232635 6.36307 -0.83612686
-14.235859 -7.9588785 -0.50519562
-20.120419 -21.708769 -0.91684014
-14.952998 -21.729675 -0.81704992
-14.195439 -21.733164 -0.80407113
-13.461103 -21.736547 -0.79195052
-12.742743 -21.730516 -0.78030407
-12.048847 -21.73205 -0.76969582
-10.714355 -21.734995 -0.75060886
-9.4430466 -21.741327 -0.73422199
-8.8269825 -21.74369 -0.72689778
-4.7905369 -21.750591 -0.68987656
-3.7023437 -21.758301 -0.68365884
-2.6305273 -21.760462 -0.67894286
-1.5709375 -21.762592 -0.67585713
-0.51856446 -21.767866 -0.67445874
1.584834 -21.771706 -0.67617041
2.114121 -21.775204 -0.67766577
2.6458592 -21.776625 -0.67950207
3.1807323 -21.778051 -0.681741
3.7195213 -21.779488 -0.68439305
4.2628222 -21.780937 -0.68747008
4.811533 -21.783508 -0.69101447
5.36584 -21.78414 -0.69494039
6.4812012 -21.738428 -0.70264876
7.0475779 -21.711298 -0.70705712
2.8320117 -8.0573292 -0.26454666
8.8672657 -21.804958 -0.72913468
10.416953 -22.447775 -0.7665472
19.800625 -8.1060743 -0.66273594
21.054443 6.2099862 -0.67994583
19.084492 6.1329918 -0.62092173
16.580801 6.2255077 -0.54860401
14.258896 6.1536632 -0.48104292
12.002304 6.2452331 -0.41909438
11.330712 6.2475486 -0.40078795
10.714911 6.2496705 -0.38422883
7.8503709 6.2547059 -0.31091118
7.4747167 6.2559996 -0.30192429
7.1199803 6.2572203 -0.29360777
6.7840719 6.2583776 -0.28589889
6.4651756 6.2594762 -0.27874258
4.3668165 6.2666955 -0.23659264
4.1464453 6.2674522 -0.23277625
3.8792772 6.1826878 -0.22608665
3.674912 6.1833897 -0.22280356
3.4762793 6.184072 -0.21974525
3.2839258 6.1866283 -0.21695548
2.9497266 6.2696705 -0.21462287
2.4136522 6.2715111 -0.20815101
2.2417383 6.2720995 -0.20631477
1.7424414 6.2738132 -0.20168723
1.5806249 6.2743688 -0.20042183
1.1059082 6.2759957 -0.19739494
0.79627925 6.2770581 -0.19599044
0.6429199 6.2775826 -0.19546539
0.49031249 6.2781067 -0.19505721
0.18651366 6.2791467 -0.19458289
0.035019532 6.2796655 -0.19451621
-0.11647461 6.2801828 -0.19456284
-0.268125 6.2807016 -0.19472305
-0.42012694 6.2812219 -0.19499657
-0.72583985 6.2822666 -0.19588821
-0.87992185 6.282794 -0.19650955
-1.1915039 6.2838597 -0.19811112
-1.3310156 6.1988134 -0.19638504
-1.8095019 6.2021813 -0.20012085
-1.9993163 6.284884 -0.20428848
-2.167793 6.28546 -0.20594665
-2.3391016 6.2860446 -0.20775436
-2.5135546 6.2866392 -0.20971733
-2.6914258 6.2872458 -0.21184212
-2.8730664 6.2878661 -0.21413627
-3.644248 6.2904968 -0.2251841
-4.0624509 6.2919226 -0.2319873
-4.7421775 6.2942371 -0.24410583
-4.9852734 6.2950644 -0.24873
-5.5009961 6.2968211 -0.25899237
-5.7754979 6.2977548 -0.26468521
-6.0624704 6.2987328 -0.27079314
-6.363203 6.2997556 -0.27735764
-6.5985055 6.2248654 -0.28098992
-6.9180174 6.217854 -0.28811973
-7.7441306 6.3125534 -0.30947357
-8.1389742 6.3138952 -0.31907332
-8.5593843 6.3153257 -0.32948425
-9.0084276 6.316853 -0.34080368
-9.4896679 6.3184886 -0.35314199
-10.007431 6.3202491 -0.36662871
-11.173163 6.3242111 -0.39768592
-13.350713 6.3292823 -0.45766181
-14.234219 6.332284 -0.48257113
-20.713827 6.3614807 -0.67119408
-22.308153 6.26651 -0.71775192
-27.552547 6.3237205 -0.87563872
-19.628193 -21.709814 -0.90659022
-18.699707 -21.713371 -0.88761991
-17.807587 -21.715481 -0.86988926
-16.127501 -21.724264 -0.83807379
-13.088124 -21.729755 -0.78575122
-10.382792 -21.735727 -0.74613976
-9.7480373 -21.740156 -0.73800427
-7.9174414 -21.747177 -0.71688056
-7.3283496 -21.746956 -0.71083629
-6.1784177 -21.748604 -0.70032537
-5.0593653 -21.750204 -0.6917057
-4.5094724 -21.750996 -0.68806958
-3.4263475 -21.758858 -0.68229353
-1.8285059 -21.762075 -0.67646104
-0.24945311 -21.768356 -0.6743269
0.27559569 -21.769316 -0.67436802
0.80109376 -21.770275 -0.67480099
1.8558496 -21.774517 -0.67691779
2.38625 -21.775932 -0.67855328
2.9194531 -21.777353 -0.68059736
4.5431933 -21.781685 -0.68921566
5.094707 -21.783831 -0.69296753
9.224287 -21.903202 -0.7361725
10.936533 -22.824457 -0.78396684
26.824764 6.1906419 -0.85274518
24.183973 6.199193 -0.77332801
21.993633 6.206748 -0.70786983
20.144159 6.2131286 -0.65297949
18.560547 6.2186804 -0.60632932
17.186914 6.2234168 -0.56619817
15.983183 6.2275672 -0.53133488
14.918486 6.2312388 -0.5007956
13.782871 6.1513648 -0.46751705
12.352705 6.2440257 -0.42873314
11.650693 6.2464452 -0.40947929
10.418681 6.2506919 -0.37634647
9.8738861 6.2525697 -0.36201116
9.3687983 6.2543077 -0.34892356
7.6551461 6.2553782 -0.30621803
6.9456735 6.2578211 -0.28958571
6.6186814 6.2589478 -0.2821666
6.3078318 6.260016 -0.27527237
5.7288084 6.2620091 -0.26289093
5.1984863 6.263834 -0.2521382
4.9489551 6.2646923 -0.24729423
4.0362306 6.2678308 -0.23091872
3.7738085 6.1830506 -0.22437651
3.3776171 6.186306 -0.2183232
3.2288377 6.2687106 -0.21841796
2.8557618 6.2699924 -0.2134095
2.1548047 6.2723999 -0.20543395
1.9872265 6.2729745 -0.20382302
1.8221191 6.273541 -0.20235488
1.1821387 6.2757349 -0.19780959
0.87136716 6.2768006 -0.19628921
0.56465816 6.2778502 -0.19524169
0.26045898 6.2788925 -0.19465691
0.10887695 6.2794113 -0.19453438
-0.49819335 6.2814889 -0.19518021
-1.2722168 6.2841344 -0.19860061
-1.4114257 6.1990881 -0.1969313
-2.085283 6.2851782 -0.20511924
-2.604248 6.2869492 -0.21078567
-2.9676855 6.2881885 -0.21537986
-3.1556444 6.2888303 -0.21794547
-3.3482518 6.2894874 -0.22070281
-3.749043 6.2908521 -0.22683975
-4.6268263 6.2938452 -0.24196342
-4.8655763 6.2946582 -0.24643607
-5.1134863 6.2955003 -0.25122672
-6.2147555 6.2992516 -0.27409744
-6.7558789 6.2173033 -0.28439391
-7.0931149 6.218451 -0.29218909
-9.7500973 6.3193736 -0.35989991
-10.288408 6.3212037 -0.37402961
-10.871094 6.3231859 -0.38955551
-11.504482 6.3253355 -0.40666679
-14.725478 6.3339524 -0.4965314
-16.951817 6.341516 -0.56062609
-18.318134 6.3533421 -0.60056919
-19.868828 6.3586097 -0.64619404
-23.745117 6.3546228 -0.76139766
-26.302382 6.363308 -0.83822995
-14.225605 -7.9643188 -0.50500095
-20.096317 -21.70882 -0.9163304
-19.148203 -21.712309 -0.89672041
-16.52293 -21.718519 -0.84529388
-15.716123 -21.72616 -0.83058828
-14.933955 -21.729763 -0.81671995
-14.176933 -21.733252 -0.80376077
-13.443134 -21.736629 -0.79165381
-12.725224 -21.730556 -0.7800318
-12.031943 -21.732086 -0.76944405
-10.056201 -21.738977 -0.74193126
-8.8118944 -21.743748 -0.72672576
-7.6147361 -21.748339 -0.71377248
-7.0303516 -21.747383 -0.70795643
-5.329658 -21.749819 -0.69363731
-4.7768455 -21.75061 -0.68978637
-4.2310448 -21.757236 -0.6865617
-2.6173143 -21.760489 -0.67889518
-2.0864551 -21.761555 -0.67716259
-1.5578905 -21.762619 -0.67582762
-0.50552732 -21.767891 -0.67444879
1.0707226 -21.770769 -0.67517364
1.5979394 -21.771729 -0.67620176
2.6590331 -21.776659 -0.67955059
3.732949 -21.779526 -0.68446785
4.2763867 -21.780973 -0.68755639
4.8251562 -21.783525 -0.69110566
5.3796287 -21.784155 -0.69504273
6.4952731 -21.738091 -0.70276022
7.0617676 -21.710598 -0.70717329
8.2382908 -21.708038 -0.71920991
9.6046772 -22.040693 -0.74472606
10.438613 -22.45937 -0.76715499
19.800547 -8.092248 -0.66257262
-8.8575096 -21.744154 -1.2569913
-8.2527151 -21.746469 -1.2452574
-7.6587596 -21.748745 -1.2344434
-7.0736523 -21.747681 -1.2243421
-5.931006 -21.749311 -1.2069081
-3.7291405 -21.75806 -1.1818444
-3.1911817 -21.759142 -1.1773757
-0.54463863 -21.76738 -1.1657257
1.0315331 -21.770258 -1.1668221
1.5585938 -21.771221 -1.1685513
3.1541016 -21.777851 -1.1780845
3.6926563 -21.779287 -1.182636
4.235703 -21.780735 -1.1879158
4.784121 -21.783117 -1.1939948
5.3380761 -21.783745 -1.200738
5.8900781 -21.752506 -1.2065004
6.4530663 -21.739126 -1.2140388
7.0193067 -21.712629 -1.2216603
2.8132031 -8.0345936 -0.45575267
8.1912594 -21.701485 -1.2418395
10.374941 -22.427544 -1.3229495
11.52957 -23.423698 -1.3977149
19.759726 -8.1169758 -1.1436527
23.174873 6.2021933 -1.2843755
21.145155 6.2092333 -1.1798463
17.934443 6.220459 -1.0162698
16.639784 6.2249475 -0.9511376
15.500459 6.2288976 -0.89434338
14.304824 6.153193 -0.83368468
13.592461 6.2394505 -0.80070609
12.776524 6.2422791 -0.76128918
11.362178 6.24718 -0.69417709
10.174414 6.2512937 -0.63930559
9.6477051 6.2531176 -0.6155107
7.8693457 6.2544384 -0.53815651
7.4926071 6.2557421 -0.52256262
7.1369138 6.2569723 -0.50813526
6.800127 6.2581372 -0.49476099
6.4804392 6.259243 -0.48234892
5.3429394 6.2631726 -0.44074169
5.0878515 6.2640524 -0.43203986
4.6060839 6.2657166 -0.41633251
4.3778415 6.2665038 -0.40924796
2.9588084 6.2694993 -0.37114853
2.7762303 6.2701292 -0.36711419
2.597461 6.2707434 -0.36337501
2.0810254 6.2725205 -0.35380834
1.9145508 6.2730908 -0.35113281
1.7504785 6.2736559 -0.34869879
1.5885742 6.2742124 -0.34649909
1.2703613 6.2753053 -0.34277296
1.113623 6.2758422 -0.34123442
0.65048826 6.2774301 -0.33787107
0.34574217 6.2784753 -0.33663779
0.19404297 6.278995 -0.33631569
0.04253906 6.2795129 -0.33619064
-0.26059571 6.2805505 -0.33652776
-0.41255859 6.2810693 -0.3369911
-0.56504881 6.2815905 -0.33765212
-0.87223631 6.2826414 -0.33957717
-1.027334 6.2831702 -0.34084618
-1.3306934 6.2336569 -0.34124771
-1.4805175 6.1991954 -0.34121758
-1.639668 6.1997385 -0.34332412
-2.3304687 6.2858801 -0.35890809
-2.5047655 6.2864747 -0.36228684
-2.6824706 6.2870789 -0.36594513
-2.8639061 6.2876964 -0.36989516
-3.2393358 6.2889743 -0.37872908
-4.0516891 6.2917347 -0.40063846
-4.4962692 6.2932444 -0.41407558
-4.7302146 6.2940378 -0.42151392
-5.225029 6.2957177 -0.43800998
-6.0477438 6.2985082 -0.46747828
-6.5824609 6.2246299 -0.48501778
-6.901113 6.2176108 -0.4972983
-7.3539844 6.3110313 -0.51880914
-8.1185646 6.3136206 -0.55060256
-8.5375776 6.3150392 -0.56852525
-8.9850874 6.3165526 -0.58800542
-10.537363 6.321804 -0.65787488
-13.308642 6.328845 -0.78896308
-15.167568 6.3351254 -0.88000786
-20.623407 6.3607397 -1.1554331
-28.608212 6.6020179 -1.5718504
-28.738495 5.905869 -1.5707207
-28.854483 5.2077427 -1.5697395
-18.7458 -21.714287 -1.5357827
-16.167343 -21.723549 -1.4497479
-13.123955 -21.730383 -1.3590878
-11.734355 -21.733429 -1.3223029
-10.415049 -21.736328 -1.2903842
-9.779521 -21.740629 -1.2762609
-7.9470897 -21.747639 -1.2395978
-6.2066212 -21.748919 -1.2108552
-5.086875 -21.750519 -1.1958796
-3.4529686 -21.758617 -1.179464
-1.8546484 -21.761835 -1.1692842
-1.3269628 -21.762899 -1.1672808
1.3014063 -21.770752 -1.1676205
1.8295996 -21.774319 -1.1698393
3.4295506 -21.778584 -1.1803272
3.9703221 -21.780029 -1.1852498
5.0671873 -21.783438 -1.1973553
5.6244531 -21.784069 -1.204496
6.1776657 -21.745674 -1.2102638
2.724668 -8.0853567 -0.45678183
7.9000487 -21.699036 -1.236295
9.1886616 -21.891815 -1.2710731
9.9558983 -22.20331 -1.302727
10.886904 -22.790712 -1.3522062
11.439716 -8.1430702 -0.75176108
28.523417 -8.2306242 -1.589359
24.245762 6.1841574 -1.3395976
17.249668 6.2228317 -0.9817487
14.967656 6.2307444 -0.86797959
13.8262 6.1509118 -0.81014431
11.683525 6.2460666 -0.70927227
10.446377 6.2503514 -0.65172929
9.8995409 6.2522459 -0.62684166
8.7951851 6.1674461 -0.57510453
8.4738865 6.252346 -0.56378692
8.0613575 6.2537756 -0.54621983
7.6735349 6.2551169 -0.53001291
7.3078513 6.2563815 -0.5150308
6.3227148 6.2597876 -0.47633079
6.0258594 6.2608128 -0.46521118
5.7423925 6.2617931 -0.45485869
5.4711227 6.2627292 -0.44520763
4.7203026 6.2653222 -0.41996551
4.0467286 6.2676463 -0.39941084
3.7838671 6.1828699 -0.38807583
3.5822265 6.1835642 -0.38258559
2.6841698 6.2704453 -0.3651621
2.507246 6.2710533 -0.3615692
2.1631544 6.2722373 -0.35520262
1.9954199 6.2728138 -0.35240608
1.3473145 6.2750416 -0.34360039
1.189873 6.2755809 -0.34195793
0.72517574 6.277174 -0.33829308
0.57218748 6.277699 -0.33747932
0.11638672 6.2792602 -0.33622795
-0.3384082 6.2808166 -0.33674163
-0.64341795 6.2818589 -0.3380686
-0.95157224 6.2829123 -0.34020132
-1.1072851 6.2834435 -0.3415769
-1.5618163 6.1994739 -0.34226838
-1.7220019 6.2000208 -0.34449211
-2.2466309 6.2855954 -0.35735878
-2.4193652 6.2861838 -0.36060509
-2.5953612 6.2867823 -0.36412597
-3.146162 6.2886572 -0.37645614
-3.3385057 6.2893114 -0.3812055
-3.5358984 6.2899828 -0.38630462
-3.9475584 6.2913804 -0.39763218
-4.1628418 6.2921128 -0.40390825
-4.6151075 6.2936473 -0.4178232
-5.1008301 6.2952952 -0.43377644
-5.3581834 6.2961693 -0.44261509
-5.9065037 6.2980285 -0.46225527
-6.5072165 6.3000646 -0.48489818
-7.5413671 6.311666 -0.52648538
-8.3299217 6.3143358 -0.5596031
-9.2265425 6.3173695 -0.59865147
-11.993701 6.2406116 -0.72382611
-13.747334 6.330327 -0.81027013
-14.675859 6.3334641 -0.85574341
-15.715439 6.3369775 -0.9071812
-16.888672 6.340941 -0.96579379
-19.784931 6.3579078 -1.112572
-23.628613 6.3537378 -1.3099366
-28.799814 5.5484118 -1.5702046
-28.600342 -6.3875861 -1.5688969
-28.116543 -8.4545622 -1.5718539
-14.223007 -7.9405136 -0.87208426
-17.407412 -21.717421 -1.4900804
-14.971758 -21.729073 -1.4127117
-13.478749 -21.735966 -1.3692569
-12.760586 -21.731178 -1.3491677
-12.06622 -21.7327 -1.3308032
-10.730849 -21.735634 -1.2977422
-10.088037 -21.739449 -1.2830659
-9.4587307 -21.741856 -1.2693732
-8.8423634 -21.744213 -1.2566907
-8.2378416 -21.746529 -1.2449774
-7.6441402 -21.748798 -1.2341835
-6.4840527 -21.748522 -1.2149953
-4.257998 -21.756992 -1.1868966
-2.1126561 -21.761318 -1.1705115
-1.5840234 -21.762383 -1.168172
-1.0573242 -21.766439 -1.1666832
2.6326075 -21.776459 -1.1743344
3.1674316 -21.777887 -1.1781869
6.4671483 -21.738791 -1.2142349
7.0334473 -21.711933 -1.2218585
2.819834 -8.0380745 -0.45604572
9.5681639 -22.029009 -1.2858069
19.759403 -8.1030598 -1.143355
19.122128 6.1324596 -1.0751017
17.900156 6.2205772 -1.0145345
13.571181 6.2395248 -0.79966933
12.757324 6.2423449 -0.76036823
12.019248 6.2449045 -0.72514403
11.346201 6.2472348 -0.69342816
10.160898 6.2513413 -0.63868862
9.0178709 6.1666746 -0.58487731
6.1688476 6.2603183 -0.47053355
4.6003318 6.2657361 -0.41614926
3.884326 6.1825242 -0.39089534
3.4810741 6.1839132 -0.3799172
3.1408594 6.2688732 -0.37538216
2.9542382 6.269515 -0.37104523
2.7717481 6.270144 -0.36701864
2.2459373 6.2719531 -0.35665825
1.7464453 6.2736707 -0.34864157
1.424668 6.2747741 -0.34447959
1.1097559 6.2758555 -0.34120017
0.19029297 6.2790074 -0.33631012
-0.11272461 6.2800436 -0.33626646
-0.41633788 6.2810826 -0.33700445
-0.56882811 6.2816038 -0.33767065
-0.87606442 6.2826538 -0.33960587
-1.6436523 6.1997533 -0.34337845
-1.8054199 6.2020383 -0.34581801
-1.995127 6.2847376 -0.35301024
-2.3347461 6.2858949 -0.35898849
-2.5091307 6.286489 -0.3623738
-2.686914 6.2870932 -0.36603889
-2.8684473 6.2877111 -0.36999694
-3.0540428 6.2883434 -0.3742601
-3.2441113 6.2889915 -0.37884772
-3.8449609 6.2910328 -0.3947247
-4.2758102 6.2924962 -0.4072932
-4.5019727 6.2932639 -0.41425365
-5.2314062 6.2957382 -0.43823001
-5.4941893 6.2966294 -0.4473871
-5.7683692 6.2975607 -0.45720842
-6.0550098 6.2985315 -0.4677479
-6.9094529 6.2176404 -0.49763155
-8.128623 6.3136535 -0.55102926
-8.5483198 6.3150754 -0.56898743
-10.551728 6.3218517 -0.65853453
-11.816513 6.3261304 -0.71757305
-14.21042 6.3318906 -0.83288664
-15.19332 6.3352122 -0.88128161
-16.298231 6.3389454 -0.93622941
-17.316698 6.2585974 -0.98577297
-20.667675 6.3608899 -1.1577026
-24.865751 6.3579135 -1.374059
-28.857197 5.190433 -1.5697163
-29.05994 -6.1323223 -1.5900432
-28.527197 -6.7424889 -1.5693344
-28.020605 -8.8047571 -1.5724539
-20.624668 -21.70833 -1.6030955
-19.652334 -21.710381 -1.5677811
-18.723223 -21.71434 -1.534999
-17.830175 -21.716431 -1.504295
-16.147226 -21.723642 -1.4491084
-14.580254 -21.730879 -1.4010042
-13.834248 -21.734325 -1.379302
-13.106259 -21.730419 -1.3585992
-11.717617 -21.733467 -1.3218782
-11.050283 -21.734932 -1.3053741
-9.7639065 -21.740688 -1.2759235
-7.3438182 -21.74995 -1.2290279
-6.1925387 -21.74894 -1.2106493
-5.6293554 -21.749743 -1.202783
-5.0731735 -21.75054 -1.1957117
-4.5231152 -21.751328 -1.1894054
-3.4396191 -21.758644 -1.1793532
-2.903789 -21.759722 -1.175276
-1.3138964 -21.762924 -1.1672398
-0.78781247 -21.766933 -1.1660962
0.26263672 -21.768854 -1.1655229
1.842705 -21.774355 -1.169899
2.3730469 -21.775768 -1.172711
3.4429102 -21.77862 -1.1804388
4.529541 -21.781519 -1.1910599
5.6383691 -21.784086 -1.2046825
2.7246192 -8.0692263 -0.45596322
10.912861 -22.809999 -1.3537388
26.894541 6.1898475 -1.4774938
24.241367 6.1984935 -1.3395641
22.041895 6.2061229 -1.2259361
20.185225 6.2125621 -1.1306812
18.595694 6.2181649 -1.0497385
17.217676 6.2229428 -0.98014075
13.143916 6.2410059 -0.77897978
11.023486 6.248353 -0.67837614
8.7840528 6.1674852 -0.57461298
8.4633493 6.2523828 -0.56333387
7.6641893 6.2551475 -0.52962655
6.9537401 6.2576051 -0.50082386
6.3151755 6.2598143 -0.47604507
5.7355175 6.2618165 -0.45461023
5.2046385 6.2636499 -0.43599245
4.9549022 6.2645116 -0.42760694
4.258369 6.2669163 -0.40563595
3.2334862 6.2685547 -0.37761474
3.0446875 6.2692041 -0.37312004
2.8602147 6.2698398 -0.36894295
2.6797462 6.2704601 -0.36506972
2.5029004 6.271069 -0.36148399
1.8261328 6.273396 -0.34979591
1.6632421 6.2739549 -0.34748879
1.5024121 6.274508 -0.34541047
0.87517577 6.27666 -0.33928093
0.72136718 6.2771873 -0.33827072
0.56840819 6.2777123 -0.33746138
0.41607422 6.2782335 -0.33685201
0.26421875 6.2787538 -0.33644003
-0.038828123 6.2797914 -0.33620444
-0.34219727 6.280829 -0.33675209
-0.49439451 6.2813501 -0.33732155
-0.64722657 6.2818713 -0.33808959
-0.9554199 6.2829261 -0.34023345
-1.2682714 6.2839942 -0.34320709
-1.4075097 6.1989465 -0.34031683
-2.2508886 6.2856102 -0.35743636
-2.4236815 6.2861972 -0.36068916
-2.5997753 6.286798 -0.36421674
-2.779453 6.2874093 -0.36802939
-3.1508691 6.2886729 -0.37656975
-3.3433397 6.2893271 -0.38132742
-3.7438476 6.2906885 -0.39191341
-3.952832 6.2913976 -0.39778316
-4.3907619 6.2928858 -0.41080058
-4.6209178 6.2936668 -0.41800845
-4.8594532 6.2944775 -0.42572513
-5.10708 6.2953172 -0.43398869
-5.364707 6.2961912 -0.44284242
-6.2071481 6.2990489 -0.4734486
-6.7475486 6.2170911 -0.49120173
-8.340332 6.3143711 -0.56004697
-9.2384567 6.3174095 -0.59917897
-10.855605 6.3228807 -0.67257047
-12.011387 6.2406712 -0.72466916
-12.931758 6.3275704 -0.77076137
-15.742812 6.337069 -0.90854293
-16.919678 6.3410459 -0.9673506
-18.281269 6.3528295 -1.0361322
-26.23041 6.3625231 -1.4450144
-28.596903 -6.4047685 -1.5689174
-28.450077 -7.0966234 -1.5698
-28.288427 -7.7856083 -1.5707884
-27.920771 -9.1540308 -1.5730816
-14.212997 -7.946104 -0.87176418
-6.6536717 -7.9123492 -0.55347061
-17.386143 -21.71747 -1.489374
-16.544159 -21.719442 -1.4617027
-15.735576 -21.725546 -1.4361511
-14.952646 -21.72916 -1.4121338
-14.195117 -21.732658 -1.389703
-13.460791 -21.73605 -1.3687375
-12.743164 -21.731215 -1.3486974
-12.049238 -21.732738 -1.3303621
-11.373554 -21.734222 -1.3132749
-10.714687 -21.735668 -1.2973635
-10.072246 -21.739511 -1.2827157
-9.4433002 -21.741913 -1.2690471
-8.8272266 -21.744272 -1.2563891
-5.3435545 -21.750151 -1.1990607
-4.2444825 -21.757021 -1.186761
-3.7023242 -21.758114 -1.1816053
-3.1645899 -21.759197 -1.1771758
-2.6304979 -21.760273 -1.1734594
-2.0995409 -21.761343 -1.1704434
-1.0442871 -21.766464 -1.1666518
0.53179687 -21.769344 -1.1658119
1.057627 -21.770308 -1.1668893
1.5847949 -21.771269 -1.1686525
2.6458397 -21.776493 -1.1744175
3.1807225 -21.777924 -1.1782893
3.719502 -21.77936 -1.1828818
4.8114548 -21.78315 -1.1943105
5.3657517 -21.783777 -1.2010946
5.9178319 -21.751848 -1.2068559
6.4812012 -21.738457 -1.2144341
7.0475488 -21.711235 -1.2220567
2.8264649 -8.0415583 -0.45633921
8.867568 -21.805708 -1.2602524
28.395712 6.1846409 -1.5558627
23.065712 6.2025719 -1.2787355
19.083242 6.1325951 -1.07312
17.865995 6.2206955 -1.0128105
13.549971 6.2395983 -0.79863954
11.330244 6.2472911 -0.69268399
10.147305 6.251389 -0.63807213
9.6225872 6.2532053 -0.61438328
9.0063572 6.1667151 -0.58436584
8.5649509 6.1730762 -0.56522888
8.2490139 6.2531238 -0.55417049
7.8501267 6.2545056 -0.53735298
7.4744821 6.2558045 -0.52182066
7.1197753 6.257031 -0.50744653
6.7838769 6.258193 -0.4941245
6.4649997 6.2592955 -0.48175594
5.5952244 6.2623019 -0.44959009
5.330029 6.2632165 -0.4402943
5.0754685 6.2640967 -0.43162319
4.8305664 6.2649412 -0.42352784
4.5945702 6.2657557 -0.41596884
3.6748242 6.1832471 -0.38508159
3.4761913 6.1839304 -0.37979019
3.1361816 6.268889 -0.37526962
2.9496582 6.2695312 -0.37094185
2.7672656 6.2701597 -0.36692053
2.5886912 6.2707739 -0.36319739
2.4136035 6.2713757 -0.35975447
2.2416894 6.2719688 -0.35658285
2.072705 6.2725487 -0.35366949
1.5805956 6.2742395 -0.34639579
1.4207226 6.2747874 -0.34443304
1.2625488 6.2753305 -0.34269202
1.1058788 6.2758689 -0.34116492
0.95051754 6.2764025 -0.3398481
0.79624999 6.2769308 -0.33873764
0.64290035 6.2774558 -0.33783141
0.49029297 6.2779794 -0.33712432
-0.268125 6.2805762 -0.336546
-0.57261717 6.2816172 -0.33768988
-0.8799023 6.2826672 -0.33963448
-1.6476269 6.1997657 -0.34343544
-2.3390429 6.2859092 -0.3590695
-2.6913769 6.2871094 -0.36613348
-3.0587108 6.2883592 -0.37437034
-3.2488964 6.2890062 -0.37896484
-3.4438868 6.289669 -0.38390076
-4.0623732 6.2917709 -0.40095028
-4.2813573 6.2925143 -0.40746111
-4.5076952 6.2932825 -0.41443256
-4.7420607 6.2940793 -0.42189646
-4.9851465 6.2949033 -0.42988819
-5.5008497 6.2966528 -0.44762316
-6.5983005 6.2246823 -0.48563766
-6.9178219 6.2176685 -0.49796602
-7.3718848 6.3110924 -0.51954019
-7.7438865 6.3123522 -0.53486884
-8.138711 6.3136888 -0.55145878
-8.5590916 6.3151112 -0.56945187
-9.4893255 6.3182592 -0.61033762
-10.007041 6.3200097 -0.63364601
-11.172695 6.3239527 -0.6873222
-11.82041 6.3191147 -0.71757877
-12.390264 6.2442784 -0.74281436
-13.350078 6.3289843 -0.79097015
-14.233505 6.3319702 -0.8340196
-15.21917 6.3353 -0.88256246
-17.349512 6.258707 -0.98744076
-19.04459 6.3554077 -1.0748621
-24.928799 6.3581271 -1.3773316
-28.614677 6.5674644 -1.5717757
-28.74457 5.8712535 -1.5706695
-28.859892 5.1730871 -1.5696932
-28.960146 4.4729953 -1.5688233
-28.978672 -6.1332989 -1.585795
-28.523554 -6.7595901 -1.5693562
-28.369091 -7.4500299 -1.5702934
-28.199921 -8.1374569 -1.5713354
-19.628759 -21.71043 -1.5669209
-17.808409 -21.716478 -1.5035616
-16.1271 -21.723736 -1.4484701
-13.088554 -21.730459 -1.3581085
-11.700869 -21.733505 -1.3214564
-11.033916 -21.734968 -1.3049747
-9.7483006 -21.740749 -1.2755814
-6.1785254 -21.748959 -1.2104445
-5.6155272 -21.749763 -1.2025986
-5.0594435 -21.750561 -1.1955469
-4.509531 -21.751347 -1.1892614
-2.3580859 -21.760822 -1.1718286
-1.3008789 -21.762953 -1.1671971
0.27557617 -21.768877 -1.1655309
0.80107421 -21.769838 -1.1662813
1.3275195 -21.770798 -1.1677096
1.8558398 -21.774389 -1.1699589
2.38625 -21.775805 -1.1727909
2.9194336 -21.777225 -1.1763138
3.4562402 -21.778656 -1.1805526
3.9972558 -21.7801 -1.1855155
5.652236 -21.784101 -1.2048686
2.72458 -8.0532999 -0.45515442
11.444961 -8.1262178 -0.75146508
26.822401 6.1900988 -1.4737303
24.182051 6.1986985 -1.3364918
18.559385 6.2182922 -1.0478995
14.917714 6.2309179 -0.86551458
12.352158 6.243751 -0.74097812
11.650214 6.2461815 -0.70770323
10.418271 6.2504492 -0.65044028
9.8735256 6.2523365 -0.62566751
8.7729397 6.1675229 -0.57412583
8.4528418 6.2524195 -0.56288415
7.2902441 6.2564416 -0.51431698
6.9454589 6.2576342 -0.50049704
6.6184959 6.2587657 -0.48767269
5.728652 6.2618408 -0.45436236
4.9488282 6.2645335 -0.42740619
4.0361228 6.267683 -0.39910567
3.7737205 6.1829052 -0.38779685
3.5723827 6.1835985 -0.38232273
3.2287598 6.2685704 -0.37749901
2.8556933 6.269856 -0.36884347
2.4985743 6.2710838 -0.36139908
1.9871875 6.2728429 -0.35227516
1.6592382 6.2739697 -0.34743431
1.4984472 6.2745214 -0.3453624
1.1821191 6.2756066 -0.34188271
0.87134767 6.2766733 -0.33925301
0.71756834 6.2771997 -0.33824819
0.26045898 6.2787657 -0.33643278
-0.042578124 6.2798033 -0.33620712
-0.19413085 6.2803235 -0.33638734
-1.4114062 6.1989598 -0.34036362
-1.5697168 6.1995006 -0.34237379
-2.0852344 6.2850451 -0.35451484
-2.4280078 6.286212 -0.36077338
-3.1555665 6.2886877 -0.37668288
-3.9580662 6.2914157 -0.39793286
-4.3963771 6.2929053 -0.41097391
-5.3712401 6.2962146 -0.44307125
