# .PCD v0.7 - Point Cloud Data file format
VERSION 0.7
FIELDS x y z
SIZE 4 4 4
TYPE F F F
COUNT 1 1 1
WIDTH 1515
HEIGHT 1
VIEWPOINT 0 0 0 1 0 0 0
POINTS 1515
DATA ascii
-4.9753418 6.2906666 0.65621173
-6.351191 6.2954831 0.73166829
-6.666533 6.2965894 0.75027502
-15.964423 14.365757 1.7571667
-15.516475 -8.4299297 1.4447896
-19.638496 -21.70912 2.3951344
-18.708321 -21.711456 2.3448992
-17.815809 -21.713696 2.298038
-15.346015 -21.737051 2.177037
-12.391279 -21.730974 2.0467281
-10.390761 -21.740351 1.9714767
-8.5212984 -21.745483 1.9109067
-7.9219823 -21.746376 1.89363
-6.753613 -21.748116 1.8632144
-6.1827831 -21.748964 1.8499701
-5.0654979 -21.759546 1.8279324
-3.4304686 -21.762875 1.8025863
-1.8322461 -21.770515 1.7875201
-1.3043262 -21.771494 1.7844998
0.2730664 -21.774418 1.781683
0.63550782 -7.4660039 0.61306465
1.2757617 -8.0436554 0.66634327
1.6464062 -7.8968549 0.65999973
2.1867774 -8.4305 0.71259576
8.7902346 -22.369114 1.966441
9.7031736 -23.043213 2.0456865
19.043194 -9.7356195 1.7498904
18.346064 -7.7613406 1.6298394
19.555254 -7.7221832 1.7202086
20.793427 20.650204 2.3977017
18.907715 20.682386 2.2927551
18.024433 20.697462 2.2455525
4.9414353 6.2600474 0.65252507
4.7014747 6.2608652 0.64059895
4.4699707 6.2616563 0.62946069
4.2462597 6.2624192 0.61905694
3.8196971 6.2638745 0.60026664
3.4173729 6.2652502 0.58390522
3.2240918 6.2659106 0.57654899
3.0355175 6.2665563 0.56970114
2.8512793 6.2671862 0.56333917
2.6709764 6.2678027 0.55743963
2.2893066 6.1834192 0.53947288
1.7939258 6.1870141 0.52705616
1.6549511 6.2693944 0.53051871
1.0222949 6.2715683 0.51989877
0.40885741 6.2736816 0.51438683
0.10561523 6.2747288 0.51345694
-0.045791015 6.2752514 0.51344061
-0.19726562 6.275775 0.51372308
-0.34899414 6.2762985 0.51430625
-0.50117189 6.276825 0.51519048
-0.65393555 6.2773547 0.51637793
-0.80750972 6.2778854 0.51787466
-0.96206051 6.2784214 0.51968235
-1.1178027 6.2789612 0.52180731
-1.4335644 6.280056 0.52703726
-1.7565136 6.2811766 0.53362858
-2.0883887 6.28233 0.54166204
-2.607461 6.2841358 0.55665761
-2.7872753 6.2847619 0.56250614
-3.3069725 6.202776 0.57511997
-3.7516992 6.2863903 0.59897178
-3.9608984 6.2871203 0.60797125
-4.1765723 6.2878733 0.6176101
-4.8687305 6.2902927 0.65081215
-5.1167774 6.291162 0.6634841
-5.3748436 6.2920642 0.6770612
-6.5275388 6.296102 0.74202049
-15.758262 14.482104 1.7510873
-24.317802 -8.0131149 2.0948753
-15.610341 -7.3288302 1.4109646
-15.864433 -7.9206839 1.4507852
-16.119013 -8.5396404 1.4924747
-15.178007 -8.5162401 1.42396
-18.199238 -21.712734 2.3180022
-17.337011 -21.727934 2.274303
-14.907275 -21.739061 2.1566641
-14.140693 -21.726933 2.1209993
-12.694629 -21.730272 2.0590897
-10.671582 -21.739248 1.9814172
-8.1811428 -21.745991 1.9009674
-7.587822 -21.746874 1.8844894
-7.0043554 -21.747744 1.8693722
-5.3064842 -21.759054 1.8324646
-4.7536912 -21.76018 1.8223678
-3.6646092 -21.7624 1.8056281
-3.1269238 -21.763496 1.7989371
-2.5933886 -21.769106 1.7937039
-2.0622461 -21.770088 1.7891635
-1.5335547 -21.771069 1.7856833
-1.0065429 -21.772045 1.7832519
0.57022458 -21.775923 1.7822751
0.75557613 -7.6414351 0.62825841
1.2136524 -8.2072802 0.67880654
1.5751953 -7.972672 0.66492027
1.7375488 -7.7998772 0.65381581
1.8947363 -7.6330724 0.64347738
2.3227344 -8.4771595 0.7191506
8.4516401 -22.188074 1.942627
9.2753706 -22.689388 2.0055315
17.625488 -8.7095776 1.6085434
17.573622 -8.1625528 1.5853741
19.410517 -7.9013047 1.7146685
19.74502 -7.4874606 1.7277572
21.226435 20.642817 2.4225457
20.24288 20.659603 2.366503
19.303436 20.675634 2.3143196
18.403847 20.690987 2.265667
4.5695701 6.2613144 0.63420767
4.3425584 6.2620897 0.62349021
3.9101758 6.2635655 0.60413247
3.5029101 6.264957 0.58726704
3.1168945 6.2662768 0.57261509
2.748867 6.2675366 0.5599488
2.1940038 6.1837473 0.53684133
2.0276172 6.1843176 0.53248876
1.7253808 6.2691503 0.53199941
1.4042382 6.270256 0.52572578
0.9346875 6.2718701 0.51881766
0.78062499 6.2724009 0.51715291
0.62744141 6.2729282 0.51579732
0.32301757 6.2739782 0.51400197
0.17142577 6.2745018 0.51355672
0.02 6.2750244 0.51341099
-1.8493359 6.2814989 0.53574914
-2.0154102 6.2820764 0.53978902
-2.1841114 6.2826633 0.54420996
-2.5304492 6.2838669 0.55425221
-2.8512695 6.1994529 0.55830085
-3.0348535 6.2000928 0.56478935
-3.2228417 6.2007508 0.57176685
-3.869199 6.2868018 0.60398275
-4.0820117 6.2875438 0.6133396
-4.301631 6.2883115 0.62335885
-5.0078125 6.2907801 0.65786994
-5.261416 6.2916675 0.67104542
-5.8011618 6.2935572 0.70030934
-6.7089648 6.2967396 0.75280994
-15.971054 -7.2948618 1.4365777
-15.356464 -7.9306273 1.4140933
-15.425029 -8.4434834 1.4387548
-20.480194 -21.707001 2.4417367
-19.514502 -21.709433 2.3883557
-18.589424 -21.711756 2.3385773
-16.858768 -21.730124 2.2502465
-15.24375 -21.737522 2.1722567
-14.466738 -21.726179 2.135617
-13.723076 -21.7279 2.1026227
-13.001601 -21.729565 2.0718219
-9.0517378 -21.74559 1.9271609
-7.8443356 -21.74649 1.8914746
-7.2567086 -21.747368 1.8757741
-6.1085935 -21.749071 1.8483322
-3.8995311 -21.761919 1.8088839
-3.360039 -21.76302 1.8017099
-2.2927833 -21.769663 1.791007
-1.7630566 -21.770643 1.7870654
-1.2353613 -21.77162 1.7841787
-0.70905274 -21.772596 1.7823404
-0.18352538 -21.773571 1.7815374
0.86768556 -21.776724 1.7831445
1.3946191 -21.778147 1.7855014
0.88178706 -7.8259873 0.64436042
1.3042578 -8.058691 0.66792732
1.5029101 -8.0496769 0.66999012
1.6676562 -7.8742461 0.65854669
1.8270507 -7.7048674 0.64787972
6.2647948 -21.698111 1.8478149
6.8432617 -21.72109 1.8632938
7.4560938 -21.815498 1.8862796
8.8939257 -22.424551 1.973771
9.9678411 -8.1695166 1.0544671
19.03618 -9.6562347 1.7464291
18.449589 -8.2653971 1.6540729
19.599012 -7.6680284 1.7219189
19.706543 20.668756 2.3365436
17.911503 20.699389 2.2396185
5.1574998 6.2593112 0.66357613
4.6706934 6.2609701 0.63909751
4.4402537 6.2617579 0.62805718
4.2175097 6.262517 0.61774433
4.0018263 6.2632532 0.60811532
3.7926464 6.2639685 0.59912479
3.5894628 6.2646618 0.59073389
3.3917675 6.265337 0.58291054
3.1991601 6.265996 0.57562369
3.0111816 6.2666392 0.56884176
2.09958 6.1840711 0.53433233
1.78583 6.2326756 0.53046101
1.6337891 6.2694678 0.53008491
1.3147266 6.2705636 0.52419883
1.1576562 6.2711034 0.52175617
0.84745115 6.2721729 0.51783776
0.69389647 6.2726998 0.51634878
18.709267 -8.0547361 1.2055651
19.33164 -7.7754202 1.2332202
7.6396971 6.1668763 0.58107811
7.0239649 6.2527709 0.55656701
6.3783984 6.2549753 0.52873117
6.0789061 6.2559986 0.51626855
5.793047 6.2569752 0.50466633
5.5195899 6.2579103 0.49385414
5.2574415 6.2588072 0.48377341
5.0056739 6.2596679 0.474365
4.529707 6.2612963 0.4573786
4.3040137 6.2620687 0.44971853
3.2741601 6.2655969 0.41840538
2.7177637 6.2675061 0.40431282
2.540205 6.268115 0.40028176
2.33375 6.183136 0.39114386
2.1650293 6.1837144 0.38776404
1.8362988 6.186738 0.38194725
1.6973144 6.2691174 0.38439399
1.3768164 6.2702208 0.37994146
1.2191601 6.2707629 0.37808189
1.062959 6.2713013 0.37645864
0.75408202 6.2723656 0.37390128
0.60103512 6.2728915 0.3729586
0.44867188 6.2734189 0.37223884
0.1452539 6.2744665 0.37145165
-0.0061425781 6.2749877 0.3713825
-0.30921873 6.2760348 0.37189475
-0.76718748 6.2776184 0.37430245
-1.076875 6.2786913 0.37702811
-1.2335839 6.2792335 0.37873709
-2.0443163 6.2820435 0.39099205
-2.2134862 6.2826304 0.39423791
-3.0669141 6.2000656 0.40939155
-4.8051953 6.2899117 0.46846914
-5.0507712 6.2907691 0.47747153
-6.4450488 6.2956324 0.5332346
-7.459043 6.2991734 0.57782584
-7.8365817 6.3004918 0.59511864
-8.1382322 6.225853 0.60644203
-10.153213 6.3166904 0.70771933
-11.34581 6.3208642 0.76867634
-16.771688 -7.259542 1.0816278
-15.690967 -8.1863203 1.0474606
-15.897685 -21.733999 1.593717
-15.10914 -21.737619 1.5667711
-14.337168 -21.727207 1.5406579
-12.879589 -21.730551 1.4950507
-12.181894 -21.732151 1.4745083
-10.196465 -21.741709 1.4212627
-9.5646772 -21.744175 1.4059304
-8.9460354 -21.746592 1.3917108
-6.0111227 -21.749575 1.3355103
-5.4522166 -21.758566 1.3275925
-4.8978124 -21.759697 1.3200686
-3.8060839 -21.761923 1.3075299
-3.2673242 -21.763021 1.3024801
-2.2010643 -21.76939 1.2949878
-1.671748 -21.77037 1.292272
-0.092792965 -21.7733 1.2886627
0.43257812 -21.775421 1.2890322
1.4857324 -21.778267 1.291939
2.0147071 -21.779692 1.2945328
1.341621 -8.0762177 0.48454109
1.5137402 -7.9246588 0.47750098
2.2332811 -8.3573608 0.51198584
6.362998 -21.698612 1.3383108
6.9482422 -21.737946 1.350683
10.079121 -23.454163 1.5108829
9.9708204 -8.1027441 0.76041585
18.752275 -9.4142828 1.2418647
17.98456 -7.4535742 1.1522086
8.3199806 6.2531834 0.61599004
7.0831542 6.1736093 0.55610085
5.6369629 6.2575083 0.49845955
4.8675294 6.2601404 0.46932471
4.4011521 6.2617359 0.45298362
3.9651756 6.2632284 0.43872932
3.7570899 6.2639413 0.43230215
3.3581054 6.2653089 0.42071417
3.1662989 6.2659678 0.41550726
2.6169336 6.2678514 0.40199545
2.4079883 6.1828794 0.39270332
1.9070214 6.1864963 0.38314596
1.7679882 6.2688756 0.3854937
1.6059179 6.2694321 0.38303396
1.4458398 6.2699828 0.38082525
1.2874902 6.2705283 0.37886038
0.97519529 6.2716041 0.37564293
0.82083982 6.2721362 0.37437949
0.66744137 6.2726636 0.37334129
0.51480466 6.273191 0.37252524
0.36274412 6.2737155 0.37192801
0.059648436 6.2747617 0.37138695
-0.39512694 6.2763329 0.37219733
-0.54747069 6.2768602 0.37290397
-0.85429686 6.2779198 0.37498131
-1.1653125 6.2789965 0.3779656
-1.3228613 6.2795444 0.37981054
-1.4820508 6.2800951 0.38189536
-1.9716406 6.2817917 0.38966805
-2.1396191 6.2823753 0.39279243
-2.3104296 6.2829676 0.39620093
-2.6616015 6.2841883 0.40391135
-2.8238573 6.2434754 0.40555763
-3.1731055 6.2004342 0.41223532
-3.6095116 6.285748 0.42899391
-4.0255661 6.2871957 0.44184393
-4.468379 6.2887387 0.45658484
-5.7276464 6.2931285 0.50362569
-6.0124803 6.2941222 0.51516503
-6.3108692 6.2951636 0.52756232
-6.6241307 6.2962584 0.54089195
-6.9538379 6.2974095 0.55524468
-7.3017383 6.298624 0.57072151
-7.669785 6.2999096 0.58743554
-8.9310255 6.312417 0.64728367
-10.47081 6.3178039 0.7237798
-11.069492 6.3198986 0.754403
-16.617832 -7.463726 1.0781729
-15.824862 -7.5715051 1.0382761
-15.87044 -8.069438 1.0537379
-15.364697 -8.2847033 1.0331292
-18.828808 -21.712183 1.7009264
-17.078554 -21.728577 1.6356951
-16.248926 -21.732386 1.6059997
-15.448447 -21.736059 1.5782639
-14.665839 -21.72645 1.551419
-13.188954 -21.729843 1.5044321
-12.482705 -21.731462 1.483258
-10.475361 -21.74062 1.4282929
-7.4097557 -21.747505 1.3597854
-6.8291016 -21.748363 1.3491415
-4.5869923 -21.760332 1.3161858
-2.9644139 -21.763638 1.2999753
-1.9015039 -21.769945 1.2933596
-0.32107422 -21.772875 1.2887685
1.7845702 -21.779072 1.2933133
1.0284863 -7.8663344 0.46953085
1.6061327 -7.8273597 0.47291449
2.1308105 -8.3228216 0.5084731
7.9521384 -21.979818 1.3833957
8.6883984 -22.316841 1.4173876
9.5591307 -22.903166 1.4688473
17.929453 -8.6969738 1.1794062
18.712139 -7.9860067 1.2041198
19.382196 -7.7247233 1.2348847
8.0888767 6.2539721 0.60514015
7.5907125 6.1670423 0.57884222
7.2286911 6.1682773 0.56241691
6.979609 6.2529221 0.55461496
6.6508298 6.2540455 0.54032308
6.3383493 6.2551122 0.52704781
5.7565722 6.2571006 0.50320733
5.223906 6.2589221 0.48250341
4.9734082 6.2597775 0.47318044
4.7322755 6.260603 0.46447501
4.2750392 6.2621679 0.44875267
3.8467577 6.2636352 0.43503928
3.2490528 6.2656822 0.4177236
2.6943164 6.2675877 0.40376699
2.3114843 6.1832113 0.39068657
2.1431444 6.1837888 0.38734245
1.9775878 6.1843576 0.3842774
1.8150781 6.1868114 0.38159645
1.6760937 6.2691903 0.38407141
1.5151757 6.2697434 0.38175422
1.0426074 6.2713709 0.37626305
0.88778317 6.2719054 0.37490088
0.42875975 6.2734876 0.37216011
0.27694336 6.2740097 0.37168679
-0.025966797 6.2750573 0.37139076
-0.32910156 6.2761045 0.3719596
-0.63387692 6.2771583 0.37340096
-0.94173825 6.2782235 0.37573096
-1.4126757 6.2798548 0.38095894
-1.5728809 6.2804089 0.38318351
-2.2358398 6.2827086 0.39468437
-2.7634473 6.2845407 0.40631902
-3.2808008 6.2008119 0.41519752
-3.7246776 6.28615 0.43244955
-4.3696485 6.2883945 0.45320883
-4.599082 6.2891941 0.46113059
-4.8368163 6.2900219 0.46961311
-6.1794529 6.2947044 0.52206534
-6.486074 6.2957764 0.53497916
-7.1482129 6.2980871 0.56385076
-7.8877048 6.3006701 0.5974865
-8.6065235 6.2193909 0.62845635
-9.1959763 6.3133445 0.66018009
-10.225517 6.3169446 0.71136433
-10.803262 6.3189659 0.74073231
-11.431152 6.3211617 0.77310187
-16.31208 -7.5954843 1.064959
-20.183475 -21.708813 1.7543588
-19.230341 -21.711185 1.7165487
-17.448799 -21.726877 1.6492519
-15.7929 -21.734478 1.5900848
-15.007822 -21.738085 1.5634222
-14.238964 -21.72743 1.5374725
-12.091904 -21.732355 1.471935
-10.112949 -21.742035 1.4191895
-8.8659277 -21.746904 1.3899395
-8.2596779 -21.746243 1.3767602
-7.6650195 -21.747126 1.3647122
-7.0803027 -21.747993 1.3536499
-6.5046778 -21.748844 1.34354
-5.3792481 -21.758715 1.3265585
-3.1970897 -21.763165 1.3018793
-2.6631055 -21.768536 1.2979758
-2.1316211 -21.769518 1.2945919
-1.6025683 -21.770498 1.291972
1.0275195 -21.777025 1.2903045
1.5548925 -21.778452 1.2922379
1.5353028 -7.9019518 0.47642156
1.6967969 -7.7319574 0.46850592
2.2644336 -8.3678684 0.51306462
6.4375782 -21.698898 1.3395755
7.0279589 -21.750229 1.3528192
7.6549215 -21.872431 1.3715087
8.3522854 -22.137104 1.4003332
19.214931 -7.8924584 1.2294308
8.691885 6.251914 0.63368005
7.8657031 6.2547326 0.59477299
6.7915916 6.2535644 0.54640251
6.1683297 6.2556934 0.51995796
5.3358788 6.2585387 0.48676017
5.0810642 6.259409 0.47715247
4.1512012 6.2625928 0.44468361
3.7302928 6.2640328 0.43149298
3.5288184 6.2647238 0.42555046
2.7723925 6.2673178 0.40559974
2.2159374 6.1835399 0.38876137
2.0491991 6.1841135 0.38557655
1.7466406 6.268949 0.38515708
1.2668653 6.2705979 0.37862173
1.1102442 6.2711377 0.37692681
0.64741212 6.2727332 0.37322074
0.3428711 6.2737842 0.37186545
-0.2631543 6.2758765 0.37176079
-0.41504881 6.276401 0.37227821
-1.0295606 6.2785263 0.37655523
-1.1858593 6.2790685 0.37819344
-1.343623 6.2796154 0.38006935
-1.5030273 6.2801671 0.3821862
-2.1618261 6.2824512 0.39322227
-2.6850684 6.2842689 0.40446007
-2.8274803 6.1992345 0.40326241
-3.6360157 6.285841 0.42978293
-3.8417382 6.2865562 0.43604255
-4.0536814 6.2872934 0.44274956
-4.2723727 6.2880564 0.44993246
-4.4984179 6.2888436 0.45762184
-4.9752245 6.2905054 0.47467217
-6.0507517 6.2942567 0.51673943
-6.9983301 6.2975645 0.55720514
-7.3487206 6.298789 0.57283652
-9.9884176 6.3161144 0.69943917
-11.151679 6.3201852 0.75863975
-11.81122 6.3224936 0.79289907
-16.582354 -7.5108409 1.0774058
-15.877315 -8.1361723 1.0558937
-14.738643 -8.4740658 1.0062097
-20.610928 -21.707748 1.7716315
-19.639452 -21.710165 1.7326514
-18.709198 -21.712481 1.6963131
-17.81665 -21.714699 1.6624441
-16.14249 -21.732874 1.6022586
-13.819638 -21.728394 1.52406
-12.39168 -21.73167 1.4805917
-11.708388 -21.7358 1.461199
-11.041699 -21.738407 1.4430417
-10.391045 -21.740948 1.4261518
-9.7550488 -21.743433 1.4104614
-9.1325293 -21.745863 1.3959149
-8.5214453 -21.745853 1.3823162
-7.9221191 -21.746742 1.3698226
-7.3331933 -21.747616 1.3583368
-6.7537303 -21.748476 1.3478194
-6.1828809 -21.749321 1.3382355
-5.6218162 -21.758223 1.3300512
-5.0654588 -21.759356 1.322265
-2.8944628 -21.763781 1.2994289
-1.8322265 -21.770073 1.2930148
-0.7778613 -21.772028 1.2893994
1.3255078 -21.777832 1.2913055
1.2753808 -8.0412855 0.48187155
1.6272656 -7.8050952 0.47187659
2.1615527 -8.3331776 0.50951999
6.7643456 -21.709614 1.3458084
7.3752637 -21.803738 1.362275
8.7913275 -22.371883 1.4226422
9.7066498 -23.051426 1.4803205
18.044189 -8.6823645 1.1851418
17.870909 -8.0739899 1.1606263
18.348495 -7.7623758 1.1791368
19.432919 -7.6738749 1.2365645
8.4475193 6.2527475 0.62202519
7.5420995 6.1672082 0.57661551
6.9355664 6.2530723 0.5526824
6.298584 6.2552476 0.52538079
5.4498825 6.2581482 0.4911463
5.190547 6.2590356 0.48124626
4.9413085 6.2598877 0.47200507
4.4698634 6.2615013 0.45532158
4.2461524 6.2622666 0.44779685
4.0295997 6.2630076 0.44076836
3.4173045 6.2651072 0.42237082
3.2240233 6.26577 0.41704902
2.4942772 6.2682738 0.39927801
2.2892675 6.1832886 0.39023125
2.1213183 6.1838646 0.38692528
1.9560839 6.184432 0.38389564
1.6549121 6.2692637 0.38375372
1.1781347 6.2709055 0.37763405
1.0222753 6.2714415 0.37607199
0.25708982 6.2740784 0.37164038
-0.045791015 6.2751255 0.37140083
-0.19725585 6.2756491 0.37160531
-0.50116211 6.2766991 0.37266561
-0.65392578 6.2772279 0.37352547
-0.80749023 6.2777576 0.37460792
-1.274873 6.279376 0.37922463
-1.5939941 6.2804818 0.38349372
-1.921162 6.2816162 0.38877404
-2.0883496 6.282197 0.39181417
-2.2582617 6.2827854 0.3951351
-2.4311914 6.2833872 0.3987461
-2.6074023 6.283999 0.40266165
-3.1159179 6.2002368 0.41069099
-3.548408 6.2855358 0.42719489
-3.751621 6.2862425 0.43326882
-3.9608006 6.2869701 0.43977836
-5.3746972 6.2918983 0.48975348
-5.6436815 6.2928357 0.50028157
-5.9246192 6.2938156 0.51157463
-6.5273438 6.2959204 0.53674215
-7.1940818 6.2982483 0.56589836
-8.2353907 6.2180943 0.61074197
-9.2588472 6.3135629 0.66325903
-10.298554 6.3171997 0.71505314
-10.882421 6.319243 0.74479026
-24.319824 -8.0137873 1.5155004
-16.700321 -7.3542457 1.0800004
-15.772754 -7.8749089 1.0433905
-15.53873 -8.232213 1.0407488
-14.975039 -8.40236 1.0162761
-20.056269 -21.709127 1.7492517
-17.336573 -21.727392 1.645125
-15.688574 -21.734955 1.586488
-14.906923 -21.73855 1.5600406
-12.002324 -21.732563 1.469349
-11.329365 -21.73728 1.4507687
-10.671894 -21.739851 1.4333386
-8.78543 -21.745464 1.3880725
-7.5879588 -21.74724 1.3632067
-6.4299707 -21.748955 1.3422873
-5.8635449 -21.749794 1.333226
-4.7536426 -21.759991 1.3182364
-4.2066112 -21.761108 1.3117727
-2.5933397 -21.768663 1.2974877
-2.0621972 -21.769648 1.2942047
-1.5335449 -21.770626 1.2916861
-1.0065331 -21.771606 1.2899276
-0.48064452 -21.772579 1.2889242
1.1993653 -8.1106949 0.48525077
1.3904004 -8.0546455 0.48376456
1.5567578 -7.8793492 0.4753533
5.9449902 -21.697014 1.3314675
6.5122752 -21.699184 1.3408538
7.7439256 -21.904585 1.3750509
8.4526663 -22.190786 1.4054141
17.667528 -8.7303524 1.1663506
18.553936 -8.6178875 1.2107887
18.705488 -8.1457014 1.2074991
19.265127 -7.8421202 1.2310529
8.6345215 6.2521105 0.63093346
7.3364062 6.1679111 0.56727135
6.431582 6.2547936 0.5309757
5.0484571 6.2595224 0.47594365
4.8045607 6.2603564 0.46705496
4.5694628 6.2611609 0.4587557
4.1228614 6.2626891 0.44376349
3.9100878 6.2634177 0.43700203
3.3073926 6.2654834 0.41931465
3.1168358 6.2661362 0.41420418
2.5706248 6.2680101 0.40095526
2.3631933 6.1830344 0.39175743
2.1939549 6.1836143 0.38832739
1.7253418 6.269022 0.38482475
1.5638281 6.2695761 0.38243124
1.4042089 6.2701268 0.38028648
1.2462792 6.2706699 0.37838614
0.93465817 6.2717428 0.37528998
0.78061521 6.272274 0.37408623
0.62743163 6.2728028 0.37310538
0.47495115 6.2733288 0.37234655
0.17141601 6.2743759 0.37148565
0.02 6.2748985 0.37137976
-0.2830078 6.2759447 0.37181631
-0.43497071 6.2764697 0.37236214
-1.0499512 6.2785974 0.37675652
-1.3643652 6.2796874 0.38033226
-1.6855956 6.2807994 0.38488075
-2.1840625 6.2825294 0.39365715
-2.3556542 6.2831249 0.39714104
-2.5304003 6.2837315 0.40092215
-2.7086132 6.2843494 0.4050141
-2.8512011 6.1993175 0.40385091
-3.6625781 6.2859325 0.43057653
-3.8691113 6.2866516 0.43689445
-4.0819139 6.2873926 0.44366187
-4.528574 6.288949 0.45866874
-4.7637205 6.2897677 0.46697578
-5.0076756 6.2906175 0.4758724
-5.2612696 6.2915025 0.48540169
-5.5253906 6.2924242 0.49561623
-6.0892673 6.2943907 0.51832694
-6.3913574 6.2954454 0.53095633
-7.7697654 6.3002601 0.59203345
-8.068017 6.2256079 0.60313821
-8.4744329 6.2189293 0.62211996
-9.052412 6.3128419 0.65317726
-10.622861 6.3183351 0.73151803
-15.554609 -7.563355 1.0236591
-15.877138 -8.1995258 1.0576
-19.515438 -21.710476 1.7277521
-17.711172 -21.725674 1.6589642
-14.467226 -21.726906 1.5448971
-13.723535 -21.728615 1.5210282
-12.300977 -21.731876 1.4779489
-11.620117 -21.736147 1.4587442
-10.955595 -21.738745 1.4407568
-9.052002 -21.746176 1.3940862
-8.4423828 -21.745972 1.3806225
-7.8444724 -21.746861 1.3682611
-7.2568455 -21.747732 1.3569052
-6.1087012 -21.749434 1.3370526
-5.548574 -21.758369 1.3289801
-3.8995116 -21.76173 1.3084817
-3.3600194 -21.762831 1.3032916
-2.8244727 -21.763926 1.2989025
-2.2927246 -21.769218 1.2955377
-0.18352538 -21.773132 1.2886868
0.34183592 -21.775175 1.2889224
0.85904294 -7.6241446 0.45408896
1.0914453 -7.9563437 0.47530586
1.3038769 -8.0563087 0.48301673
1.6483105 -7.7829485 0.47085044
6.2648339 -21.698236 1.3366672
6.8434668 -21.721806 1.3478982
9.865449 -23.223139 1.4933401
9.9638081 -8.1662159 0.76246315
18.160088 -8.6676178 1.1909512
18.410341 -8.247817 1.1939638
8.3921871 6.2529359 0.61940527
7.1427732 6.1734071 0.55875647
6.8918262 6.2532225 0.55076909
6.5674706 6.2543297 0.53675103
6.2590723 6.255383 0.52372777
5.9650879 6.2563877 0.51161247
5.4153419 6.2582679 0.48981071
5.1573629 6.2591491 0.4799996
4.9093943 6.2599974 0.47084236
4.6705761 6.2608142 0.462293
4.0017381 6.263103 0.43988317
3.0111034 6.266499 0.41147467
2.8273926 6.2671299 0.40691748
2.2671289 6.1833639 0.38978127
1.9352441 6.186399 0.38363579
1.7847754 6.2289906 0.38349465
1.4733398 6.2698889 0.38118872
1.1576366 6.2709765 0.37741584
0.8474316 6.2720447 0.37458059
8.5873241 -22.264963 0.87369299
9.4385157 -22.816664 0.90401679
18.757538 -8.0755186 0.74769109
19.133183 -7.6956005 0.75504339
12.353906 6.151423 0.50527042
11.810859 6.2410154 0.48907691
11.155048 6.2432618 0.46802223
10.553027 6.2453232 0.44895545
9.0054979 6.2506247 0.4013468
8.559267 6.2521534 0.38806814
8.141387 6.2535863 0.37585548
7.6394529 6.1666794 0.35945213
6.3782225 6.2547975 0.32706442
6.0787401 6.2558236 0.31935555
5.7929001 6.2568054 0.31217948
5.005537 6.2595081 0.2934359
4.7632227 6.2603402 0.28800222
3.8739061 6.2633948 0.26963142
3.4686522 6.2647862 0.26217431
3.2740819 6.2654552 0.25882071
3.084326 6.266108 0.25569916
2.7177148 6.2673678 0.25010437
2.5401561 6.2679796 0.24761085
2.3337011 6.1830029 0.24195845
1.9990624 6.184154 0.23794845
1.6972754 6.2689867 0.23778221
1.5361133 6.2695432 0.23632842
1.3767968 6.2700915 0.23502906
0.6010254 6.2727671 0.23070869
0.29679686 6.2738171 0.22995216
-0.0061425781 6.2748632 0.22973388
-0.6138379 6.2769628 0.23090759
-0.7671777 6.2774911 0.23154068
-0.92144531 6.2780261 0.23231216
-2.0442674 6.2819104 0.24186301
-2.3855371 6.283093 0.24605727
-2.7396874 6.2843213 0.25099495
-5.0506349 6.2906065 0.29535681
-5.5719724 6.292417 0.30771613
-5.8496776 6.2933826 0.31457525
-6.1402345 6.2943921 0.3219381
-7.1024508 6.297739 0.34753609
-7.458828 6.2989769 0.35743231
-7.836328 6.3002915 0.36812934
-8.1379585 6.2256455 0.37512961
-10.152822 6.3164501 0.43778068
-10.724463 6.3184409 0.45572057
-12.02292 6.3229599 0.49734429
-12.76624 6.3255491 0.52162606
-13.400087 6.2416358 0.54121083
-14.491601 6.3292298 0.57896203
-17.960674 6.3413148 0.69735587
-19.480742 6.3537951 0.75020516
-23.794315 6.5091624 0.90316349
-16.028212 -7.876358 0.65384847
-14.919892 -8.2478962 0.62415701
-15.108788 -21.737104 0.96919179
-13.597861 -21.729614 0.93849236
-12.88 -21.731255 0.92487216
-11.50456 -21.737207 0.90042901
-10.196748 -21.742304 0.87922078
-9.5649414 -21.744764 0.86973256
-8.3384666 -21.746494 0.85270745
-7.1564355 -21.748241 0.83824772
-4.349287 -21.760624 0.81245518
-3.8060546 -21.761732 0.80883521
-2.7328711 -21.767963 0.80322117
-2.2010155 -21.76895 0.80106741
-1.6717187 -21.769932 0.79938877
-0.092802733 -21.772861 0.79715687
0.95855469 -21.776714 0.79806054
1.4857129 -21.778137 0.79919547
2.0146973 -21.779566 0.80079567
2.5461035 -21.781 0.80287617
1.3412304 -8.0738306 0.29964989
1.4962012 -7.8328013 0.29195869
4.7001462 -21.745361 0.81452614
5.7986231 -21.699501 0.82233709
7.5669236 -21.842094 0.84631032
8.2551661 -22.090796 0.86341357
9.9687891 -8.1010799 0.47039557
18.312735 -8.1126156 0.73330832
27.014921 -8.2500477 1.0341648
13.680019 6.2306747 0.55035424
11.432959 6.2423096 0.4769094
10.808486 6.2444491 0.45701376
10.23371 6.246417 0.43895757
9.2091112 6.249928 0.40747869
8.7495022 6.2515039 0.3937023
8.3197069 6.2529759 0.38104042
7.9164453 6.2543578 0.36937612
7.4305954 6.1673951 0.35355353
6.8344431 6.2532325 0.33915427
5.9155078 6.2563844 0.3152343
5.6368065 6.2573414 0.3083393
4.4010448 6.2615833 0.28021002
3.9650781 6.2630811 0.27139151
3.554785 6.2644897 0.26370651
3.3580272 6.2651672 0.26024947
3.1662304 6.2658262 0.25702819
2.9790137 6.2664695 0.25403205
2.795996 6.2670994 0.25124869
2.6168652 6.2677159 0.24866951
2.4079394 6.1827478 0.24292366
2.2379296 6.1833324 0.24075347
1.6058886 6.2693014 0.23694061
1.4458106 6.2698545 0.23557465
1.2874609 6.2703991 0.23436004
1.130664 6.2709398 0.233292
0.82083005 6.2720094 0.23158737
0.21108398 6.2741137 0.22983634
-0.24329101 6.2756824 0.22993545
-0.39512694 6.276206 0.23023757
-0.70042968 6.2772617 0.23124817
-0.85427731 6.2777939 0.23195976
-1.0091699 6.2783289 0.23281097
-1.6430664 6.2805238 0.23767997
-1.9716015 6.2816586 0.24104446
-4.2432227 6.2878027 0.27772376
-4.4682617 6.2885828 0.2824378
-4.9427829 6.2902308 0.292891
-5.4549999 6.2920103 0.30488396
-6.6239352 6.2960739 0.33458808
-6.9536228 6.2972202 0.3434667
-8.3623533 6.218329 0.3815313
-8.9307127 6.3121972 0.40039757
-9.4065523 6.3138537 0.41477865
-9.9181833 6.3156347 0.43049338
-11.069043 6.3196397 0.46665749
-12.434502 6.3243957 0.5107531
-13.219766 6.3271289 0.53657919
-15.052714 6.3311839 0.59787256
-17.372509 6.3392649 0.67706352
-20.432323 6.3571091 0.78343606
-24.210653 6.2693319 0.915622
-16.142559 -7.7234998 0.65517354
-15.596972 -7.9303966 0.64061087
-19.765118 -21.710903 1.0749351
-18.829668 -21.713207 1.0522487
-17.078094 -21.728037 1.0118217
-16.248526 -21.731855 0.99345315
-15.448076 -21.735542 0.97629279
-14.666348 -21.727177 0.95974553
-13.916533 -21.728889 0.9447161
-11.796064 -21.733721 0.90536231
-11.128369 -21.738672 0.89411855
-8.6008978 -21.746107 0.85617882
-7.4098825 -21.747866 0.84117973
-6.8292184 -21.748726 0.83459449
-6.257236 -21.749569 0.82859564
-5.6951365 -21.757881 0.8234362
-5.1379199 -21.759018 0.81854802
-4.5869431 -21.760141 0.81419152
-4.0415134 -21.761255 0.81034613
-2.431787 -21.76852 0.80194724
-0.32107422 -21.772438 0.79721946
0.7299121 -21.776096 0.79771233
1.2564355 -21.777519 0.79864341
2.3148437 -21.780376 0.80191028
1.2428319 -7.9993343 0.29638511
1.4246875 -7.9073172 0.29416418
5.0098925 -21.738007 0.8167339
2.1066113 -8.2282839 0.31096977
6.1164842 -21.697798 0.82535851
6.6862106 -21.69998 0.83133477
7.9527535 -21.981514 0.85583591
8.6894627 -22.319588 0.87691092
9.5609865 -22.907633 0.90880972
18.461777 -8.955184 0.75124258
18.269873 -8.3238583 0.73504722
19.182968 -7.645319 0.75604725
13.203056 6.2323084 0.53453743
10.477822 6.2455812 0.4465937
9.9282904 6.2474632 0.42947105
8.9453316 6.2508326 0.3995423
7.5904784 6.1668482 0.35806084
7.2284665 6.1680894 0.34790319
6.040576 6.2559557 0.31838599
5.7564158 6.2569308 0.31127587
5.4844923 6.2578635 0.30465049
5.2237792 6.2587571 0.29847008
4.499619 6.2612448 0.28229043
3.6419628 6.2641907 0.26528731
3.4428809 6.2648754 0.26172227
3.059834 6.2661924 0.25530663
2.6942577 6.2674499 0.24976532
2.517158 6.2680588 0.24729881
2.3114257 6.1830797 0.24167411
2.1431055 6.1836596 0.23960647
1.9775488 6.1842284 0.23770873
1.815039 6.1866832 0.23605217
1.5151465 6.2696152 0.23614906
1.0425879 6.2712436 0.23275246
0.58103514 6.2728367 0.23064315
0.27693358 6.2738853 0.22992103
0.12541991 6.2744088 0.22976296
-0.025957031 6.2749305 0.22973824
-0.17740233 6.275454 0.22984664
-0.78732419 6.2775621 0.23163353
-0.94171876 6.2780967 0.23242354
-1.0972852 6.2786341 0.23335594
-1.2541797 6.2791772 0.23443274
-1.735039 6.2808409 0.23856483
-1.8994238 6.2814097 0.24025863
-2.235791 6.2825756 0.24414757
-2.7633886 6.2844028 0.25134507
-3.2807226 6.2006674 0.25683486
-3.9329491 6.286726 0.27149826
-4.1477637 6.2874718 0.27577248
-4.5989647 6.2890382 0.28524971
-4.836699 6.2898622 0.29049599
-5.0834765 6.2907214 0.29611486
-5.607656 6.2925415 0.30858788
-6.1792774 6.2945275 0.32294196
-6.4858789 6.2955942 0.33092993
-7.1479883 6.2978964 0.34878942
-9.6911716 6.3148437 0.42349067
-10.225117 6.3167014 0.44003487
-10.802832 6.3187132 0.45820227
-14.618359 6.3296728 0.58322501
-16.817665 6.3373313 0.6579932
-18.144804 6.3419557 0.70372415
-23.7946 6.4285288 0.90239996
-15.403505 -8.0983458 0.63714421
-14.848818 -8.2699594 0.622271
-8.1023922 -7.9125104 0.41463265
-15.792529 -21.733955 0.98360908
-14.239443 -21.728151 0.95112079
-13.502646 -21.729834 0.9366526
-12.092295 -21.733046 0.91056252
-11.416992 -21.737549 0.89894646
-9.4831829 -21.745083 0.86854392
-8.8661518 -21.747484 0.85984045
-7.6651363 -21.74749 0.84422719
-7.0804195 -21.748354 0.8373841
-6.5047851 -21.749203 0.83113134
-5.9373436 -21.750044 0.82544255
-4.8256054 -21.759653 0.81601721
-3.7352734 -21.761879 0.80839801
-2.6630468 -21.768095 0.80291206
-2.131582 -21.769077 0.80081946
-1.6025488 -21.770061 0.79920006
-1.0753516 -21.77104 0.79805273
-0.54942381 -21.772017 0.79736942
-0.024033202 -21.772991 0.79715157
1.0275097 -21.776899 0.79818213
4.7717481 -21.74366 0.8150205
2.0068848 -8.1953564 0.30891287
5.8714161 -21.696863 0.8229357
7.028193 -21.750946 0.83689034
8.353301 -22.139797 0.86635536
18.438154 -8.6350346 0.74541831
19.01828 -7.8116832 0.75274497
14.470888 6.2279687 0.57678902
13.567109 6.2310629 0.54659992
12.58248 6.150641 0.51276207
12.021846 6.240293 0.49590737
11.348085 6.2426 0.4741883
10.161777 6.2466626 0.43671638
8.6915913 6.2517004 0.39198142
7.0381346 6.1735764 0.34276327
6.4720507 6.2544751 0.32951757
6.1681542 6.2555175 0.32163796
5.8783007 6.2565112 0.31430426
5.0809374 6.2592478 0.29516104
4.8358397 6.2600889 0.28961295
4.3716307 6.2616844 0.27959433
4.1511035 6.2624412 0.27507514
3.7302051 6.2638888 0.26691633
3.5287304 6.2645798 0.26324067
3.3326268 6.265255 0.25981376
1.8856152 6.1864405 0.23678382
1.7466016 6.2688184 0.23825447
1.5848242 6.2693748 0.23675261
0.80068356 6.2720776 0.23149437
0.64740235 6.2726059 0.23087043
-0.11159179 6.275228 0.22978377
-0.26314452 6.2757492 0.22996849
-0.41504881 6.2762742 0.23028709
-0.5674414 6.276803 0.23074158
-0.72053707 6.2773304 0.23133361
-0.87450194 6.2778635 0.23206313
-1.0295312 6.2783995 0.23293366
-1.502998 6.2800364 0.23641555
-1.9934374 6.2817345 0.24128829
-2.161787 6.2823191 0.24324226
-2.3329687 6.2829113 0.24537513
-2.6849999 6.284132 0.25019416
-3.0104394 6.1997313 0.25232872
-3.1978416 6.2003818 0.25541931
-3.3909667 6.2027855 0.2588146
-3.6359277 6.2856956 0.26585776
-4.0535841 6.2871447 0.27388039
-4.4983006 6.2886877 0.2830793
-4.9750977 6.2903428 0.29362631
-5.2273536 6.2912207 0.29946724
-5.4900193 6.2921324 0.30572775
-5.7640624 6.2930856 0.31244162
-6.0505762 6.2940793 0.31964773
-6.3508105 6.2951245 0.3273876
-6.6661425 6.2962208 0.33571342
-7.7193551 6.2998838 0.364793
-8.0676069 6.2660327 0.37399542
-8.418047 6.2185216 0.38317314
-9.4714355 6.3140783 0.4167594
-10.546005 6.3178186 0.45009375
-11.15123 6.3199267 0.46927956
-11.810713 6.3222227 0.49046743
-12.533008 6.3247385 0.51397467
-13.309999 6.3187022 0.53942937
-14.204717 6.3282299 0.56933737
-16.293056 6.3355041 0.64003211
-17.546133 6.3398705 0.68304604
-20.66493 6.3579197 0.79158378
-22.614237 6.3647118 0.86011666
-16.372772 -7.4159155 0.65806127
-15.086445 -8.19631 0.62859732
-19.64039 -21.71121 1.0718745
-17.817451 -21.715702 1.0284386
-16.967733 -21.728544 1.0093467
-16.142099 -21.732346 0.99113578
-14.566855 -21.727404 0.95771748
-13.820068 -21.729109 0.94281822
-11.70872 -21.73641 0.90392387
-9.1327734 -21.746447 0.86353505
-6.753828 -21.748837 0.83377755
-6.1829686 -21.749681 0.82785589
-5.0654297 -21.759165 0.81794822
-4.5152245 -21.760288 0.81365681
-3.9704492 -21.761398 0.80988348
-3.4304101 -21.762499 0.80660754
-2.8944433 -21.763594 0.80382574
-0.77784181 -21.771591 0.79760963
-0.25225586 -21.772568 0.79718894
1.8538574 -21.779131 0.80026054
1.0321581 -7.7048907 0.28461143
1.275 -8.0389223 0.29799932
1.4463378 -7.8847513 0.29349327
1.6086426 -7.715703 0.28856117
2.1369336 -8.2383289 0.31160375
6.7645798 -21.710327 0.83254826
7.3755174 -21.804462 0.84273732
8.0433006 -22.014233 0.85809529
8.7924023 -22.374645 0.88015968
18.387432 -8.3073492 0.73871601
13.096484 6.2326732 0.53101689
11.633486 6.241622 0.48335394
10.99251 6.2438192 0.46284872
8.8857327 6.2510352 0.39776161
8.4472361 6.2525392 0.38477346
7.1881542 6.1730614 0.34689948
5.1904101 6.258872 0.29769263
4.7012401 6.2605515 0.2866407
4.0295115 6.2628598 0.27265427
3.6155858 6.2642808 0.26480582
3.4172266 6.2649646 0.2612738
3.0353906 6.2662768 0.2549189
2.8511522 6.2669101 0.25207198
2.6708691 6.267529 0.24943183
2.4942186 6.268137 0.24698928
2.2892089 6.1831555 0.24139312
1.3353612 6.2702355 0.23471236
1.1781152 6.2707772 0.23360084
1.0222558 6.2713132 0.23263374
0.713916 6.272378 0.23112495
0.56106442 6.2729053 0.23057899
0.25708008 6.2739549 0.22989325
-0.045791015 6.2750001 0.22974502
-0.19726562 6.2755237 0.22987129
-0.50114256 6.2765732 0.23052719
-0.96203125 6.2781663 0.23253745
-1.1177539 6.2787046 0.23348846
-1.2748437 6.2792478 0.23458442
-1.4335058 6.2797971 0.2358287
-2.0882909 6.282064 0.24237274
-2.2582128 6.2826524 0.24442688
-2.4311328 6.2832518 0.24666046
-2.6073437 6.2838635 0.24908149
-2.7871678 6.2844858 0.25169897
-3.5483301 6.2853904 0.26425704
-3.9607031 6.2868223 0.27204162
-4.1763673 6.2875705 0.27635458
-4.3991308 6.2883434 0.28097314
-4.6296091 6.289144 0.28591651
-5.3745604 6.2917309 0.30295494
-5.9244628 6.2936425 0.31645223
-7.1938572 6.2980566 0.35005486
-9.2585058 6.3133383 0.41027975
-9.7587986 6.3150778 0.42557272
-10.298163 6.3169556 0.44231713
-11.516943 6.3211999 0.48099327
-16.981493 6.3379025 0.66361576
-19.91119 6.3552952 0.76522011
-21.727139 6.3616223 0.82887214
-23.794882 6.3479991 0.90164405
-24.321756 -8.0144157 0.93756813
-15.329307 -8.1212654 0.63513279
-15.804472 -8.8677425 0.66349006
-8.0731544 -7.9339514 0.41441733
-16.497217 -21.730713 0.99889851
-15.688173 -21.734436 0.98137993
-14.141641 -21.728376 0.9491663
-13.407881 -21.730049 0.9348374
-10.672177 -21.740454 0.88669348
-8.1814156 -21.746729 0.85067111
-7.5880957 -21.747604 0.84329593
-7.0046091 -21.748466 0.83653265
-6.430068 -21.749315 0.83035988
-5.8636327 -21.750151 0.82474554
-5.3063965 -21.758671 0.81997669
-4.7536035 -21.7598 0.81545782
-4.2065721 -21.760918 0.81146157
-3.6645508 -21.76202 0.80796802
-3.1268749 -21.763119 0.80497277
0.04470703 -21.773117 0.79716039
0.57020509 -21.775663 0.79752338
0.93293941 -7.5662785 0.27911431
1.1672657 -7.8937249 0.29214776
3.7605956 -21.785383 0.80940282
1.5387988 -7.7884245 0.29066229
4.8434176 -21.741957 0.81552649
2.0367577 -8.2052116 0.30952597
5.9450293 -21.697144 0.82365423
6.5123239 -21.699316 0.82945991
7.1081443 -21.763266 0.8382073
7.7445016 -21.906263 0.85067528
8.4537106 -22.193495 0.86949438
18.474648 -9.1291876 0.75447041
18.432743 -8.561595 0.74410439
18.09749 -7.8809347 0.72268349
19.067696 -7.7617583 0.75372809
12.483056 6.1509824 0.50949913
11.264306 6.242888 0.47151053
8.6342287 6.2518969 0.39028296
8.2116604 6.253346 0.37789512
7.8148727 6.2547059 0.36647362
6.7486424 6.2535267 0.33684975
6.1294336 6.2556505 0.32064703
5.8413572 6.2566381 0.3133834
4.8044333 6.2601991 0.28891501
4.3423438 6.2617846 0.27898535
3.9099998 6.2632699 0.27032477
3.5027537 6.2646689 0.26277816
2.74875 6.2672629 0.25055456
2.3631346 6.1829014 0.24233802
2.1939161 6.183485 0.24021545
2.0275292 6.1840563 0.23826912
1.5637988 6.2694468 0.23656829
1.2462499 6.2705417 0.23406494
1.0898046 6.27108 0.23303688
0.93464839 6.271615 0.23214988
0.78059566 6.2721481 0.23140571
0.17141601 6.2742505 0.22979759
0.02 6.2747717 0.22973144
-0.43495116 6.2763438 0.23033859
-1.2063769 6.2790112 0.23409012
-1.3643457 6.2795582 0.23526962
-1.6855567 6.2806702 0.23808387
-2.1840136 6.2823949 0.2435125
-2.3555956 6.2829895 0.24566764
-2.5303416 6.2835946 0.24800575
-2.708545 6.2842135 0.25053704
-3.2226954 6.2004676 0.25584191
-3.4164844 6.2028732 0.25926697
-4.0818067 6.2872424 0.27444389
-4.7635937 6.2896094 0.28886467
-5.2611423 6.291338 0.30026251
-5.5252442 6.2922544 0.30658087
-5.8008595 6.2932138 0.31335714
-6.0891013 6.2942138 0.32062951
-6.3911719 6.2952647 0.3284426
-6.7085838 6.2963672 0.33684838
-9.0520992 6.3126183 0.40404242
-10.058652 6.316123 0.43484977
-11.234336 6.3202157 0.47193229
-11.901513 6.3225389 0.49340752
-13.310176 6.2674046 0.53863072
-14.327207 6.3286557 0.57344276
-15.325058 6.3321323 0.60708821
-16.448008 6.3360448 0.6453284
-18.928036 6.2608924 0.72991872
-22.894657 6.3656898 0.87001473
-16.337938 -7.4624381 0.65760565
-15.014257 -8.218627 0.62666631
-18.591162 -21.713793 1.0465618
-16.03624 -21.732832 0.98884559
-15.243017 -21.736485 0.97196186
-14.467724 -21.727631 0.95570838
-11.62044 -21.736755 0.90240777
-10.307187 -21.741875 0.88093036
-9.6731052 -21.744343 0.87132269
-9.0522461 -21.746759 0.86241066
-8.4425392 -21.746342 0.85406971
-7.2569528 -21.748095 0.83939719
-6.6786523 -21.748947 0.83296865
-5.5485349 -21.758179 0.82210636
-4.9930372 -21.759312 0.81735694
-3.8994725 -21.761543 0.80942345
-2.8244531 -21.763737 0.80349493
-2.2926757 -21.768782 0.80140632
-1.2353027 -21.770742 0.7983489
-0.70901364 -21.771719 0.79752707
0.34182617 -21.775049 0.79732323
2.4541504 -21.780752 0.80248266
1.6294824 -7.6940293 0.28794044
2.1673827 -8.2484102 0.31224173
7.4565916 -21.816952 0.84411871
8.8961229 -22.430117 0.88343936
18.450781 -8.8063622 0.74851733
18.904081 -7.9271483 0.7505033
14.765469 6.2269578 0.58669853
13.831279 6.2301583 0.55539298
12.826055 6.1537485 0.52084219
11.546387 6.2419214 0.48055258
10.329726 6.2460899 0.44195426
9.2917776 6.2496448 0.40998024
8.8266211 6.2512379 0.39599708
8.3919134 6.252728 0.3831507
7.4936328 6.1671801 0.3553234
6.8916211 6.2530355 0.34069678
6.567275 6.254148 0.33202553
6.2588964 6.2552075 0.32397056
5.9649315 6.2562156 0.31647575
4.6704688 6.2606578 0.2859681
4.4400392 6.2614489 0.28102928
4.2173047 6.2622142 0.2764158
4.0016403 6.2629552 0.27210671
3.7924707 6.2636728 0.2680831
3.5892968 6.2643714 0.26432908
3.1990137 6.2657151 0.25756842
2.4713573 6.2682166 0.24668288
2.0994921 6.1838083 0.23909217
1.6337304 6.2692065 0.23719199
1.1576074 6.2708483 0.23346664
1.0019433 6.2713842 0.2325183
0.69386715 6.2724462 0.23104607
9.4403515 -22.821083 0.34763235
24.782949 6.1926332 0.35957375
22.490751 6.1999621 0.32839224
20.564901 6.2065892 0.30237129
17.499891 6.2172275 0.26141647
16.257587 6.2215028 0.24502982
11.810361 6.2407494 0.1880265
9.4832811 6.2487607 0.15986176
9.0051851 6.2504077 0.15429939
7.6391993 6.1664844 0.13819091
7.2744627 6.1677389 0.13425186
6.6925292 6.2535348 0.1289296
6.378037 6.2546177 0.1257425
5.7927341 6.2566342 0.12001938
5.0054102 6.2593479 0.11281311
4.5294724 6.2609873 0.10877471
4.3038087 6.261765 0.10695297
4.0854588 6.2625184 0.10525092
3.8738182 6.2632456 0.10366257
3.6683495 6.2639551 0.10217926
3.468574 6.2646432 0.10079551
2.5400977 6.2678452 0.095196836
2.3336523 6.1828699 0.093023911
2.1649315 6.1834521 0.092219621
1.9990234 6.1840258 0.09148109
1.2191211 6.2705078 0.089916989
0.90795898 6.2715821 0.089199983
0.7540527 6.2721128 0.088923566
0.29678711 6.2736902 0.08840774
0.14524414 6.2742147 0.088339612
-0.0061425781 6.2747364 0.088323742
-0.30920899 6.2757835 0.088446654
-0.46123046 6.2763085 0.088584669
-0.61382812 6.2768359 0.08877594
-0.76716793 6.2773643 0.08901909
-0.92143553 6.2778993 0.089315489
-1.0768261 6.2784348 0.089666978
-1.3917773 6.2795224 0.090536498
-1.5517285 6.280077 0.091056898
-1.7136328 6.2806358 0.09163902
-2.0442286 6.2817798 0.092987821
-2.5608106 6.2835641 0.095511474
-2.739619 6.284183 0.096497573
-3.0667772 6.1997886 0.097362362
-3.2555761 6.2004418 0.098577499
-4.3399901 6.2879858 0.10754661
-4.8049607 6.2895947 0.11141243
-5.050498 6.2904453 0.11355316
-5.8495212 6.2932105 0.12094086
-6.1400585 6.2942162 0.1237725
-6.4446874 6.2952709 0.12681365
-6.7648826 6.2963805 0.13008805
-7.4585934 6.2987804 0.1374179
-8.1376953 6.2254395 0.14422309
-8.5486622 6.2187643 0.14880264
-9.1330366 6.3126793 0.15627776
-9.6238766 6.3143797 0.16202149
-10.724033 6.3181896 0.17520279
-11.344883 6.3203406 0.18280257
-12.022402 6.3226867 0.19120437
-12.765654 6.3252625 0.20054084
-13.399463 6.2413378 0.20807846
-16.655565 6.336411 0.25083908
-17.959599 6.34093 0.26809508
-21.221483 6.3594165 0.31184027
-23.272949 6.3665247 0.33963019
-28.641571 6.3679771 0.41301185
-8.1609859 -7.9195518 0.16007331
-17.560644 -21.725273 0.3932192
-16.713467 -21.729179 0.38587424
-15.896923 -21.732948 0.37902227
-15.108427 -21.736589 0.37261802
-14.338115 -21.728651 0.36644492
-13.59831 -21.730328 0.36083335
-12.88041 -21.731953 0.35559729
-12.182666 -21.733532 0.35072151
-11.504883 -21.737818 0.34619543
-10.843154 -21.740387 0.34196952
-10.197031 -21.742897 0.33804116
-9.5651951 -21.745352 0.3343952
-8.9465036 -21.747755 0.33100393
-8.3386135 -21.746864 0.32784277
-7.1565623 -21.748604 0.32228509
-6.5797949 -21.749453 0.31985161
-6.0113182 -21.750292 0.31764045
-4.3492579 -21.760439 0.31236321
-3.2672753 -21.762646 0.30976751
-2.2009766 -21.768511 0.30797979
-1.6716894 -21.769491 0.30733237
-1.1442969 -21.770473 0.30686653
-0.61819333 -21.77145 0.30658135
0.95854491 -21.776587 0.30682594
1.4857129 -21.778008 0.30726555
2.0146778 -21.779438 0.30788079
2.5460839 -21.78087 0.30868018
1.0754395 -7.6044011 0.10810623
1.3408301 -8.0714502 0.11517204
4.1613865 -21.785498 0.31219903
4.7001562 -21.74539 0.31316122
5.7985935 -21.69944 0.31616265
6.9486914 -21.739376 0.32125312
7.5674996 -21.84376 0.32540533
18.777334 -7.7821374 0.2861129
28.564589 6.0958285 0.41113457
23.122402 6.1139975 0.33664191
21.362909 6.2038441 0.31312859
17.851484 6.1321359 0.26569128
15.621445 6.2236924 0.23670013
12.11415 6.2397046 0.19181129
11.43247 6.2420506 0.18334991
10.808057 6.2442017 0.17570144
10.23333 6.2461791 0.16875763
7.9161911 6.2541566 0.14200988
7.4303613 6.1672034 0.13592628
6.206953 6.2552085 0.12404159
5.6366501 6.2571726 0.11854385
4.6299901 6.2606406 0.10960624
4.4009376 6.2614307 0.1077304
3.1661522 6.265686 0.098817363
2.9789453 6.2663317 0.097665787
2.7959473 6.2669625 0.096594997
2.4078906 6.1826148 0.093393855
2.2378905 6.1832018 0.09256012
2.070791 6.1837769 0.0917942
1.9069335 6.1862378 0.091121592
1.7679003 6.2686143 0.09167999
1.4457812 6.2697239 0.090569682
1.2874316 6.2702723 0.090103149
0.82082027 6.2718811 0.089036562
0.36273438 6.2734642 0.088453904
0.059628904 6.2745104 0.088324428
-0.091748044 6.275033 0.088337474
-1.0091504 6.2782016 0.089507677
-1.1652637 6.2787423 0.08988975
-1.3228124 6.2792859 0.090327911
-2.3103321 6.2827001 0.094225235
-2.8260252 6.2482886 0.096532054
-2.9861522 6.1995106 0.096860349
-3.1729686 6.2001562 0.098040543
-3.3654296 6.2025561 0.099331968
-3.8143065 6.2861667 0.1034999
-4.0253711 6.2868967 0.10508102
-4.2431345 6.2876511 0.10677322
-4.4681544 6.2884288 0.10858574
-4.7010937 6.2892356 0.11052665
-6.0121484 6.2937732 0.12251838
-6.3104978 6.294806 0.12546493
-7.6692867 6.2995105 0.13970307
-8.9303999 6.3119774 0.15393448
-11.068583 6.3193836 0.17940827
-11.720469 6.3216419 0.18744598
-12.433945 6.3241124 0.19636177
-16.139629 6.3346229 0.24405678
-17.371504 6.3388915 0.26029456
-22.338301 6.363286 0.32694739
-24.20871 6.2688241 0.35200369
-15.727304 -7.9966693 0.24835227
-17.933174 -21.716421 0.39643288
-16.248154 -21.731327 0.38194281
-14.666836 -21.727905 0.36900413
-13.189815 -21.731253 0.35782903
-12.483525 -21.732851 0.35279197
-11.796426 -21.734406 0.34808341
-9.2138281 -21.746717 0.3324497
-8.0002632 -21.747362 0.32617453
-6.8293357 -21.749086 0.32087836
-5.1378708 -21.758827 0.3147051
-4.0414844 -21.761065 0.31155083
-2.9643555 -21.763266 0.30917075
-2.4317381 -21.768084 0.30831596
-1.9014257 -21.769068 0.30759436
-1.373291 -21.770048 0.30704933
-0.84669918 -21.771025 0.30668557
0.2042578 -21.772978 0.30649391
0.72990233 -21.775969 0.30669302
1.2564257 -21.77739 0.30704871
2.3148143 -21.780249 0.30830863
4.463203 -21.751013 0.31254843
5.0098925 -21.738037 0.31400916
5.5585546 -21.711267 0.31546745
6.6862497 -21.700111 0.31962347
9.5628614 -22.912094 0.34947851
18.205614 -8.8309288 0.28482017
24.458672 6.1937475 0.3551513
18.723183 6.2129283 0.27768105
17.327909 6.2178183 0.25913802
13.202451 6.2320189 0.20550469
12.270605 6.1584144 0.19326293
9.9279099 6.2472315 0.16511367
8.9450197 6.2506151 0.15360656
8.5027437 6.2521372 0.14855857
7.5902343 6.1666527 0.13765663
6.9791989 6.2525473 0.13189827
6.04041 6.2557812 0.12240677
5.4843554 6.2576976 0.11712585
5.2236423 6.2585959 0.11474968
4.7320313 6.2602906 0.1104618
4.4995117 6.2610898 0.1085292
4.2748241 6.2618651 0.1067231
3.641875 6.2640452 0.10199173
3.4428027 6.2647324 0.10062225
3.0597656 6.2660522 0.098155819
2.6941991 6.267313 0.096025541
2.3113768 6.1829476 0.092916407
2.1430566 6.1835289 0.092118606
1.9775 6.1840992 0.091391139
1.8149999 6.1865549 0.09075287
1.3560351 6.2700353 0.090298533
0.88776368 6.2716513 0.089160539
0.73397458 6.272181 0.088890456
0.42874023 6.2732358 0.088508755
0.27693358 6.2737598 0.088396527
-0.025966797 6.2748055 0.0883255
-0.17740233 6.2753296 0.088367842
-1.0972656 6.2785058 0.089717098
-1.2541699 6.2790489 0.090130076
-1.4126074 6.2795944 0.090601347
-1.5728124 6.2801514 0.091130219
-2.0662012 6.2818551 0.093084641
-2.408252 6.2830381 0.094715573
-2.5840137 6.2836447 0.095636517
-2.76333 6.284266 0.096633144
-2.9063671 6.1992331 0.096376263
-3.0912304 6.1998739 0.097515561
-3.5220702 6.2851548 0.10141555
-3.9328516 6.2865758 0.10438117
-4.3694434 6.2880869 0.10778282
-4.5988474 6.2888803 0.10966751
-4.8365722 6.2897043 0.11168419
-5.6075001 6.2923727 0.11863891
-6.1790915 6.2943506 0.12415863
-7.5067773 6.2989478 0.13793762
-7.887197 6.3002648 0.14209351
-8.1913967 6.225626 0.14482178
-9.1953125 6.3128943 0.15700226
-10.224716 6.3164587 0.16917221
-11.430204 6.3206358 0.18385398
-12.115742 6.3230114 0.19237091
-13.511631 6.2417274 0.20951149
-15.650937 6.3329296 0.23765601
-18.14369 6.341567 0.27054504
-19.692518 6.3541183 0.29126686
-26.01376 6.3588705 0.37695533
-29.041748 6.360724 0.41848761
-8.1023626 -7.9124856 0.15941261
-19.232168 -21.713251 0.40828955
-16.604893 -21.729683 0.3849549
-15.792138 -21.733433 0.37815756
-15.007129 -21.737055 0.37179542
-13.503086 -21.730541 0.36012566
-10.757686 -21.740719 0.34143928
-9.4834375 -21.745668 0.33393791
-8.2599506 -21.746979 0.32745108
-6.5048923 -21.749565 0.31955054
-5.9374413 -21.750401 0.31737083
-4.277832 -21.760584 0.31216955
-3.735244 -21.761688 0.31080192
-2.662998 -21.767651 0.30868933
-1.075332 -21.770599 0.3068203
-0.54940426 -21.771576 0.30655754
-0.024023438 -21.772552 0.30647346
0.50141603 -21.775351 0.30659416
1.0275 -21.776772 0.3068746
2.084121 -21.779623 0.30797598
1.1059864 -7.6461382 0.10874809
1.3696289 -8.0866241 0.11545029
4.7717381 -21.74369 0.31335229
5.3195701 -21.723042 0.31480917
5.8714547 -21.696991 0.31639501
7.0284276 -21.751661 0.3217684
7.6561031 -21.875776 0.32623938
8.3542967 -22.142477 0.33312783
9.1611814 -22.613695 0.34344184
18.825928 -7.732677 0.28647879
28.09201 6.0878429 0.40460715
22.836142 6.1155396 0.33277291
19.394121 6.2106175 0.28665182
15.480225 6.2241797 0.23485573
14.470165 6.2276549 0.22174728
13.566455 6.2307663 0.21014182
11.347617 6.2423425 0.18230483
10.730107 6.2444687 0.17475456
10.161396 6.2464256 0.16789757
9.1467962 6.2499194 0.15593688
7.3829684 6.167367 0.13541748
5.8781347 6.2563415 0.12083709
3.5286522 6.2644358 0.10120574
2.954746 6.2664146 0.097520448
2.5936327 6.2676597 0.095479734
2.3854589 6.1826916 0.093282469
2.0491211 6.1838512 0.091699295
1.7465625 6.2686877 0.091600262
0.9548828 6.2714195 0.089294508
0.80066407 6.2719517 0.089001007
0.039814454 6.2745776 0.088324122
-0.56743163 6.2766757 0.088711314
-0.72051758 6.2772045 0.088938899
-0.87449217 6.2777367 0.089219131
-1.3435644 6.2793565 0.090389937
-1.5029687 6.2799072 0.090893246
-1.6642578 6.2804651 0.0914566
-1.8276561 6.2810302 0.092079163
-2.1617382 6.2821851 0.093517914
-2.8273437 6.1989598 0.095906444
-3.010371 6.1995945 0.097012095
-3.3908887 6.2026439 0.099503398
-3.8415527 6.2862611 0.10370102
-4.7322168 6.2893434 0.11079117
-5.2272167 6.2910557 0.11513313
-6.0504098 6.2939048 0.12289154
