# .PCD v0.7 - Point Cloud Data file format
VERSION 0.7
FIELDS x y z
SIZE 4 4 4
TYPE F F F
COUNT 1 1 1
WIDTH 1490
HEIGHT 1
VIEWPOINT 0 0 0 1 0 0 0
POINTS 1490
DATA ascii
1.4191699 6.1868143 0.37567466
1.2796386 6.2691975 0.37869039
1.122871 6.2697392 0.37697685
0.81313473 6.2708097 0.37424278
0.50712889 6.2718668 0.37240943
0.35508788 6.2723932 0.37182304
-0.099443354 6.2739663 0.37136832
-0.40289062 6.2750163 0.37214881
-0.55524415 6.2755461 0.37286675
-0.86221677 6.2766104 0.3749668
-1.0171679 6.2771478 0.37635642
-1.1733886 6.2776895 0.37797752
-1.3310547 6.2782388 0.37983465
-1.4903516 6.2787919 0.38193306
-2.3194628 6.2816753 0.39631218
-2.4935741 6.2822819 0.40003225
-2.852246 6.2835307 0.40840903
-3.0375195 6.2841763 0.41309655
-3.2008202 6.2334552 0.41472098
-3.3750098 6.1998248 0.41778174
-3.5720117 6.2005119 0.42351142
-3.7756543 6.2029557 0.42977926
-4.037168 6.2859292 0.44215247
-4.2553906 6.2866912 0.44930044
-4.4809179 6.2874799 0.45695427
-4.7143455 6.2882953 0.46514747
-4.9564939 6.2891397 0.47392097
-5.2081151 6.29002 0.48332128
-5.7432618 6.2918916 0.50419366
-6.9732614 6.2961969 0.55604941
-7.322412 6.29742 0.57160085
-8.083847 6.3000884 0.60657829
-8.8272266 6.2189007 0.63907188
-9.4363079 6.3129263 0.6719408
-10.505654 6.3166766 0.72551215
-11.107549 6.3187895 0.75632805
-16.062656 -7.7218943 1.0548141
-15.464296 -8.3757925 1.0408776
-17.009991 -21.730513 1.6332834
-14.602607 -21.727356 1.5493722
-13.854589 -21.729078 1.5252081
-12.42419 -21.732372 1.4815869
-11.07249 -21.739687 1.4439365
-9.7840328 -21.744734 1.4112365
-9.1599607 -21.745417 1.3965231
-7.9485641 -21.747227 1.3703848
-7.3589644 -21.748108 1.3588531
-6.7788868 -21.748972 1.3482903
-6.2074218 -21.749825 1.3386627
-5.6459961 -21.75893 1.3304495
-5.0891404 -21.760071 1.3226233
-4.538486 -21.761198 1.3156494
-3.9933789 -21.762314 1.3095083
-3.4529295 -21.76342 1.3041793
-1.8537695 -21.770756 1.2931628
-0.27317381 -21.773703 1.2887769
0.25239256 -21.775995 1.2888968
0.66326171 -7.8784432 0.46793386
1.0639062 -7.9975042 0.4775025
1.2329004 -7.819171 0.46849462
1.3957715 -7.6476336 0.46010107
5.6078515 -21.697262 1.3263503
6.1707129 -21.699423 1.3351947
6.761816 -21.76746 1.3490362
7.3916698 -21.913754 1.3687586
8.8943167 -22.689798 1.4423836
18.361679 -9.4013243 1.2208976
17.916494 -8.634181 1.1770959
17.583759 -7.4510403 1.1302718
19.14328 -7.5723324 1.2184132
-11.66079 -21.737997 0.90314686
-10.345215 -21.743134 0.88157016
-9.0872946 -21.745901 0.86287987
-6.711113 -21.749435 0.83333397
-6.1406446 -21.750282 0.82745153
-5.0237889 -21.760014 0.81763494
-4.4738574 -21.761139 0.8133831
-2.853955 -21.768452 0.80380452
-1.7912695 -21.770432 0.79975182
-1.2633106 -21.771418 0.7984342
-0.21110351 -21.77338 0.7972039
0.84042966 -21.77746 0.79790932
1.3674316 -21.778889 0.79893792
0.67254883 -7.7253723 0.2839106
1.071123 -7.8798184 0.29114816
1.7319726 -8.2265186 0.30779165
5.6739354 -21.697645 0.82110512
6.2376657 -21.69981 0.82664436
7.4715915 -21.944094 0.84870762
18.61751 -7.8265743 0.73940545
26.617275 -8.2752724 1.020547
13.851552 6.2286124 0.55604637
13.009228 6.2315044 0.52811575
10.9254 6.2426004 0.46069145
7.9917188 6.2526798 0.37150458
7.1432714 6.1669683 0.34550819
6.8107615 6.1729474 0.33653435
6.2640328 6.2537861 0.32406637
5.9697361 6.2547965 0.31656119
5.6886129 6.2557645 0.3095707
4.9130955 6.2584329 0.29130378
4.6740918 6.2592568 0.28600731
4.2206054 6.2608171 0.27644059
4.0047851 6.2615604 0.27212515
3.5921972 6.2629828 0.26433837
3.3943944 6.2636652 0.26083258
2.8298047 6.2656121 0.25170678
2.6499414 6.2662334 0.2490889
1.4560645 6.1865606 0.23268844
1.3166504 6.2689424 0.23452461
1.159541 6.2694855 0.23342933
1.003828 6.2700224 0.23248054
0.84926754 6.2705569 0.23167221
0.69569331 6.2710881 0.23100379
0.54291993 6.2716165 0.2304737
0.39075196 6.2721438 0.23007958
0.087529294 6.2731938 0.22969474
-0.063867189 6.2737174 0.22970337
-0.3671582 6.2747674 0.23012374
-0.67227536 6.2758245 0.23108368
-0.82596678 6.2763567 0.23176979
-1.1365429 6.2774358 0.23356529
-1.2938477 6.2779813 0.23467827
-1.4527344 6.278532 0.23594131
-1.9411815 6.2802277 0.24066314
-2.2789745 6.2814007 0.24464172
-2.6289649 6.2826176 0.24934348
-2.8092773 6.2832427 0.25198638
-3.3294334 6.199523 0.25763664
-3.7274218 6.2026434 0.26494011
-3.9868164 6.285605 0.27251503
-5.9604783 6.2924771 0.3173255
-6.5670114 6.2945929 0.33304268
-6.8937693 6.2957315 0.34180823
-7.6028514 6.2982035 0.36145896
-7.989326 6.2995524 0.37249532
-8.4004002 6.3009858 0.38445821
-8.7209177 6.2183123 0.39214438
-9.3206148 6.3122964 0.41213751
-13.741572 6.2416096 0.55256414
-14.878232 6.3293705 0.59196067
-17.150341 6.3373051 0.66940159
-18.52668 6.3421159 0.71693826
-21.993877 6.361413 0.8382436
-24.171719 6.3634343 0.91512609
-16.171143 -8.1449795 0.66291523
-15.390078 -8.2230453 0.63884604
-19.912724 -21.711311 1.0785928
-18.97076 -21.713642 1.0556496
-15.568848 -21.73662 0.97891986
-14.782412 -21.727671 0.96214378
-14.02871 -21.729397 0.94695014
-13.297988 -21.73107 0.93275994
-9.9326172 -21.744745 0.87524039
-8.6912498 -21.746489 0.85741353
-7.4967089 -21.748266 0.84222388
-6.9144921 -21.749132 0.83554965
-6.3411036 -21.749985 0.82946521
-5.7777243 -21.758469 0.82422489
-5.2193456 -21.759613 0.81925774
-4.1209474 -21.761862 0.81090289
-2.5089746 -21.769094 0.80228245
-1.9780859 -21.770084 0.80032855
-1.4495116 -21.771069 0.79884678
-0.39662108 -21.773035 0.79728764
0.12889647 -21.775534 0.79725927
0.65466797 -21.776958 0.79765725
1.18125 -21.778383 0.79851937
0.59812498 -7.6214957 0.27989569
2.7722266 -21.782696 0.80393821
1.179541 -7.7667437 0.28761649
1.6537206 -8.2007151 0.30628714
5.4766893 -21.69689 0.81927925
6.0377731 -21.699043 0.8246212
6.6203222 -21.746338 0.83224231
7.2353125 -21.858715 0.84299093
8.6884861 -22.539938 0.88441765
9.6970892 -23.453749 0.92920464
18.028173 -8.281435 0.72635537
11.143417 6.2418523 0.4676258
9.9875193 6.245821 0.43127617
8.5504103 6.2507596 0.38777885
7.2670212 6.1665435 0.34893882
6.922627 6.1677265 0.33945504
6.6511817 6.2201996 0.33340645
6.3712988 6.2534146 0.32684869
6.0720606 6.2544436 0.31914985
5.2512107 6.2572699 0.2990734
4.5239744 6.2597733 0.28276816
4.2984276 6.2605486 0.27803451
4.0801954 6.2613006 0.27361509
3.4636133 6.2634268 0.26204184
3.0794921 6.26475 0.25557616
2.8942187 6.2653899 0.2526789
2.7130077 6.2660136 0.24999008
2.5355077 6.2666264 0.2475006
2.3614061 6.2672281 0.24520209
1.9946483 6.1828055 0.23785315
1.8313086 6.1833696 0.23610458
1.6702636 6.1839261 0.23451766
1.5117577 6.1863689 0.23315819
1.3724804 6.2687478 0.23494613
0.9037109 6.2703705 0.23194152
0.74980468 6.2709012 0.23122413
0.29253906 6.2724833 0.2298957
0.14098632 6.2730083 0.22972389
-0.46559569 6.2751093 0.23037368
-0.92591792 6.2767048 0.23228744
-1.0813671 6.2772431 0.23320533
-1.3964453 6.2783365 0.23547821
-1.5564843 6.278892 0.23683852
-1.7184863 6.2794538 0.23835601
-2.2185254 6.2811909 0.24388771
-2.3907616 6.2817888 0.24608085
-2.9280274 6.2836552 0.25380591
-3.1150584 6.284306 0.25679526
-3.6546776 6.200655 0.26351455
-3.9119823 6.2853436 0.27104896
-4.1261621 6.2860894 0.27529517
-4.3472948 6.2868586 0.27984351
-5.0588474 6.2893362 0.29550895
-5.5810547 6.2911553 0.30790275
-6.455615 6.2942047 0.33009925
-6.776484 6.2953229 0.33863792
-7.4717965 6.2977471 0.35776573
-7.8502245 6.299068 0.36849844
-9.016943 6.2193437 0.40103155
-10.173574 6.3152728 0.43840325
-11.370371 6.3194499 0.47626394
-12.797031 6.3244314 0.52261907
-13.620869 6.3273077 0.54986286
-14.530488 6.3281546 0.58024973
-15.553535 6.3317289 0.61482382
-16.707001 6.3357587 0.65418231
-18.019053 6.3403411 0.69935995
-19.266123 6.2609062 0.74168003
-21.303877 6.3590021 0.81397927
-24.170937 6.5839372 0.91718209
-16.562569 -7.6748595 0.66832817
-15.59165 -8.1607685 0.6443032
-16.186972 -8.9764853 0.67766088
-20.255205 -21.710463 1.0870844
-17.510508 -21.727665 1.0216682
-16.664911 -21.731567 1.0026461
-14.292021 -21.728794 0.95219457
-13.553398 -21.730486 0.93765628
-12.141171 -21.73612 0.91153038
-10.802412 -21.74135 0.88883442
-8.9066992 -21.746168 0.86036122
-7.7044921 -21.747955 0.84472156
-7.1189747 -21.748827 0.83783698
-6.5425682 -21.749685 0.83153862
-5.9765134 -21.75806 0.82610965
-4.3132324 -21.761469 0.81223041
-3.7700975 -21.762583 0.80864185
-2.6970313 -21.768745 0.80308998
-1.108418 -21.771706 0.79813695
-0.056591794 -21.775032 0.79722756
0.9952246 -21.77788 0.79816228
0.73619139 -7.81422 0.28736153
0.95726562 -8.0702171 0.29753807
3.6574707 -21.785776 0.80878454
4.7369237 -21.733305 0.81437916
5.282793 -21.706417 0.81791097
5.8388672 -21.698278 0.82267642
6.4087987 -21.713745 0.82888752
7.6708789 -22.016106 0.85357583
8.4044533 -22.36907 0.87487084
9.2834082 -23.006355 0.90829659
18.040907 -8.4741278 0.72975165
18.726444 -7.7164917 0.74153662
13.594814 6.2294941 0.54749912
12.777451 6.2323003 0.52048773
11.895741 6.1619525 0.49048772
11.368134 6.2410798 0.47480795
10.748731 6.2432075 0.45509803
10.17834 6.2451653 0.43720374
9.6508398 6.2469792 0.42090049
8.2773046 6.2516985 0.37977225
7.8764353 6.2530756 0.36819953
7.4991112 6.2543716 0.35751212
7.0420313 6.167316 0.34272254
6.7147751 6.1732755 0.33394644
5.8857813 6.2550859 0.31445426
5.6082811 6.2560406 0.30760673
4.8419237 6.2586784 0.28970787
4.6054688 6.2594929 0.28451729
4.3772068 6.2602787 0.27967018
3.735127 6.2624907 0.26696503
3.3372362 6.2638617 0.25984862
3.1458983 6.2645221 0.25665078
2.9591503 6.2651653 0.25367743
2.5977635 6.2664127 0.24835677
2.2504492 6.2676115 0.2438111
1.8886913 6.1831717 0.23670319
1.7268652 6.1837311 0.23505957
1.5676757 6.1861749 0.23364615
1.2703124 6.2691007 0.23418801
1.1136426 6.2696443 0.23313652
0.80404294 6.2707133 0.23146133
0.49813476 6.2717729 0.23034362
-0.10838867 6.2738724 0.22973113
-0.25996092 6.2743974 0.22991371
-0.87132812 6.2765155 0.23199776
-1.0263476 6.2770524 0.23286597
-1.182627 6.2775946 0.23387687
-1.4997754 6.2786956 0.23634079
-1.6610448 6.2792544 0.23780158
-1.8244336 6.2798223 0.23942177
-1.9901464 6.2803974 0.24120483
-2.158457 6.280982 0.24315742
-2.3295996 6.2815766 0.24528626
-2.5038769 6.2821808 0.24759735
-3.2020116 6.2140079 0.25593582
-3.5837109 6.2004094 0.26219809
-3.7876952 6.2028532 0.2660906
-4.2683887 6.2865839 0.27820244
-4.4943357 6.2873697 0.28295571
-4.7283006 6.2881866 0.28804496
-5.2231445 6.2899089 0.29933143
-5.7596192 6.291779 0.31229699
-6.0460448 6.2927766 0.31949607
-6.3461523 6.2938237 0.32723227
-6.993154 6.2960782 0.34451056
-8.1075001 6.2999649 0.37591147
-8.4446096 6.2410464 0.38444602
-8.8537788 6.2187748 0.39612404
-10.539365 6.3165498 0.44986075
-11.144238 6.3186603 0.46903142
-12.525303 6.323483 0.51370519
-14.00668 6.2425346 0.56144279
-15.178711 6.3304191 0.60211462
-16.283329 6.3342776 0.63968331
-17.535654 6.3386526 0.68267018
-20.652557 6.3567266 0.79113561
-22.600643 6.3635306 0.85962683
-24.519384 6.2692938 0.92657948
-16.658007 -7.5473833 0.66956121
-16.388594 -7.9073682 0.66620857
-15.796738 -8.0974321 0.64990503
-15.225029 -8.2742443 0.6344164
-20.603106 -21.709602 1.0957909
-19.631601 -21.712009 1.0716802
-18.701307 -21.714308 1.0492034
-16.134237 -21.734013 0.99101537
-15.337461 -21.737688 0.97406375
-14.5583 -21.728184 0.95756859
-13.811582 -21.729895 0.94267535
-13.087276 -21.731552 0.92877418
-12.383642 -21.733164 0.91580361
-11.033867 -21.740446 0.89260489
-9.7470989 -21.74547 0.87246436
-9.1236715 -21.745844 0.86339331
-7.9135251 -21.747646 0.84729958
-6.7450681 -21.749384 0.83370125
-6.1740918 -21.750235 0.8277784
-5.6128712 -21.758808 0.82271141
-4.5061426 -21.761074 0.81361854
-3.421123 -21.763298 0.80658436
-2.885498 -21.768393 0.80395532
-0.76783204 -21.772341 0.79762441
1.336289 -21.778803 0.79886329
0.88333005 -8.0312386 0.2958132
1.0610937 -7.8902831 0.29147848
4.0021777 -21.753052 0.80978733
5.0895505 -21.715937 0.81660575
5.6408591 -21.697519 0.82079476
6.2041698 -21.69968 0.82630193
7.4318943 -21.92975 0.84774297
8.9487495 -22.733252 0.8944732
18.055311 -8.669426 0.73329186
18.595703 -7.8486047 0.73897862
26.616474 -8.3165865 1.0209397
13.056581 6.2313418 0.52967703
12.125977 6.1507449 0.49780235
10.961396 6.242476 0.46183464
9.8324804 6.2463541 0.42648596
9.3299017 6.2480803 0.41110724
8.8620014 6.2496881 0.39702186
8.424902 6.2511907 0.38408759
7.629775 6.2539239 0.36118948
5.9867187 6.2547393 0.31698906
5.1762204 6.2575274 0.29732323
4.4568748 6.260004 0.28134361
3.8076854 6.2622395 0.26832724
3.2129102 6.2642899 0.25775322
3.0245702 6.2649407 0.25470182
2.8405468 6.2655754 0.25186667
2.6604493 6.2661943 0.24923775
1.9463671 6.1829715 0.23732093
1.7837402 6.1835346 0.2356218
1.4653612 6.1865287 0.23276679
1.3259571 6.268909 0.23459396
1.168789 6.2694526 0.23348983
1.0129882 6.2699909 0.2325315
0.70473629 6.2710576 0.23103949
0.55191404 6.2715859 0.23050155
0.39971679 6.2721124 0.23009934
-0.054931641 6.2736859 0.22969931
-0.35819334 6.2747355 0.23010384
-0.51038086 6.2752643 0.23050734
-1.2845117 6.2779484 0.23460875
-1.4433105 6.2784991 0.23586273
-1.6038965 6.2790556 0.23726882
-1.7665038 6.2796221 0.23883216
-1.9313672 6.2801933 0.24055664
-2.0987303 6.2807755 0.2424491
-2.2688575 6.2813654 0.24451286
-2.6184375 6.2825799 0.24919432
-3.1708984 6.2845001 0.25771508
-3.9742577 6.2855606 0.27226731
-4.6447558 6.2878947 0.28620794
-4.8842673 6.2887297 0.29152763
-5.1329784 6.2895951 0.29722556
-5.3917575 6.2904973 0.30332953
-5.661582 6.2914362 0.30987588
-5.9434276 6.2924199 0.31689689
-6.238574 6.2934465 0.32443732
-6.8740039 6.2956619 0.34127158
-7.2175488 6.2968607 0.35067925
-7.9658689 6.2994709 0.37182045
-8.3754005 6.300899 0.38372535
-11.564004 6.3201275 0.48248604
-14.81912 6.3291655 0.5899688
-17.074854 6.3370428 0.66680717
-18.440039 6.3418121 0.71393669
-20.036797 6.3545756 0.76959431
-16.753857 -7.4194164 0.67084754
-16.170595 -8.1158533 0.66241723
-19.969608 -21.711172 1.0799987
-16.422285 -21.732685 0.99729866
-15.615557 -21.736406 0.97987783
-14.072558 -21.729296 0.94781804
-12.629795 -21.732599 0.92026782
-11.267363 -21.739532 0.89647633
-10.611142 -21.742096 0.88576591
-9.9700098 -21.744602 0.8758083
-9.3428221 -21.747047 0.86656821
-8.1238966 -21.747334 0.84995395
-6.9486032 -21.749081 0.83592659
-6.3747363 -21.749935 0.82980686
-5.8108888 -21.7584 0.82453543
-5.2521191 -21.759546 0.81953877
-4.1530371 -21.761799 0.81112128
-3.6113183 -21.762907 0.80767554
-3.0744042 -21.768042 0.80487877
-2.5403807 -21.769035 0.80241585
-0.953623 -21.771994 0.79787815
-0.42766601 -21.772976 0.79730475
0.097890623 -21.775448 0.79724753
0.62359375 -21.776873 0.79761982
1.1501465 -21.778301 0.79845726
0.5858984 -7.6044164 0.2792379
0.80137694 -7.9052458 0.29090887
1.1697558 -7.7769403 0.28793266
1.6406933 -8.1964321 0.30604026
6.0044627 -21.698915 0.82429492
7.1961327 -21.844555 0.84204918
7.8723826 -22.088928 0.85854363
8.6369724 -22.501673 0.88243294
9.6266212 -23.377539 0.92563027
9.6536818 -8.0900259 0.46114051
18.069872 -8.8666058 0.73692632
13.34584 6.2303495 0.53923911
12.39247 6.15377 0.50657338
11.838964 6.2394633 0.48995933
11.180537 6.241724 0.46880957
10.5762 6.2438006 0.44965813
10.019062 6.2457132 0.43225577
9.0234766 6.2491336 0.40185583
8.5759277 6.2506704 0.38853157
8.156826 6.252111 0.37627172
7.7631836 6.2534647 0.36496925
5.8029394 6.2553692 0.31239021
5.2663865 6.2572184 0.29942954
5.0141993 6.2580862 0.29359275
4.0928907 6.2612567 0.27386817
3.8809764 6.2619877 0.26972464
3.6752539 6.2626972 0.26585531
3.4752636 6.2633867 0.26224729
3.2804785 6.2640581 0.25888449
3.0905468 6.2647123 0.25575468
2.7235937 6.2659783 0.25014257
2.2004395 6.2677827 0.24320564
2.0043554 6.1827726 0.23796013
1.8408788 6.1833367 0.23620346
1.6797265 6.1838932 0.23460685
0.91283202 6.2703385 0.23198867
0.75885743 6.2708697 0.23126243
0.60578126 6.2713981 0.23067597
0.45339844 6.2719269 0.23022583
0.30148438 6.2724519 0.22991073
-0.0014746094 6.2735004 0.22968422
-0.15292968 6.2740264 0.22977172
-0.30457032 6.2745514 0.22999229
-1.0721582 6.2772112 0.23314773
-1.3870605 6.2783051 0.23540299
-1.5469824 6.2788591 0.23675469
-1.7088672 6.2794218 0.23826157
-2.0393751 6.2805667 0.2417607
-2.7345116 6.2829838 0.25087348
-2.9170995 6.2836175 0.25363669
-3.2502735 6.1992483 0.25626916
-3.6427636 6.2006135 0.26329285
-3.8995311 6.2852998 0.27080727
-4.1133299 6.2860456 0.27503714
-4.334033 6.2868133 0.27956674
-5.0440626 6.2892852 0.29516959
-5.2992086 6.290174 0.30112633
-5.8424997 6.2920671 0.31436041
-6.4371581 6.2941399 0.32961524
-8.5503025 6.2258158 0.38723609
-8.9893751 6.2192483 0.40020591
-9.6131153 6.3133173 0.42106956
-10.141123 6.3151603 0.4373908
-10.712002 6.3171525 0.45530447
-11.332089 6.3193169 0.47503927
-12.750928 6.3242707 0.52110177
-13.569873 6.3271308 0.54816949
-15.489834 6.3315067 0.61266029
-16.634844 6.335506 0.65171027
-17.936543 6.3400517 0.69650811
-19.172148 6.2605791 0.73840582
-21.192324 6.3586111 0.81006551
-16.578505 -7.6535773 0.66853046
-15.625683 -8.1502581 0.64523166
-20.312979 -21.710321 1.0885224
-15.897099 -21.735107 0.98589867
-14.336348 -21.728691 0.95308185
-13.596416 -21.730385 0.93848896
-12.87833 -21.732031 0.9248659
-8.9428806 -21.746115 0.86086339
-8.3355951 -21.747019 0.85268271
-7.1533203 -21.748779 0.83823019
-6.5763669 -21.749636 0.83190513
-5.4486814 -21.759142 0.82124209
-4.3454294 -21.761404 0.81245965
-3.8021092 -21.762516 0.80883825
-3.263164 -21.763622 0.80571401
-2.728545 -21.768686 0.80323064
-2.1965039 -21.769678 0.80107808
-1.6671094 -21.770664 0.79939854
-1.1395313 -21.771648 0.79819447
-0.087685548 -21.774948 0.7972315
0.43793944 -21.776369 0.7974363
0.96413082 -21.777796 0.79810768
1.4914258 -21.779222 0.79924661
0.94484371 -8.0636663 0.29724616
1.1107812 -7.8384533 0.28984794
1.5633105 -8.1709642 0.30458108
5.8056836 -21.698151 0.82235616
6.3735838 -21.708321 0.82833183
7.6306248 -22.001568 0.85259056
8.359004 -22.344767 0.87345541
9.2159081 -22.93335 0.90489388
9.5869627 -8.174202 0.46126211
18.084629 -9.0658779 0.7406525
17.59119 -7.7803307 0.70422947
18.704481 -7.7386847 0.74110311
14.559062 6.2261834 0.57973272
13.645771 6.2293191 0.5491932
12.823408 6.2321415 0.52200019
11.406406 6.2409492 0.47603324
10.783828 6.2430863 0.45620719
9.1889448 6.2485647 0.4068386
8.7304592 6.2501407 0.39310661
7.8994431 6.252996 0.36885673
7.5207615 6.2542973 0.35812035
7.0622654 6.1672454 0.34327659
6.7339258 6.1732111 0.33446282
5.9025683 6.2550273 0.31487387
4.6191797 6.2594452 0.28481406
4.3904686 6.2602324 0.27994728
3.955039 6.2617326 0.27115431
3.7472265 6.2624493 0.26719114
3.3486719 6.2638226 0.26004484
2.9700487 6.2651277 0.25384673
2.7872069 6.2657585 0.25107345
2.2605176 6.2675762 0.24393569
2.0912206 6.2681599 0.24192306
1.8983301 6.1831388 0.23680602
1.7363769 6.1836967 0.23515274
1.1228515 6.2696109 0.23319428
0.81311524 6.2706828 0.23150237
0.35506836 6.2722659 0.2300064
0.2034082 6.2727923 0.22977859
-0.099443354 6.2738395 0.22972511
-0.25099608 6.2743659 0.22989921
-0.40288085 6.2748919 0.2302082
-0.86219722 6.2764835 0.23195128
-1.8147167 6.279788 0.2393212
-1.9803027 6.2803631 0.24109557
-2.3194139 6.2815409 0.24515526
-3.2019336 6.2356291 0.25663459
-3.571914 6.2003679 0.26197869
-4.4808106 6.2873235 0.28266579
-4.7142286 6.2881365 0.28773338
-4.9563575 6.2889786 0.29316169
-5.7431054 6.2917218 0.31188712
-6.3280272 6.2937589 0.32676077
-6.6423144 6.2948551 0.33504477
-7.3221874 6.297226 0.35358328
-7.6916113 6.2985125 0.36397377
-8.8269043 6.2186809 0.39531729
-9.9501076 6.3144937 0.43145758
-10.505234 6.3164301 0.4487873
-11.762841 6.3208208 0.48889899
-13.271279 6.326088 0.53826481
-13.952724 6.2423468 0.55963582
-16.214394 6.3340373 0.63732761
-17.457031 6.338378 0.67996103
-18.878975 6.3433452 0.72917122
-20.547314 6.3563581 0.78745079
-22.476269 6.3630972 0.85524082
-16.404423 -7.8862033 0.66639471
-19.687801 -21.711866 1.0730584
-18.755175 -21.714176 1.0504889
-17.868389 -21.726015 1.0298979
-17.009569 -21.729975 1.0103301
-16.182148 -21.733791 0.99205452
-15.383681 -21.737474 0.97500265
-14.603095 -21.728081 0.95848
-12.42458 -21.733068 0.91653478
-10.421113 -21.74284 0.88275701
-9.1601267 -21.745792 0.86390877
-8.5486231 -21.7467 0.8554998
-7.9486914 -21.747595 0.84773916
-7.3590918 -21.74847 0.84060293
-6.7790036 -21.749332 0.83406913
-5.645947 -21.758738 0.82301289
-4.5384278 -21.761007 0.81385702
-3.9933398 -21.762127 0.81005925
-3.4529004 -21.763231 0.80675924
-2.3840528 -21.769329 0.80178028
-1.8537207 -21.770317 0.79993707
-1.3255273 -21.771301 0.79856545
-0.79886717 -21.772282 0.79766196
-0.27315429 -21.773264 0.79722404
0.25239256 -21.775866 0.79730934
0.8710742 -8.0247717 0.29552802
3.9703124 -21.753809 0.80960393
5.0572848 -21.717525 0.8163926
5.6078906 -21.697392 0.82048607
6.170752 -21.699553 0.82595998
6.7620506 -21.768179 0.83455038
18.057734 -8.702239 0.73389256
-11.661142 -21.738607 0.34724525
-10.995361 -21.741198 0.34294441
-9.0874605 -21.746271 0.33175865
-7.8786426 -21.748064 0.32559851
-3.3893456 -21.763176 0.31003851
-2.3212304 -21.769003 0.30816078
-1.2633106 -21.770979 0.30696648
-0.73680663 -21.771959 0.30664009
-0.21109374 -21.772943 0.30649376
0.31443357 -21.775909 0.3065525
0.84041989 -21.777334 0.30677024
1.3674219 -21.778761 0.30716085
0.89539063 -8.0354443 0.11380821
2.961211 -21.784597 0.30946586
4.5769434 -21.739443 0.31271642
6.2376852 -21.699938 0.31782067
7.472158 -21.945759 0.32632622
9.0034571 -22.776924 0.34475043
18.069639 -8.1147585 0.2788218
26.474638 6.1852179 0.3826966
23.894501 6.1941204 0.34745687
19.931309 6.2072382 0.29384467
18.374424 6.2126102 0.27302796
17.023106 6.2173624 0.25510031
15.837451 6.2214556 0.23951553
14.787773 6.2250772 0.22584693
13.008623 6.2312174 0.20303367
9.8014059 6.2462287 0.16360061
8.8350878 6.2495646 0.15233238
8.3996973 6.2510672 0.1473835
7.9914646 6.2524762 0.14282845
7.6075096 6.2538018 0.13862205
7.1430564 6.1667805 0.13283943
6.2638574 6.2536077 0.12458992
5.4193068 6.256525 0.11651191
5.1611328 6.2574162 0.11417481
4.673965 6.2591009 0.10995819
4.4433885 6.2598968 0.10805603
4.0046973 6.2614141 0.10462135
3.5921092 6.2628388 0.10162811
3.201582 6.2641873 0.099024504
2.473623 6.266706 0.09483467
2.130703 6.2678924 0.093185425
1.7741699 6.1834378 0.090550914
1.6138867 6.1839933 0.089961924
0.84924805 6.2704315 0.089069441
0.6956836 6.2709622 0.088812329
0.39074218 6.272017 0.088456728
-0.063867189 6.2735906 0.088312678
-0.36714843 6.2746415 0.088473201
-0.51938474 6.2751703 0.088631973
-0.82593751 6.2762322 0.089106902
-1.1365234 6.2773066 0.089797057
-1.4526953 6.2784028 0.090710677
-1.6134082 6.2789593 0.091254503
-1.7761426 6.2795234 0.091859281
-2.628916 6.2824798 0.095862426
-2.8092089 6.2831059 0.096878126
-3.5250781 6.2000613 0.10039078
-3.7273338 6.202498 0.10185783
-4.4270215 6.286983 0.10823517
-4.8985448 6.28862 0.11220504
-5.6777148 6.2913227 0.11928901
-6.2562399 6.2933307 0.1249105
-6.8935742 6.2955451 0.13140938
-8.7206154 6.2180963 0.15076256
-10.960712 6.3177667 0.17807853
-11.603066 6.3199983 0.1859819
-13.077754 6.3251214 0.20448585
-15.943701 6.3327484 0.24148101
-18.525537 6.3417182 0.27562523
-20.136103 6.3544989 0.29721794
-21.992245 6.3609476 0.32225561
-24.175722 6.3644843 0.35189947
-26.767948 6.3603911 0.38728294
-18.97167 -21.714668 0.40588263
-18.074677 -21.724512 0.39779806
-16.373447 -21.732378 0.38301262
-13.298428 -21.731777 0.3586286
-11.900234 -21.737675 0.34883231
-10.573183 -21.742844 0.34032309
-9.9328804 -21.745337 0.33651391
-7.4968357 -21.748631 0.32381323
-6.9146094 -21.749495 0.32124901
-5.2193065 -21.759424 0.31497657
-4.667285 -21.760553 0.31327337
-4.1209178 -21.761675 0.31176338
-3.5794628 -21.762785 0.31045571
-1.4494727 -21.770632 0.30712515
-0.92253906 -21.771616 0.30673409
0.12890625 -21.775408 0.30651709
0.6546582 -21.776831 0.30667168
0.79509765 -7.7335062 0.10943214
2.7721972 -21.782566 0.30908394
3.3084569 -21.785007 0.31016943
3.8485448 -21.785646 0.31140724
4.3847752 -21.744001 0.31223366
4.9290819 -21.72378 0.31355843
5.4767284 -21.697018 0.31499091
7.9152832 -22.109568 0.33055809
8.6901073 -22.544138 0.34009543
18.301836 -7.8780136 0.28047156
24.749268 6.1911697 0.3591114
17.245909 6.1327143 0.2576471
15.144365 6.2238469 0.23047531
14.169941 6.22721 0.21786971
11.797939 6.2393365 0.18786345
11.142959 6.2415972 0.17978011
9.9871483 6.2455864 0.16580635
9.473506 6.2473602 0.15973563
8.9958887 6.2490091 0.15418021
8.550127 6.2505474 0.14908287
8.1326561 6.2519889 0.14439476
7.2667966 6.1663532 0.13415122
6.9224219 6.167542 0.13050842
6.6497169 6.2188358 0.12815537
6.0718942 6.2542715 0.12270027
5.7862692 6.2552567 0.11994407
5.5130272 6.2562017 0.11737594
4.9995017 6.2579751 0.11274673
4.5238671 6.2596183 0.10871254
4.0800977 6.2611527 0.10519356
3.0794041 6.2646112 0.09825889
2.89416 6.2652507 0.097145461
2.3613575 6.2670941 0.094270781
2.1903808 6.2676859 0.093457103
1.6702245 6.1837983 0.090162732
1.5117285 6.1862407 0.089640424
1.2148144 6.2691655 0.089887768
1.0586327 6.2697062 0.089502178
0.90368164 6.2702432 0.089172892
0.59675777 6.2713056 0.088674009
0.29252928 6.2723565 0.088386454
0.14097656 6.2728825 0.088320084
-0.010419922 6.273406 0.088304825
-0.16187499 6.273931 0.088342361
-0.31353515 6.274456 0.088430323
-0.46557617 6.2749834 0.088570252
-0.77159178 6.2760415 0.089007258
-1.3964159 6.2782073 0.090533219
-1.5564452 6.2787628 0.091055065
-2.0492089 6.2804718 0.092991792
-2.2184765 6.2810564 0.093766324
-2.390703 6.2816544 0.094607927
-2.5661523 6.2822623 0.095522918
-2.7451367 6.2828827 0.096511155
-4.1260643 6.2859392 0.10584106
-4.3471875 6.286706 0.10758865
-4.8128028 6.288322 0.11146537
-5.0587301 6.2891755 0.11361061
-5.3144531 6.2900615 0.11591049
-5.8590817 6.2919526 0.1210189
-6.4554296 6.294024 0.12690926
-7.1143847 6.2963104 0.13372886
-7.8499703 6.2988639 0.14167221
-8.5757809 6.2256927 0.14917457
-9.0166206 6.2191253 0.15418129
-9.6428509 6.31319 0.16223778
-10.173183 6.315032 0.16854705
-10.746778 6.3170242 0.17547187
-13.620214 6.3270049 0.21139465
-19.264853 6.2604961 0.2851342
-21.302362 6.3585529 0.31292945
-24.705545 -8.0028439 0.36555061
-19.299608 -21.713863 0.4089292
-18.383017 -21.71611 0.40051901
-17.510098 -21.727121 0.39278969
-15.849433 -21.734802 0.37864798
-15.054843 -21.727779 0.37208807
-14.29252 -21.729513 0.36610359
-12.83705 -21.732826 0.35529715
-9.5260935 -21.746922 0.33419746
-8.9068556 -21.74654 0.33078942
-8.3002443 -21.74744 0.32765999
-7.7046289 -21.748322 0.3247779
-7.1190915 -21.749191 0.3221308
-6.5426855 -21.750046 0.31971031
-5.9764547 -21.757868 0.31761345
-5.4156251 -21.75902 0.31562674
-4.861455 -21.760157 0.31384987
-3.231416 -21.763498 0.30971014
-2.1651855 -21.769297 0.30794075
-1.6358496 -21.770283 0.30730492
-0.056601562 -21.774904 0.30650672
0.46898437 -21.776327 0.30659598
1.522666 -21.779182 0.30731437
0.95699215 -8.0679159 0.11436073
3.1188085 -21.784782 0.30977455
3.6574023 -21.785419 0.31094626
4.7369041 -21.733244 0.31310341
5.2827735 -21.706356 0.31446326
5.8388963 -21.698408 0.31629357
6.4089942 -21.714451 0.31869146
7.0128026 -21.807497 0.32245719
9.286582 -23.014196 0.34933189
15.515927 6.2225652 0.23531288
12.776875 6.232017 0.20010315
11.893603 6.1608391 0.18854447
10.748301 6.2429595 0.17496383
8.704092 6.2500162 0.1508345
7.4988766 6.2541776 0.13744773
6.4802833 6.2528605 0.12675636
6.1758981 6.2539115 0.12372093
5.8856249 6.2549138 0.12089477
5.3423338 6.2567925 0.11580757
5.0871973 6.2576714 0.1135186
4.3770995 6.2601261 0.10752189
4.1563478 6.2608891 0.10578147
3.9425194 6.2616277 0.10415428
3.5334277 6.263041 0.10122222
3.1458299 6.2643828 0.098672025
2.9590819 6.2650261 0.097528763
2.7764745 6.2656584 0.096467286
1.8886523 6.1830425 0.091002427
1.5676465 6.186048 0.08982826
1.2702832 6.2689738 0.090036161
0.65068358 6.2711172 0.088747174
0.34610352 6.272172 0.088422544
0.19446288 6.2726984 0.088337705
-0.25995117 6.2742705 0.088392712
-0.41184568 6.2747965 0.088514633
-0.5642578 6.2753253 0.088688582
-0.71733397 6.2758551 0.088914186
-1.0263281 6.2769256 0.08952789
-1.4997461 6.2785649 0.090864711
-1.6610156 6.2791252 0.091425858
-2.1584277 6.280849 0.093484499
-2.3295507 6.2814431 0.094302826
-2.8629491 6.2832928 0.097192384
-3.203125 6.2161603 0.098435745
-4.4942284 6.2872162 0.10878555
-4.97083 6.2888703 0.11283737
-5.2230077 6.2897439 0.11508125
-5.7594628 6.2916069 0.12006546
-6.0458789 6.2926016 0.12283348
-6.3459568 6.293643 0.12580635
-6.992949 6.2958894 0.13244979
-7.7138376 6.2983928 0.14017753
-8.4462891 6.2422857 0.14783691
-8.8534861 6.2185578 0.15229194
-9.4649611 6.3125725 0.16014344
-9.981328 6.3143644 0.16625206
-11.143788 6.3184028 0.18032089
-11.802919 6.3206925 0.18846267
-13.319795 6.3259611 0.20756294
-16.282461 6.3339262 0.24592498
-18.932402 6.3313284 0.28099984
-20.651152 6.3562894 0.30414587
-22.598965 6.3630571 0.33047539
-16.037645 -8.7158766 0.25693268
-19.632559 -21.713049 0.41204473
-14.558808 -21.72891 0.36816764
-13.812031 -21.730608 0.36244193
-13.087695 -21.732256 0.35709524
-12.384052 -21.733854 0.35210639
-11.700976 -21.738451 0.34750739
-11.03418 -21.741049 0.34319067
-10.383428 -21.743584 0.33917397
-7.324697 -21.748884 0.32303658
-6.7451758 -21.749743 0.32053885
-6.17417 -21.750591 0.3182624
-5.6128221 -21.758615 0.31630516
-5.0563669 -21.759758 0.31445685
-4.5061131 -21.760885 0.31280875
-2.8854394 -21.767954 0.30908698
-2.3525586 -21.768948 0.30820745
-1.8224609 -21.769936 0.30750921
-1.2944336 -21.770922 0.30699012
-0.76782227 -21.771904 0.30665565
-0.24212889 -21.772884 0.30649695
0.28338867 -21.775826 0.30654776
1.8648828 -21.780109 0.30770302
0.88308591 -8.0289612 0.11369812
2.9295897 -21.784559 0.30940467
4.0021777 -21.75308 0.3113378
5.6408982 -21.697649 0.31557152
6.2042089 -21.699812 0.3176873
6.798027 -21.774399 0.32109275
7.4324703 -21.931414 0.32595572
8.1358986 -22.227579 0.33318001
8.9504395 -22.737539 0.34396034
26.609785 -8.3145027 0.39242256
24.033466 6.1936407 0.34935036
20.030575 6.2068949 0.29518148
18.460155 6.2123137 0.27416664
17.097979 6.2171049 0.25609246
15.903369 6.2212272 0.24037735
10.960947 6.2422256 0.17755347
10.374091 6.2442508 0.1704396
9.832119 6.2461224 0.16396393
8.8616896 6.2494721 0.15263785
8.014883 6.2523956 0.14308663
7.6295309 6.253726 0.13886108
7.1635742 6.1667094 0.1330532
6.8246775 6.1678801 0.12948295
6.5913377 6.2524762 0.12788345
6.2816696 6.2535453 0.12476715
5.7046971 6.2555389 0.1191703
5.4349022 6.2564702 0.11665557
4.4567575 6.2598491 0.10816421
4.2334571 6.260622 0.10638198
4.0172362 6.2613702 0.10471626
3.8075976 6.262094 0.10316169
3.4058397 6.263483 0.10035682
3.2128417 6.2641497 0.099096753
2.8404784 6.2654376 0.096833497
2.6603906 6.2660599 0.095822297
2.4839356 6.2666702 0.094887614
2.310791 6.2672672 0.094023891
2.1406543 6.2678571 0.093231581
1.465332 6.1864004 0.089490049
1.3259277 6.2687812 0.090192713
1.1687597 6.2693243 0.089767911
0.39971679 6.2719865 0.088464655
0.24795897 6.2725129 0.088361584
-0.054931641 6.27356 0.088311076
-0.35818359 6.274611 0.088465802
-0.51038086 6.2751384 0.08862076
-0.66322267 6.2756672 0.088829264
-0.81684566 6.2762003 0.089090042
-0.97146481 6.2767363 0.089404523
-1.1273047 6.277276 0.089773558
-1.4432812 6.2783694 0.090679549
-1.6038574 6.2789273 0.091220856
-2.0986915 6.2806425 0.093212046
-2.2688184 6.2812309 0.09400703
-2.4419434 6.2818327 0.094869457
-2.6183789 6.282443 0.09580528
-2.7984667 6.2830682 0.096817702
-3.7153027 6.2024555 0.10177269
-3.97416 6.2854104 0.10467605
-4.4136033 6.2869363 0.10812622
-4.6446385 6.2877383 0.11003586
-5.1328416 6.2894316 0.11427101
-6.2383981 6.2932682 0.12473297
-7.2173243 6.296669 0.13482055
-8.6942482 6.2180057 0.15045922
-13.68958 6.2415519 0.21178031
-15.877129 6.3325162 0.24060905
-17.073866 6.3366752 0.25635284
-20.035448 6.3541498 0.29586753
-24.050137 6.3680987 0.35019723
-26.597118 6.3597965 0.38493767
-8.4470015 -7.9446192 0.16322777
-13.340947 -21.73168 0.35894018
-10.611435 -21.742695 0.34055471
-9.9702826 -21.745192 0.33672523
-8.7273045 -21.746807 0.32983923
-8.1240234 -21.7477 0.3267861
-7.5315137 -21.748579 0.323973
-6.374824 -21.750292 0.31903648
-5.25208 -21.759356 0.31508553
-4.6997166 -21.760489 0.31336769
-3.611289 -21.762722 0.31052864
-3.0743456 -21.767599 0.30944633
-2.0093458 -21.769587 0.30773765
-0.42766601 -21.772539 0.30653313
0.097880855 -21.775322 0.30651617
0.62359375 -21.776745 0.30665794
1.6780566 -21.779602 0.30748495
0.78216797 -7.7158494 0.10916611
4.8968749 -21.725363 0.31348121
6.5850096 -21.741577 0.31977484
7.1966696 -21.846193 0.32376671
8.6385641 -22.505856 0.33933204
9.6299801 -23.385668 0.35601583
27.626102 6.1652093 0.39843437
22.381943 6.1422076 0.3267034
17.323212 6.1324453 0.25867203
15.205449 6.2236357 0.23127045
14.224483 6.2270222 0.21857238
13.345215 6.2300568 0.20731208
11.838467 6.2391958 0.18836518
9.5028028 6.2472587 0.16008025
9.0231543 6.2489152 0.154496
8.5756445 6.2504597 0.14937225
8.1565619 6.2519073 0.14466164
7.7629294 6.2532659 0.14031525
7.3920603 6.2545462 0.13629906
6.6496482 6.2010307 0.12798256
5.0140624 6.2579255 0.11287414
4.7713866 6.2587628 0.11078041
4.5374217 6.259572 0.108824
4.092793 6.2611089 0.10529137
3.6751757 6.2625518 0.10221069
3.4751854 6.2632437 0.10082405
3.0904784 6.2645721 0.098327257
2.7235351 6.2658415 0.096169658
1.8408495 6.1832085 0.09081085
1.5210546 6.1862092 0.089671403
1.224082 6.2691336 0.089911729
1.0678124 6.2696748 0.08952377
0.60577148 6.271275 0.088685453
0.30148438 6.272326 0.088391721
0.14992186 6.2728519 0.088322446
-0.0014746094 6.2733755 0.088304289
-0.15292968 6.2739005 0.088338241
-0.60917968 6.2754803 0.088749848
-0.76250976 6.276011 0.08899086
-1.0721387 6.2770829 0.089637294
-1.3870312 6.2781754 0.090503082
-1.5469531 6.2787285 0.091023326
-1.8728613 6.2798591 0.092243649
-2.2084277 6.2810221 0.093718261
-2.3804588 6.2816191 0.094556727
-2.9170411 6.2834797 0.097512588
-3.103828 6.2841277 0.098658063
-3.443789 6.1997809 0.099827953
-3.6426756 6.200469 0.10122528
-3.8994434 6.2851529 0.10411423
-4.5621581 6.2874503 0.10934684
-4.798584 6.2882719 0.111343
-5.0439353 6.2891226 0.11347984
-5.2990723 6.290009 0.11577072
-5.5648632 6.2909317 0.11822532
-5.8423438 6.291894 0.12085884
-6.132627 6.292902 0.12368675
-6.4369822 6.2939591 0.12672348
-6.7568846 6.2950687 0.12999268
-7.0938964 6.2962384 0.13351455
-7.8270211 6.2987847 0.141418
-8.2275877 6.3001752 0.14586708
-8.5500002 6.2256036 0.14887482
-8.9890718 6.2190299 0.15385604
-10.711582 6.3169012 0.17504516
-12.750341 6.3239837 0.20033836
-13.569209 6.326829 0.21074288
-15.489014 6.3311687 0.23553604
-16.633896 6.3351469 0.25054672
-17.935459 6.3396683 0.26776925
-19.170898 6.260169 0.2838755
-23.237696 6.3652749 0.3391436
-16.187901 -7.9526029 0.25387633
-18.436064 -21.715981 0.40096381
-15.896729 -21.734583 0.37903753
-13.596855 -21.731098 0.36082968
-12.87873 -21.732731 0.35559303
-12.18086 -21.734318 0.35070166
-10.841269 -21.741802 0.34197915
-10.194981 -21.744318 0.33804846
-7.1534276 -21.74914 0.32228035
-5.4486132 -21.758953 0.31573996
-4.8940525 -21.76009 0.31395301
-1.66708 -21.770224 0.30733863
-1.1395117 -21.77121 0.30687264
-0.087685548 -21.774818 0.30650702
0.70617187 -7.6120648 0.10760826
3.0870605 -21.784746 0.30971274
5.8057127 -21.69828 0.31617254
6.3737888 -21.709023 0.31847709
6.9766989 -21.801933 0.32221717
7.6312008 -22.003239 0.32781944
8.3600197 -22.347469 0.33585867
9.5829687 -8.1707973 0.17726661
28.788574 6.1676211 0.41442892
25.822783 6.1874676 0.37377188
23.355791 6.1959782 0.34013206
21.293251 6.2025385 0.31218392
19.544443 6.2085724 0.28865609
16.730898 6.2183709 0.25124693
14.55833 6.2258682 0.2228778
13.645117 6.2290201 0.21113555
10.210429 6.2448163 0.16847305
9.1886225 6.2483439 0.15641205
8.7301655 6.249927 0.15113173
8.3014936 6.2514067 0.14628029
7.0620604 6.1670599 0.13197745
6.7337303 6.173028 0.12858543
6.4986911 6.2527971 0.12694359
6.1934862 6.2538519 0.12389313
5.9024024 6.2548566 0.12105598
5.3577342 6.2567377 0.11594818
5.1019821 6.2576213 0.11364982
4.8560157 6.258471 0.11150299
4.3903513 6.2600808 0.10762825
3.7471385 6.2623029 0.10272484
3.545166 6.2629995 0.10130294
3.3485937 6.2636809 0.099977113
3.1570215 6.2643437 0.098742671
2.9699805 6.2649894 0.097593918
2.7871387 6.2656217 0.096527323
2.6081543 6.2662406 0.095539622
2.2604785 6.2674432 0.093784101
1.419121 6.1865606 0.089345552
1.2795898 6.2689424 0.090061799
1.1228321 6.269484 0.089654543
0.96741211 6.2700214 0.089302137
0.65972656 6.2710867 0.088759996
0.50709957 6.2716155 0.088567957
0.2034082 6.2726665 0.088340908
-0.25099608 6.27424 0.08838737
-0.70827144 6.2758231 0.088900372
-0.8621875 6.2763567 0.089176483
-1.0171386 6.2768936 0.08950752
-1.1733398 6.2774343 0.089891814
-1.3309863 6.2779803 0.090333633
-1.4902831 6.278533 0.090832442
-1.8146875 6.2796564 0.092009813
-1.9802636 6.280231 0.092691571
-2.3193653 6.2814078 0.094253235
-2.4934473 6.282011 0.095137782
-2.6709082 6.2826252 0.096093901
-2.852119 6.2832551 0.097129136
-3.0373828 6.2838969 0.098243788
-3.5718455 6.2002239 0.10071922
-4.2551856 6.286387 0.10685333
-4.4806933 6.2871685 0.10867477
-4.7141113 6.2879791 0.11062218
-4.9562402 6.2888188 0.11270905
-5.742959 6.2915497 0.11990745
-8.0833101 6.2996759 0.14425476
-8.4462204 6.2608404 0.14799453
-9.9497461 6.3142557 0.16587615
-10.504834 6.3161836 0.17253722
-11.762334 6.3205523 0.18795753
-13.270664 6.3257904 0.20693542
-13.952041 6.2420378 0.21515167
-15.116817 6.3298759 0.23068793
-16.213495 6.3336868 0.24501884
-18.877773 6.3429422 0.28032508
-22.474579 6.3626251 0.32878959
-24.370596 6.268271 0.35421088
-27.469999 6.3628302 0.39690772
-16.037197 -8.686079 0.25672805
-17.867949 -21.725468 0.39595282
-10.421406 -21.743435 0.33940405
-9.7845602 -21.745914 0.33565664
-9.1602736 -21.746164 0.33215156
-7.3592281 -21.748833 0.32319006
-4.5384083 -21.760817 0.31289849
-3.9933105 -21.761938 0.31143776
-3.4528613 -21.763046 0.31017402
-2.3839941 -21.768887 0.30825463
0.25239256 -21.775742 0.30654076
0.77831054 -21.777164 0.30673409
1.3051171 -21.778593 0.30710745
1.8336035 -21.780024 0.30766335
0.87081051 -8.0224981 0.11358963
3.4349706 -21.785156 0.3104406
3.9703026 -21.753838 0.31126654
4.5125585 -21.740971 0.31255043
5.6079197 -21.697521 0.31545278
8.8976755 -22.698339 0.34317511
18.386894 -7.7913671 0.28109261
26.814423 6.1840448 0.3873516
24.17411 6.1931548 0.35126761
20.131035 6.2065496 0.29652762
-11.661445 -21.739218 -0.20834143
-10.995664 -21.741804 -0.20576286
-10.345771 -21.744326 -0.20336334
-9.0876074 -21.746645 -0.19904777
-7.8787789 -21.74843 -0.1953527
-7.2903609 -21.749298 -0.19372497
-6.1408396 -21.750996 -0.19087669
-4.4737792 -21.760763 -0.18761833
-3.929209 -21.761883 -0.18675621
-2.8538377 -21.76757 -0.18540703
-2.3211815 -21.768566 -0.18488547
-1.7911913 -21.769556 -0.1844712
-1.2632617 -21.770542 -0.18416762
-0.73677731 -21.771526 -0.18397292
-0.21109374 -21.772505 -0.18388206
1.3674316 -21.778635 -0.18429092
1.8961328 -21.780066 -0.184635
0.89513671 -8.0331669 -0.06826286
2.9611719 -21.784243 -0.1856655
4.0340915 -21.752354 -0.18683723
4.5769529 -21.739471 -0.18762176
5.1217966 -21.714226 -0.18841773
6.834033 -21.78063 -0.1927938
7.472734 -21.947424 -0.19580039
8.1815815 -22.254175 -0.20024353
9.0051661 -22.781227 -0.20688133
26.606718 -8.2719917 -0.23526664
26.472334 6.1846819 -0.22958748
23.892616 6.1936331 -0.20844895
19.92997 6.2068253 -0.17628555
18.373301 6.2122259 -0.16379707
14.787021 6.2247586 -0.13549507
13.008027 6.2309318 -0.12181022
11.559628 6.2398968 -0.1109407
10.340498 6.2441254 -0.10201546
9.8010445 6.2459979 -0.098151624
7.9912109 6.2522736 -0.085689768
7.6072655 6.2536063 -0.083167873
7.1428418 6.1665921 -0.079693832
6.8103514 6.1725788 -0.077623747
6.5724316 6.2523613 -0.076609574
6.2636719 6.2534308 -0.07474754
5.9694238 6.2544522 -0.073016278
5.6883106 6.2554264 -0.07140518
5.161006 6.2572551 -0.068499751
4.9128513 6.2581158 -0.067192003
4.0045996 6.2612653 -0.062768631
3.5920215 6.2626944 -0.060971756
2.6498241 6.2659597 -0.057454526
2.4735742 6.2665715 -0.056896362
2.1306543 6.2677579 -0.055907134
1.9366308 6.1827469 -0.054715957
1.7741406 6.18331 -0.0543264
1.6138574 6.1838651 -0.053972319
1.4560058 6.1863065 -0.053671796
1.3165917 6.2686858 -0.054095153
0.84923828 6.2703042 -0.053438261
0.54290038 6.2713652 -0.053160399
0.39074218 6.2718925 -0.05306999
0.23899414 6.2724175 -0.053010099
0.087529294 6.2729425 -0.052981108
-0.063867189 6.2734661 -0.052983396
-0.21537109 6.2739911 -0.053015668
-0.67223632 6.2755718 -0.053301618
-0.9806152 6.2766385 -0.053651121
-1.1365039 6.2771792 -0.0538739
-1.6133593 6.2788301 -0.054748077
-1.9410937 6.279964 -0.055511169
-2.278877 6.2811332 -0.056428451
-2.8091502 6.2829657 -0.058122862
-3.1820018 6.2842569 -0.059487607
-3.5249999 6.1999187 -0.060231246
-3.9866307 6.2853055 -0.062857814
-4.2031932 6.2860551 -0.06386131
-4.4269137 6.286829 -0.064935833
-4.6584277 6.2876287 -0.06608627
-5.1476951 6.2893205 -0.068637922
-5.6775584 6.291153 -0.071567073
-6.256074 6.2931523 -0.074939571
-7.2379684 6.2965469 -0.081018448
-8.3998432 6.3005643 -0.088676453
-9.8250875 6.3135896 -0.098628998
-12.304902 6.3221598 -0.11683235
-13.740214 6.2410002 -0.12744698
-14.876709 6.3287187 -0.13653396
-15.942832 6.3324027 -0.14487495
-18.524384 6.3413239 -0.16535683
-20.134756 6.3540716 -0.17831093
-26.765566 6.3598318 -0.23233771
-18.972578 -21.715693 -0.24352966
-18.074219 -21.723963 -0.23865867
-16.373047 -21.73185 -0.22979049
-14.029638 -21.730829 -0.21844536
-13.298857 -21.732483 -0.21517204
-11.900557 -21.738289 -0.20929901
-11.228818 -21.740898 -0.20665123
-9.3067188 -21.748363 -0.19978416
-7.4969625 -21.748993 -0.19428116
-6.9147263 -21.749855 -0.19274323
-6.3413181 -21.750702 -0.19133903
-5.777627 -21.758085 -0.19011772
-4.6672363 -21.760366 -0.18795075
-3.5794237 -21.7626 -0.18625624
-1.977998 -21.769207 -0.18460426
-1.4494433 -21.770195 -0.18426177
-0.92250973 -21.771179 -0.18402877
-0.39661133 -21.77216 -0.18390518
0.65464842 -21.776703 -0.18399322
1.1812207 -21.77813 -0.18419425
1.7092577 -21.77956 -0.1845008
1.0315039 -8.1050129 -0.069001466
3.3083982 -21.784653 -0.18608756
3.8484666 -21.78529 -0.18683319
4.3847852 -21.744032 -0.18733504
4.9290624 -21.723721 -0.18812889
5.4767575 -21.697145 -0.18898644
6.6207519 -21.747759 -0.19199203
7.2364159 -21.862003 -0.19448417
9.7660542 -23.620527 -0.21586037
17.955692 -8.2481365 -0.16687728
16.238213 6.2197247 -0.14685242
15.143555 6.2235208 -0.1382708
14.169248 6.2269025 -0.13070755
12.339667 6.1494598 -0.11643692
11.142509 6.2413445 -0.10785843
10.54125 6.2434297 -0.10346656
8.9955759 6.2487907 -0.092501216
8.5498343 6.2503376 -0.089443661
8.1324024 6.2517853 -0.086628877
6.9222069 6.1673574 -0.078293301
6.648252 6.2174649 -0.076877058
6.3709373 6.2530594 -0.075389482
5.7861032 6.2550883 -0.071960904
5.5128708 6.2560344 -0.070419997
4.9993653 6.2578154 -0.067643046
4.5237498 6.2594647 -0.065223083
4.2982225 6.2602458 -0.064132385
3.4634569 6.2631402 -0.060442656
3.2689941 6.263814 -0.059670333
3.0793359 6.264473 -0.058950651
2.5354004 6.2663565 -0.057088546
2.3613183 6.2669611 -0.056557693
2.1903319 6.2675519 -0.056069717
1.9945507 6.1825471 -0.054863736
1.5116894 6.1861124 -0.05378082
1.2147851 6.2690387 -0.053928297
0.90366209 6.2701154 -0.053499527
0.29252928 6.2722321 -0.053027954
0.14097656 6.2727571 -0.0529879
-0.16186523 6.2738056 -0.05300102
-0.31352538 6.2743301 -0.05305374
-0.4655664 6.2748575 -0.053137816
-0.77156246 6.2759161 -0.05340042
-1.0813282 6.2769876 -0.053791579
-1.3963867 6.2780781 -0.05431442
-1.556416 6.2786331 -0.054628219
-1.7184081 6.2791934 -0.05497795
-1.8825781 6.2797613 -0.055365447
-2.2184472 6.2809243 -0.056254577
-3.2614257 6.199007 -0.059154052
-3.4553027 6.1996784 -0.059939343
-3.6545019 6.2003665 -0.060782012
-3.911787 6.2850471 -0.062519073
-4.3470798 6.286552 -0.064548418
-5.0586033 6.2890143 -0.068161771
-5.3143163 6.2898965 -0.069541395
-6.7760739 6.2949514 -0.078108825
-7.1141601 6.2961197 -0.080231778
-7.8497362 6.2986612 -0.084995724
-8.2517767 6.3000531 -0.08767654
-8.5754786 6.2254801 -0.089490585
-9.0162983 6.2189045 -0.092503123
-10.172792 6.3147917 -0.101119
-12.049541 6.3212771 -0.11491646
-12.795878 6.3238554 -0.12054115
-13.61956 6.3267035 -0.12682404
-15.551855 6.3310513 -0.14180626
-23.368067 6.3652444 -0.20453811
-25.772959 6.3564019 -0.22418083
-16.148485 -7.9618282 -0.15205421
-8.5403023 -7.91892 -0.098359525
-18.383867 -21.717123 -0.24029236
-16.664091 -21.730499 -0.23126884
-15.849052 -21.73428 -0.22717193
-15.05537 -21.728512 -0.22324607
-12.837481 -21.733524 -0.21317177
-11.463974 -21.739985 -0.20756653
-10.803007 -21.74255 -0.20503837
-9.5263472 -21.747509 -0.2005159
-7.1192088 -21.74955 -0.19326904
-5.9763966 -21.757677 -0.19055367
-2.6969335 -21.767866 -0.18523994
-2.1651366 -21.768856 -0.18475242
-1.1083789 -21.770832 -0.18409903
-0.58216798 -21.771814 -0.18393752
0.46898437 -21.776201 -0.18394729
0.99520504 -21.777626 -0.18411025
2.0519726 -21.780487 -0.1847567
0.95672852 -8.0656185 -0.068593673
3.1187596 -21.784428 -0.18585166
3.6573436 -21.785063 -0.18655555
4.193213 -21.748579 -0.18705474
4.7369041 -21.733183 -0.18785064
5.8389258 -21.698538 -0.18976967
6.4091992 -21.715157 -0.19121329
7.0130467 -21.808218 -0.19347678
8.4064741 -22.374487 -0.20185645
9.2897654 -23.022062 -0.20966125
28.251923 6.0947161 -0.24408454
25.661201 6.1874967 -0.22292671
22.910048 6.1126947 -0.20026892
15.515107 6.2222333 -0.14117356
14.500772 6.2257524 -0.13327384
13.593525 6.2289004 -0.12627976
12.776289 6.2317352 -0.12005142
11.367188 6.2405643 -0.10951424
9.6501465 6.24652 -0.097081907
8.7038088 6.2498026 -0.090494461
8.2767572 6.2512846 -0.087595671
7.8759375 6.2526751 -0.084927134
7.4986424 6.2539835 -0.082462385
7.0416207 6.1669426 -0.079048611
6.714375 6.1729131 -0.077032849
5.8854589 6.2547431 -0.072531201
5.6079783 6.2557049 -0.070951462
5.0870605 6.2575116 -0.068105467
4.84166 6.2583623 -0.066824108
4.6052341 6.2591825 -0.065625913
4.15625 6.2607388 -0.063463822
3.734951 6.2621989 -0.061577529
3.53333 6.2628984 -0.060728453
2.2503514 6.267344 -0.056237716
2.0812402 6.26793 -0.05577606
1.8886132 6.1829133 -0.054596558
1.7268066 6.1834745 -0.054218292
1.4097949 6.1864667 -0.053585738
1.1136035 6.2693877 -0.053774945
0.80399412 6.2704606 -0.053388212
0.49811521 6.2715201 -0.053130414
0.34609374 6.2720466 -0.053049162
0.043037109 6.2730951 -0.052978516
-0.10839844 6.2736211 -0.052989349
-0.25995117 6.2741446 -0.053031616
-0.56423825 6.2751994 -0.053209458
-0.87128901 6.2762628 -0.053512648
-1.3403223 6.277885 -0.05421295
-1.499707 6.2784367 -0.054514159
-1.9900683 6.2801337 -0.055635758
-2.1583788 6.2807159 -0.056086119
-2.5037596 6.2819109 -0.057110291
-2.6814647 6.2825251 -0.057687681
-3.0483887 6.2837944 -0.058982544
-3.3862598 6.1994376 -0.059655912
-4.0495896 6.2855229 -0.06314636
-4.9707031 6.2887092 -0.067696989
-5.2228708 6.2895818 -0.069043882
-5.7593164 6.2914362 -0.072033688
-6.3457813 6.2934637 -0.075478211
-6.6609082 6.2945538 -0.077397458
-6.9927344 6.2957001 -0.079464033
-7.3429294 6.2969108 -0.08169128
-8.1069632 6.2995515 -0.086706236
-8.8531637 6.2183404 -0.091367185
-10.538545 6.3160553 -0.10376106
-11.802402 6.3204226 -0.11306572
-14.005273 6.2419171 -0.12949157
-16.281523 6.3335733 -0.14753845
-18.935585 6.332387 -0.16861984
-24.51536 6.2682657 -0.21368423
-19.633486 -21.714092 -0.24722533
-18.703075 -21.716347 -0.24201545
-16.133448 -21.732962 -0.22858635
-15.336738 -21.736654 -0.22466087
-13.088105 -21.732958 -0.21425255
-11.701289 -21.739061 -0.2084983
-9.7476463 -21.746651 -0.20125663
-9.1239748 -21.746592 -0.19916283
-7.9137888 -21.748379 -0.19545379
-5.6127734 -21.758425 -0.18977126
-4.506074 -21.760698 -0.18767433
-3.4210546 -21.762924 -0.18605179
-2.3525097 -21.768507 -0.18491317
-1.822412 -21.769499 -0.18449165
-1.2943847 -21.770483 -0.18418366
0.80935544 -21.777121 -0.18403991
1.3362695 -21.778549 -0.18427216
1.8648731 -21.77998 -0.18461494
0.88284177 -8.0266895 -0.068196334
2.9295506 -21.784204 -0.1856308
3.466748 -21.784838 -0.18629417
5.0895214 -21.715815 -0.18836509
5.6409373 -21.697775 -0.18933418
6.7982516 -21.775112 -0.19265175
8.9521284 -22.741816 -0.20640747
26.641182 6.1840949 -0.23097672
20.029238 6.20648 -0.17708884
15.902499 6.2208891 -0.14421204
