# .PCD v0.7 - Point Cloud Data file format
VERSION 0.7
FIELDS x y z
SIZE 4 4 4
TYPE F F F
COUNT 1 1 1
WIDTH 1494
HEIGHT 1
VIEWPOINT 0 0 0 1 0 0 0
POINTS 1494
DATA ascii
4.9013572 3.9791248 -1.9612778
4.532207 4.2588181 -1.932068
4.1306248 4.2749891 -1.8467447
3.9471972 4.2875085 -1.8104727
3.3794141 4.6993384 -1.7981992
3.1459179 4.8524976 -1.7965713
3.0265038 4.9247046 -1.7957374
2.9054394 4.9939389 -1.794891
2.6585741 5.1233521 -1.7931622
2.2776563 5.2943163 -1.7904886
1.7532128 5.4778428 -1.7867953
1.485332 5.5501647 -1.7849039
1.3502734 5.5813966 -1.7839493
1.214541 5.6093297 -1.7829889
1.0782715 5.6339526 -1.7820239
0.39127928 5.7071142 -1.7771479
0.25332031 5.7117372 -1.7761663
0.11536133 5.7130246 -1.7751842
-0.43478516 5.6849546 -1.7712595
-0.57151365 5.6696825 -1.7702824
-1.6414355 5.431078 -1.7626077
-1.8995215 5.3399277 -1.7607489
-2.2772362 5.1805162 -1.7580224
-2.4003515 5.1214719 -1.7571319
-2.5219531 5.0595336 -1.7562518
-2.7603807 4.9271226 -1.7545233
-2.8770702 4.8567381 -1.7536761
-3.325537 4.5483823 -1.7504116
-3.4327734 4.4648218 -1.749629
-3.8253222 4.2930884 -1.7863455
-4.0090332 4.2863965 -1.8232905
-4.2004294 4.279232 -1.8628236
-4.4768653 4.1408982 -1.8945227
-4.57374 4.0301523 -1.8938075
-4.7594042 3.8020494 -1.8924329
-4.8480859 3.6848278 -1.8917747
-5.0168653 3.4443665 -1.8905177
-5.1739454 3.1963537 -1.8893423
-5.2480369 3.0696783 -1.8887857
-5.6273828 2.2769103 -1.8859026
-5.6794825 2.1400135 -1.8855004
-5.7283006 2.0019543 -1.8851212
-5.85499 1.5815716 -1.8841228
-5.9227438 1.2968938 -1.8835754
-5.9989939 0.86482114 -1.8829336
-6.0327439 0.57431519 -1.8826267
-6.0444727 0.42856261 -1.8825101
-6.0576072 0.13646606 -1.8823496
-6.0514159 -0.30201659 -1.8822935
-6.0424705 -0.44794676 -1.8823239
-6.0300779 -0.59362668 -1.8823788
-5.9950094 -0.88392574 -1.8825622
-5.9723535 -1.0283843 -1.8826905
-5.8477831 -1.599794 -1.8834472
-5.8082519 -1.740657 -1.8836967
-5.7654004 -1.880563 -1.88397
-5.7192478 -2.0194411 -1.8842666
-5.5612497 -2.429142 -1.8852984
-5.3745213 -2.8268721 -1.8865374
-5.2344923 -3.0843828 -1.8874758
-5.1599317 -3.2106388 -1.8879782
-5.0823731 -3.3351262 -1.888502
-5.0018454 -3.4577792 -1.8890475
-4.8321676 -3.6973093 -1.8902011
-4.7430663 -3.8140466 -1.8908092
-4.4593749 -4.1513824 -1.8927526
-4.2570505 -4.3648782 -1.8941447
-4.0446482 -4.5686994 -1.8956109
-3.9348145 -4.6668324 -1.8963708
-3.8226171 -4.7623639 -1.8971478
-3.708164 -4.8552384 -1.8979418
-3.5914745 -4.9454074 -1.8987525
-3.4726171 -5.0328131 -1.8995788
-3.2286718 -5.1991258 -1.9012784
-2.9768555 -5.3537717 -1.9030365
-2.8481543 -5.4266052 -1.9039364
-2.717705 -5.4963803 -1.9048495
-2.4517577 -5.6265912 -1.9067138
-1.6193359 -5.9396415 -1.9125707
-1.3322949 -6.0172143 -1.9145974
-1.0416113 -6.0810037 -1.916653
-0.74779296 -6.1308227 -1.9187344
-0.45167968 -6.1665072 -1.920835
-0.30284178 -6.1776018 -1.9214544
0.29396483 -6.1795373 -1.9219214
0.74301755 -6.1658149 -1.9293438
1.1889844 -6.1060033 -1.9325339
1.3366601 -6.0788641 -1.9335916
1.4837695 -6.0481405 -1.9346464
1.6301562 -6.0138426 -1.9356968
1.9204102 -5.9345856 -1.9377823
2.0641699 -5.8896713 -1.9388162
2.3483496 -5.7893457 -1.940863
2.7652049 -5.613018 -1.9438723
2.9013183 -5.547471 -1.9448566
3.0358496 -5.4785929 -1.9458307
3.2998533 -5.3309999 -1.9477444
3.4291797 -5.2523584 -1.9486834
3.5566015 -5.1705494 -1.9496096
3.6820214 -5.0856128 -1.9505224
3.9266796 -4.9065447 -1.9523059
4.0457225 -4.8125138 -1.9531752
4.498291 -4.4076929 -1.9564908
4.605195 -4.2996049 -1.9572768
4.8109765 -4.0755868 -1.9587936
5.0056543 -3.841574 -1.9602337
5.0986814 -3.7210121 -1.9609237
5.1887403 -3.5981374 -1.9615933
5.5182519 -3.0852141 -1.9640573
5.6638474 -2.816983 -1.9651555
5.9688087 -2.1173198 -1.9674871
6.066318 -1.8276166 -1.9682479
6.1856151 -1.3847351 -1.9691988
6.2180567 -1.2352526 -1.9694641
6.3107128 -0.63054013 -1.9702621
6.3245311 -0.47812375 -1.9703953
4.05582 4.1844225 -1.9553028
3.4117773 4.2776208 -1.8359072
3.0254979 4.4141269 -1.7956134
2.5816405 4.6770692 -1.7925124
2.3508692 4.7918372 -1.790895
2.1150196 4.8951354 -1.7892388
1.9953613 4.9424167 -1.7883974
1.7529199 5.0281186 -1.7866905
1.5068555 5.1018629 -1.7849548
1.3826367 5.1342101 -1.7840774
1.2577245 5.1635194 -1.7831945
1.0061816 5.2129698 -1.7814145
0.87966794 5.2330966 -1.7805178
0.49809569 5.2749791 -1.7778099
0.37048829 5.2827635 -1.7769027
0.24280272 5.2874608 -1.7759945
-0.012558593 5.2875953 -1.774176
-0.77291012 5.214448 -1.7687439
-1.022539 5.1658616 -1.7669549
-1.2692871 5.1053929 -1.7651837
-1.3913964 5.0707617 -1.7643062
-1.5125977 5.0332227 -1.7634344
-1.7519336 4.9495521 -1.7617108
-1.9867578 4.8546009 -1.7600166
-2.216543 4.7486181 -1.758356
-2.4407811 4.631875 -1.7567321
-2.5506639 4.5695643 -1.7559353
-2.7656932 4.4372435 -1.7543736
-2.9821484 4.3063035 -1.7574934
-3.1286523 4.2932067 -1.7824481
-3.2859569 4.2877564 -1.8125833
-3.4486229 4.2819276 -1.8447683
-3.6171093 4.2756991 -1.8791476
-3.7597656 4.2328639 -1.8996509
-3.8593652 4.1393309 -1.8989203
-3.9566112 4.0434799 -1.8982059
-4.4067969 3.5316808 -1.8948826
-4.5691113 3.3128662 -1.8936764
-4.7208009 3.0867431 -1.8925445
-4.8614841 2.8538153 -1.8914895
-4.9909177 2.6146135 -1.8905129
-5.2635155 1.9927057 -1.8884292
-5.309082 1.8647821 -1.8880755
-5.4605956 1.3436084 -1.8868774
-5.4907322 1.211308 -1.8866327
-5.5176954 1.0783484 -1.8864101
-5.5415235 0.94480282 -1.8862098
-5.579668 0.67624938 -1.8858768
-5.5939746 0.54139036 -1.8857443
-5.6192188 -0.00023010254 -1.8854406
-5.6045017 -0.40665588 -1.8854525
-5.5787206 -0.6765973 -1.8855746
-5.540195 -0.94504207 -1.8857876
-5.4253612 -1.4751043 -1.8864844
-5.3888474 -1.6057763 -1.8867145
-5.3492384 -1.7355609 -1.8869668
-5.2608786 -1.9921981 -1.8875375
-5.2121582 -2.1189089 -1.8878555
-5.0481544 -2.4917712 -1.8889384
-4.987617 -2.6134033 -1.8893418
-4.9242187 -2.733598 -1.8897659
-4.8579688 -2.852284 -1.8902105
-4.7889061 -2.9693978 -1.8906757
-4.7170801 -3.0848732 -1.8911608
-4.6425095 -3.1986363 -1.8916659
-4.5652537 -3.3106377 -1.8921905
-4.485332 -3.4208095 -1.8927346
-4.4028025 -3.5290823 -1.8932977
-4.2300782 -3.739713 -1.8944796
-4.1399903 -3.841939 -1.895098
-4.0474219 -3.9420326 -1.8957343
-3.9524999 -4.0399289 -1.8963882
-3.8552344 -4.135582 -1.897059
-3.6538963 -4.3199182 -1.8984506
-3.4438868 -4.4946027 -1.8999065
-3.225625 -4.6592255 -1.9014233
-3.1135645 -4.7376361 -1.9022034
-2.8838184 -4.8864393 -1.9038059
-2.7662694 -4.9567356 -1.9046268
-2.647002 -5.0242338 -1.9054607
-2.4036913 -5.150681 -1.9071649
-1.7704198 -5.4151521 -1.9116147
-1.6400293 -5.4589152 -1.9125332
-1.3761231 -5.5370612 -1.9143951
-0.28946289 -5.7211266 -1.9220922
-0.013154296 -5.7342896 -1.924057
0.12530273 -5.7358704 -1.9250426
0.26377928 -5.7341156 -1.9260293
0.40225586 -5.7290182 -1.9270169
0.54064453 -5.7205753 -1.9280044
0.67887694 -5.7087893 -1.9289916
0.95448238 -5.6751828 -1.930962
1.0916504 -5.6533771 -1.9319439
1.2283593 -5.6282434 -1.9329236
1.3644922 -5.5997934 -1.9338995
1.4999707 -5.568037 -1.9348714
2.0335937 -5.4082775 -1.9387087
2.4229491 -5.2546277 -1.9415166
2.6761425 -5.1364641 -1.9433469
3.0448143 -4.9362259 -1.9460183
3.1644335 -4.8634973 -1.9468869
3.5124805 -4.6278987 -1.9494195
3.6246483 -4.5437078 -1.9502376
4.0521288 -4.1799426 -1.9533651
4.1533885 -4.0825114 -1.9541088
4.252285 -3.9825923 -1.9548358
4.6227341 -3.5592341 -1.957571
4.7088184 -3.4477868 -1.9582095
4.7921286 -3.3342268 -1.9588288
4.8726759 -3.2186182 -1.9594288
4.9503808 -3.1010301 -1.9600092
5.0252051 -2.981539 -1.9605694
5.1659861 -2.7371156 -1.961628
5.2318554 -2.6123385 -1.9621255
5.2946286 -2.48595 -1.9626014
5.3542967 -2.3580225 -1.9630557
5.41082 -2.2286441 -1.9634879
5.6449704 -1.5626534 -1.9653076
5.6818652 -1.4262103 -1.9656014
5.7723145 -1.0119019 -1.9663404
5.8155079 -0.73239625 -1.9667119
5.8319235 -0.59191102 -1.9668609
5.8574119 0.25573486 -1.9672362
5.8494821 0.39697996 -1.9672118
5.8380661 0.53798646 -1.9671627
5.8231444 0.67866695 -1.9670886
5.8047948 0.81892514 -1.96699
5.7290626 1.236347 -1.9665459
5.6969919 1.374079 -1.9663491
5.6615524 1.510965 -1.9661279
5.6227441 1.6469183 -1.9658827
5.5351562 1.9157001 -1.9653202
5.3793163 2.309823 -1.9643004
5.2594919 2.5656054 -1.9635055
5.194912 2.6911652 -1.9630743
5.0566406 2.9372563 -1.9621458
4.983037 3.0576329 -1.9616492
4.9065137 3.1761346 -1.9611311
4.7449317 3.4072199 -1.9600331
4.6599607 3.5196757 -1.9594537
4.5722752 3.6299717 -1.9588543
4.2935643 3.9473071 -1.956942
4.1956348 4.048358 -1.9562675
3.9925878 4.2430038 -1.9548659
3.8204687 4.2616 -1.9203922
3.1734178 4.3128858 -1.796644
3.0671484 4.3863878 -1.7959037
2.9591894 4.4572473 -1.795151
2.6256542 4.6535559 -1.7928205
2.5114942 4.7134471 -1.792021
2.3959472 4.770514 -1.7912112
2.1610155 4.8760533 -1.789562
2.0417969 4.924469 -1.7887243
1.9214648 4.9699426 -1.7878774
1.8001465 5.0124598 -1.7870233
1.5547265 5.0885324 -1.7852927
1.3061523 5.1525402 -1.7835369
1.1808789 5.1799765 -1.7826507
0.41989258 5.2801185 -1.7772541
0.16451171 5.2888098 -1.7754372
0.036835935 5.2885337 -1.774528
-0.21810547 5.2787366 -1.77271
-0.34524414 5.269237 -1.7718023
-0.59841794 5.2410889 -1.7699926
-0.84970701 5.2008286 -1.768194
-1.0984863 5.1485801 -1.76641
-1.3442481 5.0845056 -1.7646451
-1.4658105 5.0480933 -1.7637711
-1.9416796 4.8738413 -1.7603421
-2.0577245 4.8232751 -1.7595041
-2.2858887 4.7139683 -1.7578541
-2.6172655 4.5300856 -1.7554519
-2.8303905 4.3946738 -1.7539032
-3.385 4.2842283 -1.8320602
-4.1085353 3.884171 -1.8970873
-4.1995702 3.782572 -1.8964158
-4.2881346 3.6788707 -1.8957614
-4.3741603 3.5731366 -1.8951244
-4.4576464 3.4654224 -1.8945053
-4.5385251 3.3557978 -1.8939041
-4.6922851 3.1310472 -1.8927578
-5.0283103 2.5401232 -1.8902296
-5.1426072 2.2935381 -1.8893591
-5.3761425 1.656325 -1.8875504
-5.413662 1.5258874 -1.8872534
-5.4481153 1.3946191 -1.8869778
-5.5076365 1.129873 -1.8864934
-5.5545702 0.86268371 -1.8860983
-5.5732713 0.72834837 -1.8859344
-5.6103125 0.32327941 -1.8855779
-5.6185446 -0.083342284 -1.8854264
-5.6148729 -0.21888305 -1.8854218
-5.6080079 -0.35430053 -1.8854394
-5.597949 -0.48951048 -1.8854803
-5.5846972 -0.62445921 -1.8855438
-5.5682712 -0.75906128 -1.8856301
-5.4708591 -1.2925372 -1.8862021
-5.4033594 -1.555307 -1.8866225
-5.3234372 -1.8146447 -1.8871325
-5.2789354 -1.9428594 -1.8874202
-5.2313766 -2.0700011 -1.8877299
-5.127285 -2.3208084 -1.8884139
-5.0707908 -2.4443223 -1.8887881
-5.0113769 -2.5664959 -1.8891833
-4.9490919 -2.687253 -1.8895992
-4.8159766 -2.9242635 -1.8904933
-4.7452049 -3.0403814 -1.8909707
-4.5954981 -3.2675042 -1.8919852
-4.5165915 -3.3783889 -1.8925216
-4.4350586 -3.4874067 -1.8930774
-4.175127 -3.8026257 -1.8948566
-4.0835252 -3.9035475 -1.8954858
-3.9895313 -4.0023084 -1.8961329
-3.8931346 -4.0988307 -1.8967973
-3.5904295 -4.3745017 -1.8988901
-3.4851756 -4.4615707 -1.8996201
-3.3778515 -4.5461454 -1.900365
-3.2684863 -4.6281738 -1.9011252
-3.1571581 -4.7076011 -1.9018997
-3.0438964 -4.7843914 -1.9026889
-2.8119628 -4.9298568 -1.9043075
-2.5731053 -5.0642118 -1.9059781
-2.4512694 -5.1271143 -1.9068315
-2.3279004 -5.187119 -1.9076961
-1.9493359 -5.3493519 -1.9103554
-1.690625 -5.4423447 -1.9121766
-1.4275 -5.522922 -1.9140323
-1.1605273 -5.5908604 -1.9159181
-1.0258105 -5.6200285 -1.916871
-0.89037108 -5.6459675 -1.9178295
-0.75427735 -5.6686535 -1.9187938
-0.61758786 -5.6880755 -1.9197628
-0.48038086 -5.7042084 -1.9207363
-0.066679686 -5.7327795 -1.9236761
0.071689449 -5.7356544 -1.9246609
0.21015625 -5.7351937 -1.9256473
0.6253711 -5.713747 -1.9286093
0.76347655 -5.6999125 -1.9295961
0.9012109 -5.6827292 -1.930581
1.0385938 -5.6622138 -1.9315641
1.1755078 -5.6383648 -1.9325447
1.4476269 -5.580719 -1.9344958
1.5826367 -5.5469475 -1.9354651
1.7168847 -5.5098906 -1.9364297
1.850244 -5.4695697 -1.9373885
2.3733301 -5.2760515 -1.9411584
2.501123 -5.2197328 -1.9420812
2.6275878 -5.1602936 -1.9429955
2.7525976 -5.0977678 -1.9439002
2.9980567 -4.9635792 -1.9456791
3.1183593 -4.891993 -1.9465524
3.2369041 -4.817461 -1.9474136
3.4685352 -4.6597333 -1.9490992
3.6923828 -4.4907374 -1.9507321
3.8012011 -4.4021335 -1.9515274
4.1144724 -4.1205158 -1.9538229
4.2142773 -4.0215559 -1.9545562
4.4989452 -3.7101867 -1.9566549
4.5887012 -3.6017847 -1.9573188
4.9206543 -3.1467669 -1.9597869
5.139658 -2.7849612 -1.9614294
5.2067089 -2.6608257 -1.9619354
5.3315821 -2.4077103 -1.9628825
5.4952731 -2.0170794 -1.9641376
5.5882421 -1.7502741 -1.9648608
5.6679688 -1.4791284 -1.9654906
5.762363 -1.0657165 -1.9662573
5.8082223 -0.78665096 -1.9666476
5.8259864 -0.64633358 -1.9668062
5.8584471 -0.22329712 -1.967134
5.8623047 -0.081889033 -1.9671938
5.8626852 0.059583738 -1.967229
5.8529587 0.34233946 -1.9672244
5.8293161 0.62426817 -1.9671202
5.7918262 0.90465879 -1.9669174
5.76791 1.044068 -1.9667789
5.7098145 1.320871 -1.9664283
5.6756639 1.4580969 -1.9662164
5.5531344 1.8640362 -1.9654367
5.5056934 1.9971691 -1.965129
5.4549608 2.1290648 -1.964798
5.4010448 2.2596514 -1.9644436
5.2836719 2.5165789 -1.9636663
5.2202635 2.6427636 -1.9632437
5.1538086 2.7673211 -1.9627988
4.7770605 3.3631384 -1.960252
4.6931639 3.4764073 -1.9596803
4.425293 3.8031836 -1.9578471
4.3308005 3.9075561 -1.957198
4.2338085 4.0095396 -1.9565307
4.1343846 4.1090879 -1.9558451
4.0326076 4.2061276 -1.9551425
3.8902636 4.2587571 -1.9353982
3.7120409 4.2659569 -1.8974028
3.5404296 4.2726974 -1.8618536
3.2213182 4.2934155 -1.8009872
3.108496 4.358253 -1.7961917
2.8922069 4.4993567 -1.7946835
2.3244727 4.8040891 -1.7907099
1.6024706 5.0747485 -1.7856295
1.4788476 5.1094384 -1.784757
1.2294238 5.1697192 -1.7829944
1.1037987 5.1952844 -1.7821053
0.85100585 5.2372193 -1.7803146
0.72404295 5.2535667 -1.7794143
0.59674805 5.2668309 -1.7785106
0.46926758 5.2770066 -1.7776049
0.21393554 5.2880955 -1.7757891
-0.041386716 5.2868357 -1.7739705
-0.16882811 5.2815928 -1.7730615
-0.42298827 5.2619066 -1.7712469
-0.67566407 5.2300305 -1.7694399
-0.80124998 5.2095566 -1.7685409
-0.92624021 5.1860814 -1.7676454
-1.0505567 5.1596189 -1.7667539
-1.1741601 5.1301889 -1.765867
-1.2969629 5.0978231 -1.764985
-1.4188573 5.0625305 -1.7641089
-1.5398535 5.0243406 -1.7632382
-1.6598144 4.9832835 -1.7623745
-2.0129883 4.8431711 -1.7598273
-2.1282325 4.7909241 -1.7589945
-2.2421484 4.7359619 -1.7581706
-2.3546777 4.6783142 -1.7573559
-2.4657421 4.6180234 -1.7565511
-2.7896874 4.4216599 -1.7541991
-3.3222167 4.2864733 -1.8196713
-3.4861619 4.2805567 -1.8523388
-3.6560352 4.2742333 -1.8872366
-3.8815331 4.1178684 -1.8987575
-4.2541404 3.7192492 -1.8960125
-4.3411717 3.6142969 -1.8953689
-4.4256349 3.5073411 -1.8947428
-4.5867872 3.2876756 -1.8935449
-4.737236 3.0607622 -1.8924215
-4.8083692 2.9447393 -1.8918884
-4.8766794 2.8270977 -1.8913751
-4.9421778 2.7079003 -1.8908813
-5.0048242 2.5872161 -1.8904076
-5.06458 2.4651208 -1.889954
-5.175293 2.2169299 -1.8891089
-5.2262011 2.0909839 -1.8887177
-5.2740817 1.9638928 -1.8883474
-5.3189454 1.8357366 -1.8879986
-5.3607712 1.7065692 -1.8876714
-5.3995018 1.576474 -1.8873657
-5.4970994 1.1813153 -1.8865805
-5.5967579 0.51087159 -1.8857174
-5.614336 0.24025878 -1.8855304
-5.61832 0.10472107 -1.885471
-5.6191211 -0.030867308 -1.8854343
-5.6110449 -0.30190918 -1.88543
-5.5902047 -0.57226682 -1.8855166
-5.5750194 -0.7070111 -1.885594
-5.4824705 -1.2413422 -1.8861308
-5.4514942 -1.3734002 -1.8863214
-5.380156 -1.6351833 -1.8867697
-5.3398829 -1.7647588 -1.8870269
-5.2007227 -2.1473792 -1.8879305
-5.1483493 -2.2726543 -1.8882748
-5.0930076 -2.396672 -1.8886408
-5.0347557 -2.5193825 -1.8890277
-4.9095116 -2.760551 -1.8898644
-4.8425975 -2.8788884 -1.890314
-4.7729392 -2.9956372 -1.8907833
-4.6252928 -3.2241008 -1.8917828
-4.3837986 -3.5532837 -1.8934274
-3.8329296 -4.1568775 -1.8972127
-3.7328808 -4.2496977 -1.8979043
-3.2004688 -4.677175 -1.9015983
-3.087949 -4.7549925 -1.9023819
-2.6198339 -5.0390954 -1.9056509
-2.4986131 -5.1031141 -1.9064997
-2.1258788 -5.2776923 -1.9091144
-1.9988476 -5.3299384 -1.9100072
-1.6104003 -5.4683714 -1.912742
-1.3460449 -5.5450988 -1.9146074
-1.2124804 -5.5787096 -1.9155509
-1.0780371 -5.6091242 -1.9165014
-0.25829101 -5.7232819 -1.9223137
-0.12019531 -5.7307725 -1.9232954
0.018124999 -5.7349358 -1.9242797
0.15656249 -5.7357683 -1.9252654
0.43353516 -5.7274041 -1.9272399
1.1225879 -5.6479893 -1.9321655
1.5304492 -5.5604076 -1.9350903
1.6650097 -5.5246201 -1.9360567
1.7987304 -5.4855633 -1.937018
1.9315039 -5.4432483 -1.9379733
2.0632813 -5.3977017 -1.9389224
2.1939843 -5.3489499 -1.9398645
2.3235254 -5.2970042 -1.9407989
2.4518261 -5.2419024 -1.9417251
2.578789 -5.1836667 -1.9426428
2.7044044 -5.1223326 -1.9435513
2.9510643 -4.9904881 -1.9453382
3.1912303 -4.8466511 -1.9470816
3.3086815 -4.7703419 -1.9479355
3.5379882 -4.6091185 -1.9496055
3.6496875 -4.5243025 -1.9504205
3.8668456 -4.346499 -1.9520077
3.9721777 -4.2536182 -1.9527791
4.1759372 -4.0601459 -1.9542744
4.2742577 -3.9596736 -1.9549975
4.4635158 -3.7515371 -1.9563931
4.554287 -3.6439972 -1.9570642
4.6424217 -3.5342424 -1.9577169
4.8904881 -3.1922176 -1.9595617
4.9675388 -3.074193 -1.9601376
5.1129003 -2.8325524 -1.961228
5.1811132 -2.7090747 -1.961742
5.525156 -1.9358093 -1.9643688
5.5712695 -1.8022649 -1.964728
5.6140919 -1.6676028 -1.9650637
5.819531 -0.70069396 -1.9667476
5.8351464 -0.56011778 -1.9668912
5.8473144 -0.41918638 -1.96701
5.8560157 -0.27799436 -1.9671043
5.8629589 0.0048345947 -1.9672183
5.8611817 0.14629699 -1.9672379
5.8471971 0.42887327 -1.967203
5.7775879 0.99018371 -1.9668353
5.751543 1.1292102 -1.9666818
5.7221093 1.2675372 -1.9665037
5.6892772 1.4050884 -1.9663012
5.6134958 1.6775067 -1.9658238
5.4749899 2.0781641 -1.9649289
5.0402732 2.9646192 -1.9620355
4.9659958 3.0845788 -1.9615338
4.8888183 3.2026453 -1.9610111
4.8088183 3.3187499 -1.9604679
4.5521092 3.6545873 -1.9587164
4.4611621 3.7621617 -1.9580932
3.9611425 4.2558398 -1.9507989
3.7801952 4.263226 -1.9118072
3.6060936 4.2701426 -1.8753316
3.4382811 4.2766147 -1.8411987
3.2777147 4.2846189 -1.8100586
3.1495605 4.3297191 -1.7964778
3.0429199 4.4026318 -1.7957349
2.9345605 4.472888 -1.7949792
2.8245897 4.5404468 -1.7942114
2.7130175 4.6052732 -1.7934316
2.4854784 4.726593 -1.7918388
2.3696289 4.7830162 -1.7910267
2.2525194 4.8365793 -1.7902048
2.1341894 4.8872447 -1.7893736
2.0147071 4.9349952 -1.7885336
1.8941602 4.9798083 -1.7876852
1.6501074 5.0605173 -1.7859656
1.5267968 5.0963697 -1.7850957
1.1524707 5.1857557 -1.78245
1.0265137 5.2094421 -1.7815584
0.90004879 5.2300611 -1.7806625
0.26336914 5.2869101 -1.776141
0.0080078123 5.2880445 -1.7743225
-0.11953124 5.2839832 -1.7734132
-0.24686523 5.2768588 -1.7725048
-0.37392578 5.2666688 -1.7715974
-0.62691402 5.2371459 -1.769789
-0.75269532 5.2178407 -1.7688885
-0.87792969 5.1955237 -1.7679915
-1.1264062 5.1419311 -1.7662097
-1.6135058 4.9995127 -1.7627081
-1.7328124 4.9567089 -1.7618486
-1.8510156 4.9110789 -1.7609962
-1.9680078 4.8626561 -1.760152
-2.1982226 4.7575536 -1.7584884
-2.7550879 4.4587293 -1.7586234
-2.9595604 4.3097253 -1.7541839
-3.1037891 4.2940526 -1.7777771
-3.4220409 4.2828941 -1.8394388
-3.843457 4.1545506 -1.899037
-3.9411035 4.0590744 -1.8983198
-4.0363865 3.9613354 -1.8976188
-4.3077831 3.6551514 -1.8956158
-4.3932714 3.5489647 -1.8949828
-4.5564356 3.3307734 -1.8937711
-4.7089844 3.1052165 -1.892633
-4.7811522 2.9898388 -1.8920926
-4.8505759 2.8728168 -1.8915713
-4.9171777 2.7542131 -1.8910699
-4.9809375 2.6340966 -1.8905883
-5.0418067 2.512536 -1.8901272
-5.0997849 2.3895988 -1.8896862
-5.2558985 2.0132189 -1.8884882
-5.3019528 1.8854632 -1.888131
-5.3848729 1.6269311 -1.8874813
-5.4217286 1.496297 -1.8871891
-5.4554687 1.3648517 -1.8869188
-5.5135741 1.0998029 -1.8864443
-5.5378904 0.96634459 -1.8862408
-5.5770798 0.69793332 -1.8859003
-5.5918751 0.56313783 -1.8857641
-5.6119332 0.29268432 -1.8855593
-5.6179981 -0.113974 -1.8854232
-5.6136231 -0.24948974 -1.8854235
-5.6060352 -0.38486999 -1.8854465
-5.5437889 -0.92348933 -1.8857669
-5.4936328 -1.1900445 -1.8860632
-5.4638572 -1.322376 -1.8862451
-5.4309568 -1.4539831 -1.8864492
-5.3136621 -1.8437084 -1.8871956
-5.1147656 -2.3488321 -1.8884966
-5.0576172 -2.4720452 -1.8888755
-4.9346094 -2.7143364 -1.8896961
-4.8002439 -2.9506433 -1.8905994
-4.728838 -3.0663872 -1.8910813
-4.3315625 -3.618417 -1.8937846
-4.2443848 -3.7230465 -1.8943816
-3.9679589 -4.0243177 -1.8962816
-3.8710449 -4.1203289 -1.8969498
-3.7718554 -4.2140546 -1.8976347
-3.5668261 -4.3943958 -1.8990538
-3.4611132 -4.4809065 -1.8997869
-3.3533299 -4.5649042 -1.9005353
-3.1317382 -4.7251868 -1.902077
-2.9025683 -4.8748579 -1.9036748
-2.7852929 -4.9456005 -1.9044939
-2.666328 -5.0135527 -1.9053255
-2.4235156 -5.1409302 -1.9070261
-2.2998145 -5.2002697 -1.9078933
-2.1746874 -5.2566643 -1.9087716
-2.0481544 -5.3100791 -1.9096606
-1.5298339 -5.4932261 -1.9133102
-1.3974999 -5.5312338 -1.9142441
-1.2642773 -5.5660796 -1.9151849
-1.1301659 -5.5977345 -1.9161328
-0.99526364 -5.626173 -1.9170871
-0.72342771 -5.6733317 -1.9190124
-0.58662111 -5.6920085 -1.9199824
-0.44935545 -5.7074018 -1.9209567
-0.31166992 -5.7194858 -1.9219345
-0.035419922 -5.7337208 -1.9238986
0.10298828 -5.7358418 -1.9248838
0.2414453 -5.7346253 -1.9258702
1.0696094 -5.6571131 -1.9317862
1.2063769 -5.6325192 -1.9327657
1.8802344 -5.4600077 -1.9376043
2.0124121 -5.4157124 -1.9385558
2.2735252 -5.317482 -1.9404382
2.655957 -5.1464391 -1.9432008
2.7806444 -5.0832181 -1.9441034
3.0253808 -4.9476676 -1.9458773
3.145293 -4.8754086 -1.9467479
3.2634571 -4.8002167 -1.9476064
3.3797948 -4.7221327 -1.9484531
3.4942284 -4.6411948 -1.9492865
3.606709 -4.5574512 -1.9501067
4.5194626 -3.6858916 -1.9568065
4.938076 -3.1200957 -1.9599173
5.0133395 -3.0009134 -1.9604805
5.0857029 -2.8798709 -1.9610236
5.1550779 -2.7570608 -1.9615457
5.2847166 -2.5064113 -1.9625262
5.455781 -2.1190279 -1.9638332
5.5064454 -1.9871713 -1.9642239
5.638701 -1.5845447 -1.9652579
5.6761422 -1.448252 -1.9655557
5.7920899 -0.89492488 -1.966508
5.8125291 -0.75498104 -1.9666854
5.8295016 -0.61456299 -1.9668385
5.8530664 -0.33266112 -1.9670707
5.8626852 -0.049925536 -1.967204
5.850996 0.37424436 -1.9672176
5.8257909 0.65603334 -1.9671023
5.8079882 0.79636842 -1.9670078
5.7867284 0.93621516 -1.9668882
5.7339063 1.2140949 -1.9665756
5.7023926 1.3519543 -1.9663825
5.66749 1.4889752 -1.9661651
5.629199 1.6250848 -1.9659237
5.4430661 2.1586907 -1.9647198
4.9951072 3.0383661 -1.9617306
4.840117 3.2740471 -1.9606805
4.7583594 3.3889129 -1.9601245
4.6738281 3.5017047 -1.9595484
4.3091016 3.9308116 -1.9570488
4.2115626 4.0322509 -1.9563773
4.1116209 4.1312304 -1.955688
3.849375 4.2604246 -1.9265908
3.3382812 4.2803822 -1.8213601
2.8673339 4.5146251 -1.7945099
2.7563868 4.5805125 -1.7937349
2.4146581 4.7615147 -1.7913424
2.0610743 4.9168639 -1.7888595
1.940918 4.962821 -1.7880145
1.3262891 5.1478305 -1.7836791
1.2011034 5.1757627 -1.7827941
1.075332 5.2006383 -1.7819041
0.82236326 5.2411804 -1.7801117
0.44043943 5.2788792 -1.7774001
0.31278318 5.2852707 -1.7764926
0.057402343 5.2887855 -1.7746743
-0.32476562 5.2709789 -1.7719485
-0.45162109 5.2589145 -1.7710425
-0.57809567 5.2438083 -1.770138
-0.70408201 5.2256727 -1.7692367
-0.82954097 5.2045116 -1.7683383
-0.95439452 5.1803622 -1.7674437
-1.0785644 5.1532273 -1.766553
-1.8053906 4.9290709 -1.7613254
-2.0391405 4.8316064 -1.7596383
-2.1540918 4.7787414 -1.7588073
-2.599834 4.5405517 -1.7555785
-2.7074022 4.4745078 -1.7547973
-2.917578 4.3349094 -1.7532687
-3.0448925 4.2965307 -1.7669522
-3.3587694 4.2851696 -1.8268652
-3.5240135 4.2791638 -1.8600241
-3.6953125 4.2727427 -1.8954489
-3.8050292 4.1908827 -1.8993189
-3.903584 4.0962925 -1.8985956
-3.9998143 3.9994202 -1.8978879
-4.0936427 3.9003296 -1.8971971
-4.3604884 3.5903027 -1.8952258
-4.4443846 3.4829035 -1.8946037
-4.5256834 3.3735833 -1.8939997
-4.6803126 3.149411 -1.8928473
-4.7535353 3.0346863 -1.8922994
-4.891748 2.8002946 -1.8912616
-5.0185742 2.559757 -1.8903033
-5.0776854 2.4373436 -1.8898544
-5.1870604 2.1885803 -1.8890185
-5.2372751 2.0623682 -1.8886322
-5.284492 1.9350293 -1.8882667
-5.3286619 1.8066332 -1.8879229
-5.4078221 1.5469525 -1.8872998
-5.4427829 1.4158112 -1.8870208
-5.4746094 1.2839025 -1.8867639
-5.5288572 1.0180664 -1.8863168
-5.570488 0.75001645 -1.8859591
-5.5865331 0.61534423 -1.8858142
-5.5993848 0.48034301 -1.8856918
-5.6090622 0.34508178 -1.8855917
-5.6155076 0.20963745 -1.8855151
-5.6093454 -0.33248901 -1.8854351
-5.5870605 -0.60274166 -1.8855319
-5.5711231 -0.73740417 -1.8856148
-5.5297556 -1.0054345 -1.885848
-5.5043259 -1.1386547 -1.8859988
-5.4440427 -1.4031427 -1.8863676
-5.4092383 -1.5342658 -1.8865856
-5.3303514 -1.7938982 -1.8870879
-5.2862887 -1.9222763 -1.8873725
-4.9593358 -2.6679077 -1.8895309
-4.894619 -2.7874279 -1.8899642
-4.0984278 -3.8874402 -1.8953834
-3.9088182 -4.0834394 -1.8966891
-3.8105175 -4.1780567 -1.8973678
-3.7099512 -4.2703471 -1.8980627
-3.3952734 -4.532691 -1.9002438
-3.2862303 -4.6151328 -1.9010018
-3.0622754 -4.7722044 -1.9025609
-2.9474707 -4.8467417 -1.9033614
-2.8308787 -4.918551 -1.9041754
-2.5925684 -5.0538158 -1.9058418
-2.4709864 -5.1171808 -1.9066932
-2.2232714 -5.235189 -1.9084306
-1.9699901 -5.3413267 -1.9102103
-1.5807519 -5.4776707 -1.9129511
-1.4488281 -5.5169001 -1.9138818
-1.1821582 -5.5858631 -1.9157653
-1.0475683 -5.6155505 -1.9167171
-0.91223633 -5.6420078 -1.9176748
-0.63961911 -5.6851678 -1.9196066
-0.50252926 -5.7018342 -1.9205788
-0.36499023 -5.7152023 -1.9215554
-0.2270996 -5.7252603 -1.9225353
0.18788086 -5.7354922 -1.9254886
0.4648242 -5.7256193 -1.9274631
0.6031152 -5.7156639 -1.9284505
1.0165039 -5.6657419 -1.931406
1.2899609 -5.615799 -1.933365
1.6953027 -5.5160794 -1.9362746
2.0928905 -5.3869677 -1.9391357
2.2233593 -5.3374915 -1.9400762
2.4806445 -5.2290173 -1.9419334
2.6073046 -5.1700792 -1.9428489
2.732578 -5.1080461 -1.9437553
2.9785352 -4.9748325 -1.9455373
3.335 -4.7526922 -1.9481268
3.5634179 -4.590198 -1.949791
3.6746483 -4.5047579 -1.9506027
3.8908496 -4.3257442 -1.9521834
4.1983886 -4.0376596 -1.9544394
4.4842482 -3.7274382 -1.9565463
4.908154 -3.1657207 -1.9596936
5.1961231 -2.680932 -1.9618554
5.2605958 -2.5554154 -1.9623432
5.3802247 -2.2997293 -1.9632536
5.4353418 -2.1697211 -1.9636759
5.7832813 -0.94893795 -1.966433
5.8619142 -0.10466918 -1.9671857
5.8152833 0.74211425 -1.9670472
5.7953515 0.88214844 -1.9669372
5.7149901 1.2986877 -1.9664599
5.6813965 1.4360479 -1.9662522
5.6444039 1.5725244 -1.9660201
5.5604687 1.842489 -1.9654838
5.4633398 2.1079125 -1.9648527
5.4099412 2.2387183 -1.9645023
5.2935743 2.4961078 -1.9637322
5.2306933 2.6225457 -1.9633135
5.1647363 2.7473688 -1.9628721
4.9488182 3.1114213 -1.9614176
4.7068653 3.4583049 -1.9597737
4.4402833 3.7861497 -1.95795
4.2496095 3.9932737 -1.9566394
4.1505857 4.0932212 -1.9559568
3.4011621 4.2780223 -1.8337902
3.0185156 4.4187365 -1.7955649
2.9098632 4.4883909 -1.7948068
2.5742383 4.6809692 -1.7924606
2.4594336 4.7395911 -1.7916563
2.1072752 4.8982935 -1.7891846
1.622334 5.0688806 -1.7857696
1.4988085 5.1040516 -1.784898
0.99796873 5.2143698 -1.7813562
0.74450195 5.2511411 -1.7795593
0.61726558 5.2649012 -1.7786565
0.48981443 5.2755771 -1.7777511
0.23450194 5.2876573 -1.7759355
-0.14831054 5.2826438 -1.7732078
-0.27559569 5.2748218 -1.7722996
-0.52919918 5.2500119 -1.7704877
-0.65538085 5.2330494 -1.7695853
-0.78106445 5.2130604 -1.7686855
-1.0305859 5.164083 -1.7668972
-1.1542969 5.1351318 -1.7660094
-1.2772363 5.1032362 -1.7651266
-1.3993067 5.0684104 -1.7642492
-1.8775586 4.9003782 -1.7608047
-2.1097558 4.7995238 -1.7591281
-2.4479492 4.627914 -1.7566803
-2.5577538 4.5654283 -1.7558837
-2.665957 4.5003734 -1.7550983
-2.772578 4.4327784 -1.7543235
-2.8774414 4.3626938 -1.7535608
-2.9911816 4.3049169 -1.7588354
-3.4593651 4.2815356 -1.8469317
-3.7663281 4.2268701 -1.8996029
-4.0575976 3.9389465 -1.8974626
-4.149961 3.8385205 -1.8967819
-4.239902 3.7359643 -1.8961178
-4.4122167 3.5246997 -1.8948425
-4.5742087 3.3056383 -1.8936386
-4.7255273 3.0792937 -1.8925091
-4.865859 2.8461559 -1.8914566
-4.9318161 2.7272058 -1.8909596
-5.2182126 2.1113465 -1.8887789
-5.266582 1.9844317 -1.8884056
-5.393486 1.5974896 -1.8874133
-5.4626465 1.3350464 -1.8868607
-5.5429587 0.93611568 -1.8861978
-5.5947852 0.53262144 -1.8857363
-5.6056738 0.39745238 -1.885628
-5.6191993 -0.0090258783 -1.8854387
-5.6121774 -0.28009459 -1.8854269
-5.6038766 -0.41542968 -1.885455
-5.5923634 -0.55053526 -1.8855063
-5.5145311 -1.0871704 -1.8859378
-5.4566989 -1.3521783 -1.8862891
-5.4230661 -1.483609 -1.8864987
-5.3863668 -1.6142215 -1.8867302
-5.3465719 -1.7439483 -1.8869839
-5.3037009 -1.8727161 -1.88726
-5.257822 -2.0004537 -1.8875576
-5.2088962 -2.1270897 -1.8878769
-5.156992 -2.2525606 -1.8882179
-5.1021094 -2.3767869 -1.8885804
-5.0443068 -2.4997106 -1.8889639
-4.9200096 -2.7413394 -1.889794
-4.7843456 -2.9769375 -1.8907064
-4.7123337 -3.092304 -1.8911929
-4.3973632 -3.5360479 -1.8933347
-4.2243066 -3.7464144 -1.8945193
-4.1340427 -3.8485067 -1.8951389
-3.9462402 -4.0462031 -1.8964312
-3.7491405 -4.2349057 -1.8977917
-3.5431151 -4.4141603 -1.8992181
-3.3286717 -4.5835352 -1.9007068
-3.2184081 -4.6643968 -1.9014735
-3.1062109 -4.7426381 -1.9022546
-2.6392188 -5.0285172 -1.9055154
-2.5182226 -5.0929933 -1.9063623
-2.2716601 -5.2132711 -1.9080909
-2.0194042 -5.3217292 -1.9098626
-1.5000292 -5.5020828 -1.9135205
-1.3674902 -5.5393882 -1.9144558
-1.0997461 -5.6044397 -1.9163479
-0.82892579 -5.6566262 -1.9182647
-0.69256836 -5.6778331 -1.9192312
-0.418291 -5.7104187 -1.921177
-0.28049803 -5.7217636 -1.9221557
-0.14245117 -5.7297897 -1.9231372
-0.0041796872 -5.7344918 -1.9241209
0.13427734 -5.7358599 -1.9251066
0.27276367 -5.7338877 -1.9260935
0.82576168 -5.6925592 -1.9300413
0.96335936 -5.6738687 -1.9310256
1.1005468 -5.6518474 -1.9320077
2.3027442 -5.3055816 -1.9406489
2.4312401 -5.2509928 -1.9415765
2.5584276 -5.1932602 -1.9424956
2.6842382 -5.1324229 -1.9434054
2.8086133 -5.0685105 -1.944306
3.1721387 -4.8586736 -1.9469427
3.2898827 -4.7828288 -1.9477988
3.4058104 -4.7040949 -1.9486425
3.5198145 -4.62252 -1.949473
3.6318457 -4.5381489 -1.9502902
3.7418163 -4.4510293 -1.9510934
4.0587792 -4.1736913 -1.953414
4.2586036 -3.9760158 -1.9548825
4.3548732 -3.8735104 -1.9555914
4.7142968 -3.44049 -1.9582504
4.9553223 -3.0933397 -1.9600462
5.2360153 -2.6041908 -1.9621571
5.298584 -2.4777005 -1.9626315
5.4143944 -2.2201977 -1.9635153
5.6074219 -1.6893594 -1.9650112
5.6841602 -1.4173193 -1.9656199
5.7970309 -0.86334044 -1.9665502
5.8166795 -0.72328186 -1.9667224
5.832871 -0.58279479 -1.9668697
5.8455954 -0.44191772 -1.9669926
5.8606348 -0.15941405 -1.9671643
3.7678709 3.887346 -1.9531841
3.6717186 3.9757714 -1.9525195
3.5734668 4.0617895 -1.9518396
2.7825 4.2772312 -1.8409551
2.6408691 4.2821469 -1.8151087
2.3991113 4.3463893 -1.7911367
2.292578 4.4011765 -1.7903906
1.9657323 4.5496264 -1.7880968
1.8545898 4.5937219 -1.7873151
1.5154492 4.7095251 -1.7849261
1.4007422 4.7425647 -1.784117
1.2853222 4.7728014 -1.7833017
0.81786132 4.8654051 -1.7799937
0.46315429 4.9048719 -1.7774764
0.34450194 4.9122849 -1.7766331
0.22578125 4.9168272 -1.7757885
-0.011679688 4.9173107 -1.7740976
-0.36676756 4.8965821 -1.7715639
-0.60199219 4.8685594 -1.7698822
-0.95118159 4.8054662 -1.767381
-1.0663671 4.7788792 -1.7665544
-1.8486426 4.517158 -1.7609231
-2.2714062 4.3104734 -1.757865
-2.6711035 4.2854943 -1.8218883
-2.8137696 4.2807407 -1.8481997
-2.9605956 4.2756543 -1.8763071
-3.2093651 4.1878114 -1.9035606
-3.4999316 3.9403088 -1.9014345
-3.5926952 3.8533385 -1.9007541
-3.6833398 3.7642126 -1.9000882
-3.8580174 3.5797131 -1.8988018
-4.1029296 3.2881572 -1.8969913
-4.326211 2.9801848 -1.8953304
-4.4625392 2.7665191 -1.8943107
-4.6475096 2.4347162 -1.8929176
-4.703877 2.3213458 -1.8924901
-4.7574801 2.2067029 -1.8920822
-4.9017477 1.8557428 -1.8909746
-4.9442282 1.7366296 -1.8906448
-4.9838672 1.6165662 -1.8903351
-5.0545607 1.373847 -1.8897761
-5.0855665 1.2513269 -1.8895272
-5.1136618 1.1281213 -1.8892992
-5.1803222 0.75508481 -1.888739
-5.1966405 0.62982726 -1.8885942
-5.2203321 0.37835264 -1.888368
-5.2277246 0.25227416 -1.8882866
-5.2093263 -0.50459045 -1.8882446
-5.1599121 -0.88016963 -1.8885107
-5.1375294 -1.0044824 -1.8886417
-5.052793 -1.3738116 -1.8891609
-4.9420505 -1.7363172 -1.8898667
-4.8994336 -1.8553238 -1.890143
-4.8540039 -1.9733038 -1.8904397
-4.8057814 -2.0901971 -1.8907564
-4.7547851 -2.2059364 -1.8910931
-4.7010837 -2.3204541 -1.8914493
-4.6446385 -2.4336913 -1.8918256
-4.5237694 -2.6560583 -1.8926357
-4.4593749 -2.7650697 -1.8930693
-4.3924217 -2.872545 -1.8935214
-4.2508788 -3.0826595 -1.8944818
-4.1763868 -3.1851776 -1.8949887
-4.0994434 -3.2859297 -1.8955135
-4.0201268 -3.384855 -1.8960561
-3.9384472 -3.4818935 -1.8966155
-3.7682323 -3.6701016 -1.8977848
-3.5891113 -3.8501158 -1.8990195
-3.2058301 -4.1839161 -1.901673
-3.1051073 -4.2616177 -1.9023726
-3.0024998 -4.3369212 -1.9030862
-2.7919433 -4.4801688 -1.9045528
-2.684082 -4.5480227 -1.9053056
-2.2369432 -4.7933812 -1.9084342
-1.8868262 -4.9489889 -1.910892
-1.5259765 -5.0792389 -1.9134322
-1.4036034 -5.1168857 -1.9142953
-1.1561718 -5.1833692 -1.9160421
-0.90561521 -5.2379465 -1.9178143
-0.77933592 -5.2607298 -1.9187084
-0.65248048 -5.2804704 -1.9196072
-0.52512693 -5.2971697 -1.9205105
-0.26922852 -5.3213663 -1.9223275
-0.14082031 -5.3288407 -1.9232403
0.24532226 -5.332685 -1.9259896
0.37409177 -5.3277512 -1.9269078
0.5027734 -5.3197098 -1.9278262
0.75954098 -5.2942963 -1.9296606
1.0150195 -5.2564659 -1.9314889
1.1420801 -5.2329125 -1.9323993
1.5196972 -5.1438041 -1.9351093
2.0120215 -4.9825163 -1.9386522
2.3702929 -4.8303823 -1.9412385
2.4872265 -4.7738671 -1.9420843
3.1578515 -4.3760142 -1.9469513
3.2638183 -4.3002534 -1.9477234
3.3679199 -4.2218971 -1.9484828
3.4701366 -4.1409941 -1.9492292
3.5703807 -4.0575871 -1.9499621
3.6685936 -3.9717257 -1.9506812
3.8586912 -3.7928343 -1.9520761
4.2118454 -3.4078536 -1.9546793
4.4513474 -3.0971127 -1.9564559
4.5981541 -2.8803754 -1.9575509
4.7980857 -2.5422094 -1.9590522
4.8591895 -2.4262719 -1.9595138
5.0251856 -2.0698011 -1.9607775
5.0746484 -1.9483297 -1.9611577
5.1645703 -1.7018585 -1.9618543
5.2422752 -1.4511834 -1.9624648
5.3076072 -1.1969153 -1.9629884
5.3603611 -0.93968379 -1.9634228
2.6712792 -0.14141296 -0.96510512
2.6770995 -0.077010497 -0.96626163
2.6696777 0.052069701 -0.96336383
2.6778221 0.11691345 -0.9670409
5.3701463 0.89024901 -1.9639108
5.3467188 1.0194904 -1.9637735
5.2575293 1.4031396 -1.963226
5.2215333 1.5294067 -1.9629983
5.1403122 1.7790453 -1.9624771
5.0469432 2.024323 -1.9618679
4.9957714 2.1451349 -1.9615312
4.9416599 2.2646332 -1.9611731
4.8846288 2.3827484 -1.9607939
4.7620115 2.6145232 -1.9599737
4.6964941 2.7280481 -1.9595327
4.4072948 3.1647778 -1.9575729
3.8976171 3.760808 -1.9540793
3.804492 3.8524902 -1.953437
3.7091894 3.9418309 -1.9527786
3.6117382 4.0287852 -1.9521044
3.5122557 4.1133041 -1.9514152
2.3339648 4.3802843 -1.7906806
2.1181347 4.4839807 -1.7891672
2.0084863 4.5318346 -1.7883972
1.8977245 4.5769825 -1.7876186
1.7859374 4.6194005 -1.7868322
1.5596386 4.6959848 -1.785238
1.4452245 4.7301097 -1.7844309
1.3300683 4.7614331 -1.783618
1.0978028 4.8156176 -1.7819761
0.98085934 4.8384533 -1.7811483
0.74557614 4.8755651 -1.7794812
0.62743163 4.8898325 -1.7786431
0.39043945 4.9097571 -1.7769598
0.27172852 4.91541 -1.7761157
0.15300781 4.9181943 -1.7752705
-0.084375001 4.9151597 -1.7735792
-0.32107422 4.9006944 -1.7718902
-0.43902344 4.8891931 -1.7710476
-0.5566113 4.8748646 -1.7702069
-0.67374021 4.8577137 -1.7693689
-0.79039061 4.8377576 -1.7685335
-0.90643555 4.815012 -1.7677016
-1.021875 4.7894959 -1.7668737
-1.2505761 4.7302246 -1.7652313
-1.5872363 4.6210303 -1.7628087
-1.6975 4.5793223 -1.7620138
-1.8066894 4.535006 -1.7612261
-1.9147265 4.4881015 -1.7604458
-2.1271679 4.3866773 -1.7589096
-2.2314355 4.3322129 -1.7581547
-2.3475683 4.2995481 -1.7673767
-2.616914 4.287251 -1.8121662
-3.0527735 4.2723694 -1.8944736
-3.1705859 4.2182288 -1.9038438
-3.4634764 3.9733825 -1.9017018
-3.5570605 3.8872545 -1.9010156
-3.6485057 3.79896 -1.9003443
-3.8249316 3.616051 -1.8990459
-3.9097655 3.5215526 -1.8984201
-4.0725098 3.3267236 -1.8972164
-4.150332 3.2265136 -1.8966393
-4.2986522 3.0207794 -1.8955362
-4.369072 2.9153752 -1.8950104
-4.737041 2.25122 -1.892238
-4.7889743 2.1358216 -1.8918417
-5.0739059 1.2988281 -1.8896213
-5.1031346 1.1758789 -1.889385
-5.1294236 1.052287 -1.8891695
-5.1732321 0.80345517 -1.8888006
-5.1906638 0.67834717 -1.8886477
-5.2166891 0.42709777 -1.8884051
-5.2329297 -0.077623293 -1.8881741
-5.2295213 -0.20386046 -1.8881695
-5.223115 -0.32998413 -1.8881863
-5.2137403 -0.45591429 -1.8882242
-5.2013769 -0.58159608 -1.8882836
-5.1677637 -0.83192259 -1.8884659
-5.146533 -0.95643061 -1.8885885
-5.1223631 -1.0804107 -1.8887326
-5.0652051 -1.3265119 -1.8890833
-4.9577732 -1.689997 -1.8897653
-4.9162693 -1.8093839 -1.8900335
-4.8247657 -2.0450912 -1.8906316
-4.7748532 -2.1612859 -1.8909603
-4.6668067 -2.3900213 -1.8916776
-4.5479784 -2.6134732 -1.8924727
-4.4845996 -2.7230606 -1.8928993
-4.4186425 -2.8311391 -1.8933444
-4.2790527 -3.04252 -1.8942901
-4.2055078 -3.1457107 -1.8947903
-4.1295118 -3.2471495 -1.8953085
-3.9703515 -3.4445627 -1.8963969
-3.8872266 -3.540415 -1.8969672
-3.6244531 -3.8159399 -1.8987756
-3.5325098 -3.9035847 -1.8994104
-3.1443164 -4.2318277 -1.9021
-3.042412 -4.3080645 -1.9028083
-2.7260058 -4.5220647 -1.905013
-2.5066991 -4.6520467 -1.906545
-2.3947167 -4.7131138 -1.9073287
-2.1663671 -4.8271933 -1.9089291
-2.0501268 -4.8801455 -1.9097449
-1.0796875 -5.2013688 -1.9165829
-0.95431638 -5.2283239 -1.9174696
-0.70164061 -5.2731919 -1.919259
-0.57448238 -5.2910709 -1.9201605
-0.44685546 -5.3058934 -1.921066
-0.3188574 -5.3176432 -1.9219749
-0.19055663 -5.3263159 -1.9228867
-0.062011719 -5.3318944 -1.9238009
0.19545898 -5.3337579 -1.9256343
0.32425779 -5.3300285 -1.9265524
0.70993161 -5.3001842 -1.929306
0.83799803 -5.2840195 -1.9302218
0.96569335 -5.2647533 -1.9311357
1.0929687 -5.2423925 -1.9320472
1.219707 -5.216948 -1.9329557
1.3458691 -5.1884298 -1.9338608
1.4713281 -5.1568484 -1.9347616
1.5960742 -5.1222191 -1.9356577
1.8430078 -5.0438871 -1.9374343
1.9650781 -5.000217 -1.9383137
2.3246679 -4.8514819 -1.9409088
2.4421289 -4.7960773 -1.941758
2.5582323 -4.7378092 -1.9425982
2.6729393 -4.6767039 -1.9434291
2.8978808 -4.5461254 -1.945061
3.0079589 -4.4767227 -1.9458609
3.3278418 -4.2525277 -1.9481902
3.4308105 -4.172605 -1.9489419
3.6308398 -4.00524 -1.9504046
3.8225682 -3.8281827 -1.9518107
4.1793361 -3.4466119 -1.9544387
4.3434372 -3.243001 -1.9556543
4.4974608 -3.0314651 -1.9567994
4.5705466 -2.9228826 -1.9573448
4.7087402 -2.7004178 -1.9583797
4.7737207 -2.5866632 -1.9588685
4.8358493 -2.4713249 -1.9593375
4.8952441 -2.3544631 -1.9597871
4.9517088 -2.236155 -1.9602163
5.1896973 -1.6254458 -1.9620508
5.2282128 -1.4999957 -1.9623538
5.2636228 -1.3736089 -1.9626348
5.3511424 -0.98966187 -1.9633459
2.6592479 -0.16569214 -0.9612782
2.6791797 -0.10211914 -0.96731466
2.6626756 -0.037194215 -0.96074903
5.3561816 0.96953917 -1.9638294
5.3022852 1.2266003 -1.9635043
5.2706251 1.3540399 -1.9633081
5.156992 1.7310613 -1.9625849
5.1129684 1.8547156 -1.9622996
4.9629297 2.218545 -1.9613141
4.9070506 2.3372045 -1.9609432
4.7866211 2.5701518 -1.9601388
4.6549511 2.7968066 -1.9592527
4.437129 3.1238091 -1.9577762
4.3592772 3.2290795 -1.9572457
4.2789159 3.3323791 -1.956697
4.1960545 3.4336565 -1.95613
4.0230565 3.6298816 -1.9549429
3.840791 3.8172839 -1.9536875
3.6497166 3.9954185 -1.9523672
3.4502537 4.1638865 -1.9509853
3.1976073 4.2617931 -1.9222598
3.0438867 4.2676816 -1.8912286
2.6094043 4.2832141 -1.8095034
2.480664 4.3021946 -1.7917075
2.2683594 4.413187 -1.7902209
2.1602929 4.464746 -1.7894628
1.3747168 4.7496433 -1.783933
1.2591308 4.7792392 -1.7831167
1.026162 4.8299513 -1.7814691
0.79121095 4.8692746 -1.7798048
0.67320311 4.8846545 -1.7789679
0.55489254 4.897162 -1.7781281
0.19895507 4.9174562 -1.7755978
0.080185547 4.9184837 -1.7747521
-0.038486328 4.9166431 -1.7739065
-0.27535155 4.904387 -1.7722168
-0.39341795 4.8939805 -1.7713734
-0.51115233 4.8807406 -1.7705319
-1.206582 4.7425451 -1.7655476
-1.3200293 4.7098727 -1.764732
-1.4326367 4.6745057 -1.7639221
-1.6549706 4.5957775 -1.7623205
-1.76458 4.5524631 -1.7615299
-1.8730761 4.5065589 -1.7607467
-1.9803905 4.4580908 -1.7599713
-2.0864844 4.4070873 -1.759204
-2.1912305 4.3535862 -1.7584457
-2.2989843 4.3060288 -1.7611387
-2.4271972 4.2931762 -1.779323
-2.7029979 4.2844505 -1.8276811
-2.9943652 4.2744594 -1.8829187
-3.3302929 4.089148 -1.9026767
-3.4266992 4.0061231 -1.9019713
-3.613369 3.8333862 -1.9006022
-4.1968455 3.164196 -1.8962939
-4.3421192 2.9563696 -1.8952117
-4.4109864 2.8499663 -1.894697
-4.6604786 2.4092095 -1.8928193
-4.7161913 2.2955523 -1.8923965
-4.7691989 2.1806273 -1.8919928
-4.8194432 2.0645013 -1.8916084
-4.911582 1.8289093 -1.8908983
-4.9924216 1.5893121 -1.8902678
-5.0618262 1.3462262 -1.8897179
-5.2289743 0.2237677 -1.8882711
-5.2312012 -0.15501221 -1.8881687
-5.2177243 -0.40719971 -1.8882071
-5.1923337 -0.65848202 -1.8883303
-5.1752048 -0.78361082 -1.888424
-5.1550879 -0.90830749 -1.8885387
-5.0771775 -1.2790973 -1.8890089
-5.010654 -1.522879 -1.8894269
-4.9326658 -1.7632906 -1.8899273
-4.8894238 -1.8820699 -1.8902081
-4.8433595 -1.9998165 -1.8905092
-4.7429004 -2.2319243 -1.8911718
-4.6885548 -2.3461571 -1.8915329
-4.5718064 -2.5706668 -1.892313
-4.3068552 -3.0021248 -1.8941014
-4.2342577 -3.1059771 -1.8945947
-4.1592088 -3.2080996 -1.8951058
-3.9196484 -3.5035555 -1.8967444
-3.8351953 -3.598206 -1.8973244
-3.7484276 -3.6908584 -1.8979212
-3.6594725 -3.7814441 -1.8985339
-3.5683496 -3.8699214 -1.8991627
-3.3798046 -4.0403271 -1.9004666
-3.0820606 -4.2788434 -1.9025326
-2.8742383 -4.4259109 -1.9039792
-2.7676952 -4.4957242 -1.904722
-2.3253319 -4.7492275 -1.9078146
-2.2109864 -4.8059649 -1.9086162
-1.7405566 -5.0053253 -1.911921
-1.62 -5.0481038 -1.9127697
-1.4984082 -5.0879993 -1.9136267
-1.0029199 -5.218245 -1.9171258
-0.75073242 -5.2654538 -1.9189111
-0.36844724 -5.3134599 -1.9216226
-0.24024414 -5.3233247 -1.9225335
0.145625 -5.3343687 -1.9252791
0.53181642 -5.3174615 -1.9280337
0.78847653 -5.2906427 -1.9298676
0.91631836 -5.2725782 -1.9307821
1.043789 -5.2514129 -1.9316949
1.2971191 -5.199832 -1.933511
1.4228613 -5.1694336 -1.9344134
1.5478905 -5.135982 -1.9353116
1.7955176 -5.0599804 -1.9370925
1.9179492 -5.0174704 -1.9379742
2.0393653 -4.971983 -1.9388494
2.1597071 -4.9235301 -1.9397175
2.3968163 -4.8178616 -1.9414303
2.5134668 -4.7606969 -1.9422741
2.6287208 -4.7006865 -1.9431088
2.8548436 -4.5722542 -1.9447485
3.1819336 -4.3591266 -1.9471267
3.3911717 -4.2038383 -1.9486525
3.5927539 -4.0383978 -1.9501261
3.6904881 -3.9519889 -1.9508418
3.7861524 -3.8631809 -1.9515432
3.8796093 -3.7720311 -1.9522299
3.9708593 -3.6785915 -1.952901
4.059824 -3.5829122 -1.9535564
4.2306738 -3.3850708 -1.9548184
4.3124509 -3.2830369 -1.9554243
4.3917189 -3.1789877 -1.9560125
4.4684668 -3.0729954 -1.9565835
4.5425878 -2.9651241 -1.9571359
4.6828418 -2.7439995 -1.9581854
4.9301758 -2.2821186 -1.9600525
4.9848728 -2.1629579 -1.9604691
5.0366306 -2.0424669 -1.9608654
5.173955 -1.6737387 -1.9619278
5.2136717 -1.5486603 -1.9622391
5.2502928 -1.4226214 -1.9625286
5.3414354 -1.039544 -1.9632653
5.3655272 -0.91046995 -1.9634664
2.6757617 -0.12702392 -0.9664678
2.6733887 -0.062316895 -0.96478087
2.6747069 0.06676086 -0.96529311
5.3137012 1.1770691 -1.9635743
5.2496777 1.4317523 -1.9631765
5.173203 1.6829187 -1.9626892
5.1303611 1.8069922 -1.9624127
5.0845017 1.9299475 -1.9621139
5.0356445 2.0517273 -1.9617938
4.9838085 2.1722534 -1.9614522
4.8108006 2.5255492 -1.9603008
4.7474413 2.640316 -1.9598757
4.540791 2.9746552 -1.9584805
4.4665527 3.0825531 -1.9579763
4.3897266 3.1885614 -1.9574533
4.3103123 3.2926373 -1.9569116
4.2283888 3.3947058 -1.9563514
3.9681737 3.6882727 -1.9545654
3.8767772 3.7817285 -1.9539355
3.6873534 3.9616895 -1.9526278
3.5894432 4.0481005 -1.9519501
3.3875194 4.2135205 -1.9505498
3.2584276 4.2594104 -1.9348254
3.102793 4.2654481 -1.9029977
2.9520018 4.2711072 -1.8731893
2.8056641 4.2764096 -1.8452804
2.4161425 4.3373203 -1.7912561
2.202246 4.4451084 -1.7897574
1.9835352 4.5422678 -1.7882217
1.7605566 4.6286044 -1.7866535
1.6476171 4.6676559 -1.7858582
1.5338379 4.703939 -1.785056
1.3039355 4.7681212 -1.7834334
1.071416 4.8210239 -1.7817893
0.95432615 4.8432202 -1.7809607
0.8368066 4.8625584 -1.780128
0.3636328 4.911284 -1.776769
0.24490234 4.9162936 -1.7759247
0.12616211 4.9184275 -1.7750795
-0.1111621 4.9141002 -1.7733884
-0.34776366 4.8983469 -1.7716997
-0.46564451 4.8862062 -1.7708572
-0.58314455 4.8712339 -1.770017
-1.0478613 4.7833509 -1.7666873
-1.1624218 4.7544603 -1.7658648
-1.3891504 4.6885133 -1.7642349
-1.5011718 4.651504 -1.7634284
-1.9389941 4.4771509 -1.7602706
-2.0455565 4.427125 -1.7595
-2.1508398 4.3745885 -1.7587384
-2.3759668 4.295692 -1.7710906
-2.6484864 4.2862329 -1.8178118
-3.0872264 4.2711215 -1.9013574
-3.1932909 4.2005076 -1.9036781
-3.2924023 4.1206751 -1.9029539
-3.4847949 3.9541173 -1.9015456
-3.5779004 3.8674963 -1.9008627
-3.6688769 3.7787108 -1.9001946
-3.757705 3.6878209 -1.8995411
-3.8442967 3.5948765 -1.8989031
-4.0106444 3.4030261 -1.8976746
-4.314785 2.9971099 -1.8954157
-4.4519334 2.7839587 -1.8943902
-4.5166502 2.6750457 -1.8939043
-4.6381931 2.4528491 -1.8929881
-4.6949511 2.3396924 -1.892558
-4.8003321 2.1095777 -1.8917549
-4.894619 1.8748357 -1.8910296
-4.9375782 1.7558825 -1.8906966
-4.9776659 1.6359705 -1.8903836
-5.0807519 1.2711084 -1.8895662
-5.177412 0.77522033 -1.8887643
-5.1941895 0.65002137 -1.8886163
-5.2080274 0.52448118 -1.888489
-5.2335057 0.020126952 -1.8881924
-5.2212696 -0.35845459 -1.888193
-5.2112107 -0.48434082 -1.8882357
-5.1981735 -0.60995603 -1.8882998
-5.1821775 -0.73523802 -1.8883853
-5.1632323 -0.8600952 -1.8884917
-5.1413183 -0.98449093 -1.8886193
-5.1164746 -1.1083423 -1.888768
-5.0887012 -1.2315807 -1.8889376
-5.0244236 -1.475949 -1.8893396
-4.9879785 -1.5969452 -1.8895715
-4.9486523 -1.7170587 -1.8898242
-4.9065037 -1.8362243 -1.890097
-4.7631931 -2.1873789 -1.8910376
-4.7099118 -2.3020906 -1.8913907
-4.3342676 -2.9614861 -1.8939155
-4.2626462 -3.0659857 -1.8944017
-4.1885548 -3.1687865 -1.8949059
-4.0330567 -3.3690503 -1.8959675
-3.951787 -3.466393 -1.896524
-3.7822654 -3.6552374 -1.8976883
-3.6941502 -3.7466314 -1.8982949
-3.6038573 -3.8359299 -1.8989177
-3.4169238 -4.0080462 -1.9002097
-3.3204002 -4.0907645 -1.9008783
-3.221875 -4.171185 -1.9015615
-3.0191209 -4.3249588 -1.9029702
-2.9150195 -4.3982129 -1.903695
-2.7015526 -4.5372629 -1.9051837
-2.5923243 -4.6029735 -1.9059466
-2.3691993 -4.726541 -1.9075074
-2.1402147 -4.8394012 -1.9091125
-1.6667773 -5.0318899 -1.9124403
-1.5455859 -5.0729032 -1.9132941
-1.4233788 -5.1110215 -1.9141557
-1.3002343 -5.1462083 -1.9150246
-1.1762109 -5.1784534 -1.9159008
-0.92589843 -5.2339983 -1.9176707
-0.79971677 -5.2572637 -1.9185641
-0.41795897 -5.3088169 -1.9212712
-0.28989258 -5.3198724 -1.9221808
-0.032939453 -5.3327284 -1.9240078
0.095761716 -5.3345098 -1.9249241
0.35335937 -5.3287559 -1.92676
0.6105957 -5.3105645 -1.9285961
0.86689448 -5.2799363 -1.9304286
1.1216308 -5.2369156 -1.9322528
1.4995703 -5.1492901 -1.9349644
1.6241504 -5.1139741 -1.9358597
1.8706542 -5.0342774 -1.9376335
1.9924804 -4.9899359 -1.9385113
2.2329102 -4.8923788 -1.940246
2.3513281 -4.8392129 -1.9411013
2.4684765 -4.7831635 -1.9419485
2.5842872 -4.7242498 -1.9427868
2.6986718 -4.6625085 -1.9436157
2.8115625 -4.5979743 -1.9444345
3.0326073 -4.4606662 -1.94604
3.1406152 -4.3879704 -1.9468259
3.3512793 -4.2346892 -1.9483613
3.5543749 -4.0711823 -1.9498451
3.65291 -3.9857242 -1.9505664
3.7493749 -3.8978381 -1.9512736
3.8437011 -3.8075905 -1.9519659
3.9358106 -3.7150273 -1.952643
4.0256739 -3.6202097 -1.9533046
4.198369 -3.4240201 -1.9545795
4.3613477 -3.2194858 -1.9557871
4.586709 -2.8980951 -1.9574655
4.6565428 -2.7873342 -1.9579881
4.7236619 -2.6748574 -1.9584919
4.8495312 -2.4450507 -1.9594407
4.9082322 -2.3278594 -1.9598858
5.0169334 -2.0892458 -1.9607143
5.1138377 -1.8454901 -1.9614602
5.1986423 -1.5971795 -1.9621211
5.2364841 -1.4715173 -1.962419
5.3312597 -1.089342 -1.9631814
5.3565722 -0.96049434 -1.9633911
2.666914 -0.15157592 -0.96373618
2.6786327 -0.08747375 -0.96693069
