# .PCD v0.7 - Point Cloud Data file format
VERSION 0.7
FIELDS x y z
SIZE 4 4 4
TYPE F F F
COUNT 1 1 1
WIDTH 1550
HEIGHT 1
VIEWPOINT 0 0 0 1 0 0 0
POINTS 1550
DATA ascii
-3.8003514 -7.256578 1.9983348
-2.7763867 -7.9082465 2.0446765
-2.1536815 -7.928709 2.0043149
-1.9462011 -7.915257 1.9884605
-1.2062939 -7.082818 1.7527516
-1.578081 -21.831682 5.3397932
0.0052978513 -21.85301 5.3310995
0.53384763 -21.895309 5.3430028
1.601831 -22.011469 5.383956
2.705586 -22.267008 5.4720483
3.3171484 -22.708954 5.5986929
13.714878 -9.0064373 4.0027122
14.542861 -8.1091433 4.0620356
14.678242 -7.7263541 4.0465808
15.390747 -6.7282605 4.0977111
12.484463 19.95624 5.7425513
10.032544 18.963017 5.2336106
8.6493063 18.451031 4.9711967
7.4138036 18.031572 4.7561479
6.2932324 17.688246 4.58007
5.7679491 17.541201 4.5046301
4.7744236 17.290352 4.3758812
4.3760595 21.923473 5.453795
4.9569287 28.386108 7.0296555
2.1616602 28.258446 6.9138618
-19.849716 -6.3081493 5.0810347
-19.816528 -7.3679252 5.1576285
-18.162836 -8.2940578 4.8709946
-15.30896 -21.834787 6.5054593
-14.536699 -21.836033 6.399415
-3.7263622 -7.3965926 2.0204716
-3.6419921 -7.685286 2.074712
-3.4623241 -7.7863083 2.0788176
-2.6998291 -8.0961647 2.0820026
-2.2449803 -7.315855 1.8668611
-2.2250781 -7.9283862 2.0088756
-2.017832 -7.9198551 1.9937913
-1.8125341 -7.9068413 1.9789262
-1.5337012 -7.5192895 1.8721193
-1.2865967 -7.1897898 1.78183
-1.2294873 -7.9762669 1.9688114
-1.7622705 -21.834919 5.3440084
-0.70456541 -21.826284 5.327354
0.35011229 -21.879938 5.3383512
1.4150537 -21.988655 5.3752837
1.9547119 -22.054573 5.4013615
2.5101562 -22.211412 5.4530215
3.1013281 -22.550747 5.5530953
13.257548 -9.3366976 3.9557738
13.577704 -9.0800447 3.9847362
12.730874 -8.0760469 3.6779277
13.947436 -7.9309902 3.9141431
14.586714 -7.8349271 4.0393023
14.806841 -7.4985032 4.048955
15.400068 -6.8866105 4.1154132
15.373637 -6.4342284 4.065661
22.749512 -8.8822737 5.9578118
22.761728 -7.0369072 5.8120756
13.782612 20.516415 6.0295453
11.90416 19.712793 5.6178179
10.290586 19.062813 5.2847538
9.5622654 18.784443 5.1420884
8.8777781 18.532736 5.0130768
6.4806933 17.742958 4.6081347
5.9479542 17.590513 4.5299301
2.3945215 28.193966 6.9027538
-19.772436 -6.1016521 5.0479832
-20.399843 -6.8386369 5.2487817
-19.752113 -7.7003622 5.1718054
-19.258379 -8.6000423 5.1452923
-18.877861 -8.9826565 5.1000786
-17.228096 -21.829617 6.7840748
-16.39045 -21.83164 6.6598058
-15.582603 -21.833591 6.5437694
-14.045811 -21.836826 6.3340001
-13.3127 -21.838007 6.2393107
-3.877373 -7.1112113 1.9759151
-3.7658935 -7.321732 2.0085707
-3.7042871 -7.6504364 2.0736098
-3.5247412 -7.7511234 2.0772343
-2.9036572 -6.8173056 1.8076686
-2.7439842 -6.8996906 1.8114222
-2.7379248 -7.9867473 2.0596941
-2.3572705 -7.4584317 1.9082152
-2.3031397 -7.9499402 2.0191538
-2.0898681 -7.9245291 1.9993064
-1.3022363 -8.0024147 1.9778892
-1.2169873 -8.8156433 2.170995
-1.005957 -8.8606453 2.1754634
-0.79397947 -8.9064026 2.1813569
-0.36046386 -21.82918 5.3260107
0.16667968 -21.865612 5.3343291
2.3161132 -22.156214 5.4345198
6.140986 -26.852547 6.7198696
5.7919288 -7.826437 2.14416
13.429048 -9.1051826 3.5729973
14.309301 -8.2580671 3.638283
15.069677 -7.2984166 3.6873424
15.349794 -6.9819293 3.713562
15.32375 -6.5285168 3.668067
16.525738 19.842487 5.686686
14.284438 18.939865 5.2241611
13.307134 18.559259 5.0291147
12.407544 18.21739 4.8539042
10.801108 17.630985 4.5533323
10.078169 17.378937 4.4241242
8.1574221 16.753826 4.1035972
6.5174756 16.284052 3.8626091
5.5373731 16.038425 3.7365375
5.0740528 15.932878 3.6823406
4.2402048 15.936633 3.6316302
4.7725391 19.853817 4.4967222
4.8143454 22.392553 5.0439353
-19.65185 -5.9274163 4.5202708
-19.873404 -6.5214324 4.6060944
-20.160849 -7.7118754 4.7535181
-19.303442 -8.4728975 4.6424475
-18.788471 -8.7935705 4.5683155
-19.224911 -21.797276 6.4004374
-18.334242 -21.82736 6.277493
-17.455166 -21.829479 6.1551318
-16.609234 -21.831518 6.0409007
-15.79372 -21.833481 5.934237
-15.005918 -21.835287 5.8345757
-13.504414 -21.837711 5.6543217
-3.5256395 -7.6236486 1.8497044
-2.6684473 -7.0728893 1.664745
-2.6451612 -7.5586104 1.763528
-2.335459 -7.8732152 1.8084996
-2.1265478 -7.8598571 1.7931181
-1.3291065 -7.8513036 1.7536002
-1.2687109 -8.7765436 1.9528471
-0.8474853 -8.866456 1.9614552
-1.5561426 -21.831352 4.8198624
0.027143555 -21.855122 4.8129044
0.55582029 -21.898012 4.8238983
2.1693554 -22.115644 4.8936462
2.7298975 -22.281347 4.9434533
13.686982 -8.9685669 3.6035748
14.196259 -8.35215 3.6272087
14.382564 -7.1149931 3.5336719
13.932065 -6.4784756 3.383584
15.332603 -6.684608 3.6834643
16.961348 20.021982 5.778657
14.644057 19.082062 5.2970304
13.637002 18.686716 5.0944343
10.323735 17.463642 4.4675479
7.2252831 16.478493 3.9623699
6.6958447 16.33177 3.8870933
6.1889548 16.198503 3.8187065
5.7021141 16.077646 3.7566741
4.7798829 15.869668 3.6498723
4.7987204 21.444 4.839159
4.9186769 28.333918 6.3329711
3.5649316 28.69179 6.3670425
2.8011377 28.064266 6.2109747
2.1325731 28.249289 6.2387118
-20.33436 -7.0294542 4.7380195
-20.1483 -7.5141764 4.7355461
-19.637348 -7.8684912 4.6587424
-18.435434 -7.9083843 4.4176044
-19.53582 -21.779213 6.4429693
-16.89934 -21.83082 6.0796752
-16.073524 -21.832808 5.970438
-13.758389 -21.837299 5.6838617
-3.699785 -7.3621273 1.8144883
-3.587163 -7.5891571 1.8485627
-3.4097607 -7.6887913 1.852244
-2.8521631 -6.8744683 1.6390095
-2.6133399 -7.862905 1.8246903
-2.4088721 -7.8779941 1.8141694
-1.9920557 -7.8514504 1.7838181
-1.5110791 -7.4464612 1.6732707
-1.3413476 -8.7600851 1.9516151
-1.740332 -21.834589 4.8236256
-1.2104248 -21.825275 4.8137131
-0.68270993 -21.82662 4.8089728
-0.15584961 -21.84083 4.8098741
2.5335252 -22.219252 4.9247956
3.1273291 -22.572739 5.0184126
5.8180957 -7.7416611 2.132638
13.555717 -9.0457973 3.5888453
13.687328 -8.2078438 3.5146179
14.346977 -8.1392565 3.6324909
14.197934 -6.7473507 3.4617603
15.316035 -6.3921018 3.654829
16.154594 19.690516 5.6088152
15.015268 19.229998 5.3728366
13.97668 18.819052 5.16225
12.146294 18.119804 4.8038878
10.575009 17.551296 4.5124836
9.8663616 17.306683 4.3870826
8.5731392 16.88298 4.1698322
6.8769627 16.381124 3.9124174
6.362534 16.243305 3.841701
5.3939795 16.005013 3.7193816
4.9355226 15.902739 3.666862
4.4916453 15.810715 3.6195848
4.7484765 18.392027 4.1830745
4.7843213 20.56953 4.6507025
4.6991796 22.669647 5.0984025
-19.718769 -6.1066809 4.5459056
-20.250912 -7.3597789 4.7450085
-19.883007 -7.7742352 4.7014036
-18.513872 -8.2898226 4.4671474
-18.954477 -21.812988 6.3638134
-17.193184 -21.830112 6.1193767
-15.54998 -21.834066 5.9030356
-14.77017 -21.835669 5.8053994
-14.015024 -21.836887 5.7141075
-3.8506639 -7.0790019 1.774636
-3.7392821 -7.2879295 1.8038572
-3.6242821 -7.5042887 1.8352222
-3.4714012 -7.6541233 1.8508329
-2.8208642 -7.1136575 1.6852309
-2.6375146 -7.7189569 1.7963496
-2.2711914 -7.8690672 1.8036482
-2.0633886 -7.8558898 1.7886891
-1.6015136 -7.5663519 1.703167
-1.3493017 -7.2320781 1.6201179
-1.412666 -8.7360678 1.9488335
-1.2045263 -8.790185 1.9538505
-0.99412107 -8.8350019 1.9579084
-1.9247656 -21.837288 4.8276148
-1.3941064 -21.828503 4.8168335
0.18850097 -21.867727 4.8158531
0.71805662 -21.914337 4.8285303
1.7892284 -22.034933 4.8684697
3.5864012 -23.19203 5.1680136
13.80353 -8.9000425 3.6168699
13.341836 -8.1533909 3.4433222
14.295772 -8.2693195 3.6369464
14.413715 -7.8795738 3.6175036
14.544467 -7.5009742 3.6038268
14.149951 -6.8704433 3.4639769
16.576851 19.863491 5.6974468
13.345913 18.574183 5.0367613
10.107168 17.388891 4.4292264
9.4272509 17.159338 4.3115368
8.7870359 16.950844 4.2046323
8.1817865 16.761295 4.1074281
7.6075535 16.588902 4.0190082
7.0608835 16.432142 3.9385931
6.5386033 16.289646 3.8654809
6.0380807 16.160278 3.799088
5.5569239 16.043039 3.738905
4.2390866 15.868598 3.617094
4.7710056 19.760605 4.4766889
4.812417 22.275377 5.0186219
4.3532763 22.802868 5.1123013
4.6762648 28.169531 6.2883434
3.3469677 28.664412 6.3553195
1.9837109 29.140026 6.4320221
-19.864071 -6.4964128 4.6024299
-18.536177 -9.2041006 4.5575352
-12.338135 -7.6910605 3.201751
-13.534565 -21.837664 5.6578064
-12.816367 -21.83882 5.5763288
-3.8885252 -7.0080924 1.7649632
-3.6646287 -7.4282885 1.82408
-3.5329735 -7.619534 1.8495616
-2.5543506 -7.8792119 1.8240504
-2.3441846 -7.8737803 1.8091655
-1.7272558 -7.8357153 1.7669953
-1.4340136 -7.3443246 1.6478969
-1.3376952 -7.8543167 1.7545701
-1.0672607 -8.8194056 1.9563643
-0.85623533 -8.8645668 1.961226
-1.5780908 -21.831739 4.8202925
-1.0488623 -21.823542 4.8114934
-0.52156734 -21.827976 4.8082952
0.53386718 -21.895803 4.823287
1.6018701 -22.012049 4.8602777
13.361704 -9.2435799 3.577985
14.570937 -7.6698728 3.626184
14.414829 -7.1488981 3.543355
13.96312 -6.509881 3.3927031
15.333672 -6.7033114 3.6853282
17.014345 20.043903 5.7898893
15.794565 19.543987 5.5337324
14.687705 19.099411 5.3059201
9.6585054 17.236511 4.3511043
9.0050831 17.020971 4.2405901
8.3881683 16.825066 4.1401324
7.8035836 16.646896 4.0487561
7.2477341 16.484882 3.9656506
6.7172995 16.337568 3.8900702
5.7218943 16.082424 3.7591259
5.2521534 15.97261 3.7027435
4.7983594 15.873542 3.6518638
4.7586474 19.009953 4.3155122
3.5937254 28.689314 6.3672862
-19.786415 -6.2880311 4.5720725
-19.653959 -7.8523464 4.6608157
-17.67872 -8.0729885 4.2798924
-18.695385 -9.0886774 4.5777955
-18.687103 -21.828522 6.3279438
-16.934135 -21.830736 6.0843511
-15.30896 -21.834799 5.8725414
-13.788847 -21.83725 5.6874309
-13.063295 -21.838423 5.6039739
-3.5944922 -7.5850534 1.8484355
-3.417119 -7.6846495 1.8520674
-2.8540916 -6.8597617 1.6361827
-2.8056102 -7.2304502 1.7079475
-2.6544921 -7.3631353 1.7236521
-2.4176562 -7.8785686 1.8148558
-1.797163 -7.8397636 1.7712415
-1.5217236 -7.4605689 1.6767814
-1.1402881 -8.8038521 1.9549656
-1.2322656 -21.825661 4.8140659
-0.70456052 -21.826437 4.8090863
0.88056153 -21.930693 4.8334312
1.9547656 -22.055157 4.8759904
14.519175 -7.798646 3.6294322
14.895308 -6.6608939 3.5932598
16.204199 19.710773 5.6191955
15.060234 19.247993 5.3820572
13.062314 18.465378 4.9809995
10.605308 17.561932 4.5179343
9.8947411 17.316326 4.3920231
8.5983839 16.890934 4.1739097
8.0031252 16.70686 4.0795088
5.8890624 16.123203 3.7800579
4.9541993 15.90676 3.668925
4.7826853 20.469978 4.6292682
3.0594385 27.992809 6.2012405
2.3881445 28.119003 6.2146168
-19.709658 -6.0822701 4.5423961
-18.575659 -8.2951727 4.4800491
-18.70413 -8.8999863 4.561522
-18.990917 -21.810869 6.3687263
-18.098467 -21.827929 6.2443156
-17.228407 -21.830027 6.1241617
-16.390747 -21.832043 6.0119843
-15.582891 -21.833988 5.9072328
-14.801958 -21.835617 5.8093114
-14.04583 -21.836836 5.7177682
-12.600796 -21.839167 5.5525279
-3.7439744 -7.2791195 1.8026044
-3.6291161 -7.4951782 1.8338804
-3.47875 -7.649992 1.8506749
-2.8228955 -7.0981183 1.6822135
-2.4915967 -7.8834319 1.8207215
-2.0719042 -7.8564234 1.7892817
-1.8673632 -7.8438721 1.7756398
-0.88758302 -21.824898 4.8102145
0.16668946 -21.866022 4.8154411
1.7668457 -22.032202 4.8674736
2.3162451 -22.157436 4.9060636
5.7868748 -7.8196082 1.913679
13.483804 -9.1423054 3.2047288
13.64292 -8.7772131 3.1912615
14.209785 -7.3104262 3.1435614
14.12083 -6.8388782 3.0864611
15.267949 -6.5047421 3.2647057
22.719433 -7.7908311 4.7248068
16.757656 18.252768 4.8744211
15.600224 17.837658 4.6616387
14.547568 17.467287 4.4717784
13.58436 17.135319 4.3015919
12.698169 16.836622 4.1484532
10.406557 16.101295 3.7713957
9.7405519 15.899814 3.6680591
8.552949 15.604821 3.5006127
8.0710297 15.607751 3.4565563
7.6259518 16.672947 3.6066704
7.1475439 16.6798 3.569793
6.6785641 16.686518 3.5357013
5.3202538 16.705978 3.4490013
4.7688966 19.83868 4.0138044
4.8102198 22.373398 4.501832
-8.5556936 28.152285 5.7881722
-20.252611 -6.108613 4.1613402
-19.810381 -6.5007496 4.1015201
-20.074169 -7.1283188 4.1905437
-19.840219 -7.5892267 4.1787281
-19.132021 -7.852653 4.0683093
-18.710918 -8.2128143 4.0197444
-18.56204 -9.2400446 4.0788946
-13.504418 -21.837721 5.0509386
-12.78707 -21.838879 4.978363
-3.6386034 -7.3941436 1.621142
-3.4806054 -7.5262585 1.6312108
-3.3052149 -7.6247697 1.6347941
-2.802583 -6.9181509 1.4683595
-2.6883252 -8.3208189 1.7201686
-1.9050342 -7.781394 1.5759495
-1.645454 -7.5002618 1.510529
-1.4002246 -7.209558 1.4447541
-2.0873487 -21.838177 4.3155484
-0.49977538 -21.82831 4.2951555
0.027153321 -21.855526 4.2993846
0.55583006 -21.8985 4.3092246
1.0877392 -21.952028 4.323667
1.6242285 -22.015347 4.3425927
2.1694677 -22.11685 4.3716731
12.971313 -8.0590487 3.0040882
14.022597 -8.2499771 3.2005041
14.483212 -7.6052203 3.2180316
14.34355 -7.0956898 3.1480236
15.261689 -7.0967569 3.3109729
15.276601 -6.6601915 3.2783759
17.187216 18.408682 4.9543376
15.989238 17.976322 4.7327166
13.909404 17.24654 4.3586106
9.3273191 15.778095 3.6056249
6.8403368 16.684202 3.5472233
6.3770556 16.690838 3.514884
5.0330124 16.710094 3.4330516
4.7565722 19.082487 3.8687389
3.5601561 28.65333 5.6799808
2.8186619 28.239983 5.5829263
2.1525049 28.513268 5.6250458
-19.733032 -6.2927499 4.074451
-19.72624 -7.3567686 4.1415954
-19.692011 -7.8903899 4.1731811
-19.122831 -8.2032642 4.0933337
-19.072601 -8.7325182 4.1264963
-18.655107 -9.0921717 4.0824671
-19.535234 -21.778557 5.7552524
-18.650537 -21.829967 5.6482139
-17.756773 -21.82917 5.5355091
-16.073822 -21.833208 5.3334184
-15.276479 -21.834864 5.2422142
-13.758393 -21.837311 5.0773268
-13.033731 -21.838482 5.0029864
-3.790791 -7.1101947 1.5850786
-3.6784618 -7.3196998 1.6115202
-3.3661621 -7.5904717 1.6334285
-3.1903613 -7.6896019 1.6377125
-2.3882666 -7.8106055 1.6067131
-1.7359619 -7.6077509 1.5350517
-1.4828759 -7.3074632 1.4668111
-1.3267871 -8.6650238 1.7244352
-1.1223438 -8.7337923 1.7322252
-1.740332 -21.834646 4.3089008
-1.2104346 -21.825331 4.3000422
-0.15585449 -21.841232 4.2966814
0.37199217 -21.88246 4.3053041
0.90268552 -21.933405 4.3183575
1.9776514 -22.062273 4.3574529
2.5336719 -22.220472 4.3995023
3.1277783 -22.575972 4.483531
13.758462 -8.7086792 3.2031689
14.549722 -7.7963357 3.2472081
14.696489 -7.4242172 3.2390282
13.931982 -6.620965 3.034425
15.268071 17.720007 4.6013288
11.640029 16.489773 3.9706089
10.894794 16.252834 3.8491087
10.198447 16.037668 3.7387621
9.5450783 15.841908 3.6383574
7.9260645 15.608671 3.4437127
7.4786229 16.675056 3.5950921
7.0032272 16.681866 3.5590789
5.6287403 16.701559 3.4670744
4.7451072 18.378971 3.7340398
4.7805467 20.55328 4.151135
5.1924024 28.492418 5.6972952
-8.0700636 28.247192 5.7790689
-18.096338 -8.1028681 3.9004529
-18.808125 -8.9725323 4.0993605
-17.193506 -21.830519 5.4664645
-16.3571 -21.832527 5.3665361
-15.550224 -21.834421 5.2731962
-14.770181 -21.835678 5.1858945
-13.282846 -21.838078 5.0282102
-12.564404 -21.826366 4.9542351
-3.7178612 -7.2461758 1.6021317
-3.6020899 -7.4583654 1.6293492
-2.6571727 -7.2035108 1.5103962
-2.5751512 -7.5364408 1.5667139
-1.8434668 -7.777904 1.5724449
-1.5681006 -7.4085059 1.4896779
-1.3973535 -8.6414003 1.7220036
-1.1935059 -8.7097998 1.7293892
-0.98785645 -8.7792902 1.7379472
-1.3941064 -21.82856 4.3028288
-0.8657617 -21.825232 4.2968054
1.2511914 -21.969774 4.3288641
1.7892724 -22.035509 4.3490567
3.5883691 -23.204802 4.6190686
13.466689 -9.1503572 3.2028356
13.627354 -8.7864504 3.1896722
14.112427 -7.714869 3.163924
14.241489 -7.3447232 3.1521959
14.146909 -6.8689647 3.0936601
14.173676 -6.4640555 3.0644994
15.26897 -6.5232263 3.2663202
16.808125 18.271034 4.8837829
14.589238 17.481802 4.4792194
13.622646 17.148363 4.30828
11.911323 16.577583 4.0156355
11.147666 16.332495 3.8899596
10.435019 16.11005 3.7758837
8.0907326 15.607627 3.4583173
7.6201315 15.610668 3.4172392
7.6459618 16.672659 3.6082599
6.6978025 16.686243 3.5370569
5.3385692 16.705717 3.450047
4.8993602 16.712013 3.4259233
4.7344141 17.722837 3.6086645
4.4876709 23.506863 4.7077446
3.3477979 28.671608 5.6785522
1.9744678 29.004251 5.7188764
-8.5248432 28.151823 5.7863269
-20.080858 -7.1081119 4.1904559
-19.826488 -7.5612621 4.1742435
-19.295391 -7.8972082 4.1013684
-18.966196 -8.3022738 4.072803
-18.948261 -8.845295 4.113605
-12.338218 -7.6911149 2.8601079
-17.491245 -21.829807 5.5027885
-16.643955 -21.831839 5.4004507
-14.274448 -21.836479 5.1320257
-13.53458 -21.837673 5.0540538
-3.8667235 -6.9688015 1.5677818
-3.7568309 -7.1734934 1.5929664
-3.6433837 -7.3852177 1.6199812
-3.3124902 -7.6206713 1.6346239
-2.7538671 -7.277288 1.5306498
-2.6929247 -8.3066607 1.7177968
-2.1170654 -7.7939115 1.5887629
-1.6560888 -7.5128789 1.5134032
-1.4677392 -8.6178961 1.7197105
-1.0594727 -8.7550364 1.7348417
-1.048872 -21.823689 4.29808
-0.52156734 -21.828127 4.2952204
0.0052978513 -21.853817 4.2990508
0.53386718 -21.896292 4.3086853
1.601914 -22.012621 4.3417387
13.324003 -9.2174978 3.187149
13.497426 -8.8636312 3.1765289
14.331728 -7.9914184 3.2279906
14.516768 -7.6413536 3.2271831
15.33894 -7.1513133 3.3292785
13.948813 17.260071 4.3655481
13.034008 16.948994 4.2060661
12.189732 16.668518 4.0622621
11.406631 16.41486 3.9321959
8.7482862 15.612153 3.5204992
8.2568407 15.606601 3.4732964
7.7822213 15.609599 3.4311566
7.3188086 15.61271 3.3920183
6.8597021 16.683924 3.5486224
6.3960595 16.690565 3.5161724
5.9405808 16.697092 3.4863226
5.051167 16.709833 3.4340336
4.7551608 18.996 3.8521631
4.7930174 21.318579 4.2984428
4.6889744 23.49114 4.7122984
4.9463916 28.325766 5.6565204
3.5889111 28.650856 5.6801958
2.1802928 28.501869 5.6232233
-8.2668848 28.147963 5.7710919
-19.723896 -6.2681565 4.0712695
-19.712831 -7.3293753 4.1372471
-19.683632 -7.8641958 4.1697416
-18.67417 -9.0783606 4.0846481
-17.655449 -9.116293 3.9088194
-18.686558 -21.827875 5.6525049
-17.792953 -21.829079 5.5399814
-15.308984 -21.834808 5.2458768
-13.788853 -21.837263 5.0805144
-13.063295 -21.838434 5.0059614
-12.35082 -21.826302 4.9333987
-3.6831787 -7.3108935 1.6103886
-3.1976464 -7.685482 1.6375141
-2.7719629 -7.1437345 1.5073899
-2.1885545 -7.7982593 1.5933293
-1.983706 -7.7859025 1.5805607
-1.4929248 -7.3193698 1.4694996
-1.5379639 -8.5945015 1.7175523
-1.3352149 -8.6622 1.7241402
-1.1308447 -8.7309237 1.7318797
0.35012695 -21.880751 4.3048992
1.9548242 -22.055777 4.355783
2.5104249 -22.213861 4.3976908
3.1022217 -22.557226 4.4791899
13.899028 -8.3536444 3.1900346
14.159003 -8.0512905 3.2041588
13.957232 -6.650106 3.0413744
15.261475 -6.3872867 3.2545464
15.3125 17.735708 4.6093774
14.28478 17.376011 4.4249854
12.475508 16.762695 4.1105485
10.924687 16.262197 3.8539097
10.226397 16.046181 3.7431285
9.5712938 15.849643 3.6423254
8.9543304 15.670556 3.550462
7.4985352 16.67477 3.5966465
7.0226707 16.681587 3.5605114
6.5561085 16.688271 3.5271387
6.0978565 16.694836 3.4963989
5.6472654 16.701294 3.4681902
5.2036376 16.707651 3.4424224
4.7662988 16.713919 3.419013
4.7789259 20.453876 4.1320186
4.8228903 23.150305 4.6518683
4.4325876 27.977757 5.5723867
3.847954 28.762947 5.7086105
-20.031475 -7.2574334 4.1912107
-19.744028 -7.6972103 4.1687274
-19.324965 -8.07623 4.1202025
-18.171888 -8.1148663 3.9149871
-16.39105 -21.832445 5.3705273
-14.04582 -21.836847 5.107614
-12.600805 -21.83918 4.9600024
-3.8334715 -7.0306888 1.5752956
-3.6079395 -7.4514384 1.6286235
-3.4342871 -7.5522141 1.6320546
-2.5763233 -7.5153275 1.5628599
-1.5784765 -7.4208031 1.4924678
-1.4057617 -8.6385908 1.7217234
-0.99639159 -8.7763977 1.7375697
0.16668946 -21.866425 4.301652
0.696123 -21.912619 4.3127918
1.7669042 -22.032778 4.3481684
2.3163719 -22.158648 4.3827667
2.8898046 -22.401466 4.4432979
3.5529735 -23.128622 4.6031976
13.445991 -9.1166697 2.8173473
13.864042 -8.9194746 2.8589966
13.964013 -8.0588007 2.7960742
14.414516 -7.8613219 2.8474536
15.213046 -6.4813523 2.867799
17.032558 16.843262 4.1542749
15.883354 16.483671 3.9698682
13.883105 15.874269 3.6573253
13.004604 15.614651 3.5241613
12.32397 15.545459 3.4404008
11.90918 16.609558 3.5444524
10.189829 16.633183 3.3828948
9.1251411 16.648806 3.2925847
8.1136227 16.663874 3.2143023
7.6251416 16.67115 3.1792786
5.7653952 16.698862 3.0637615
5.3201122 16.7055 3.0405297
4.7652879 19.823666 3.5358722
4.8061423 22.354364 3.9654088
-19.876015 -7.0579586 3.657891
-18.754751 -8.7777843 3.5911705
-18.040932 -8.9806356 3.4949803
-12.3221 -7.6981659 2.5197294
-19.223774 -21.795979 5.0401535
-17.455845 -21.830299 4.8474603
-16.609858 -21.832321 4.7574911
-15.005932 -21.83531 4.5948339
-14.243369 -21.83654 4.5214243
-13.504414 -21.837732 4.4528832
-12.78708 -21.838888 4.3888974
-3.8408837 -6.9385571 1.3753861
-3.7311277 -7.141757 1.3974065
-3.6107569 -7.3375511 1.4182508
-3.4370799 -7.4321532 1.4200855
-3.2637987 -7.5292253 1.423166
-2.7187696 -7.2062783 1.3357408
-2.5255322 -7.2167544 1.3259981
-2.2961376 -7.7406492 1.4002446
-2.0910351 -7.7286229 1.3885343
-1.6107421 -7.3420272 1.3035796
-1.4438672 -8.529192 1.5002278
-1.027041 -21.82402 3.7890356
-0.49977049 -21.828459 3.7866087
0.55584472 -21.898983 3.7990692
2.169585 -22.118046 3.8542516
3.3445799 -22.737854 3.9857652
13.30372 -9.1838198 2.8035607
13.717509 -8.9885712 2.8442082
12.906499 -8.0187807 2.6351519
14.048227 -7.8149667 2.7879345
14.836118 -7.7905321 2.9061253
15.221498 -6.6361699 2.8797722
16.26956 16.60383 4.0314918
13.301542 15.701782 3.5688536
12.536695 15.544479 3.4633081
11.931406 15.547334 3.3987854
11.52102 16.614872 3.5064116
10.942139 16.622822 3.4513426
10.380844 16.630552 3.3999321
9.8357906 16.638222 3.35198
9.3058538 16.646116 3.3073547
8.2857513 16.66131 3.2270861
5.9216113 16.696535 3.072329
5.0329394 16.70978 3.0265002
4.7224607 17.169008 3.0881341
4.7531052 19.068573 3.4081714
4.8354344 24.351616 4.3056531
4.2180958 28.340832 4.9691696
2.1315672 28.23588 4.9107628
-8.2975092 28.148193 5.0893006
-19.671284 -6.2730627 3.5807726
-20.322973 -8.1432095 3.796936
-18.721752 -8.0312128 3.5329742
-18.893921 -8.6506958 3.6038122
-17.757093 -21.829576 4.8801622
-16.074116 -21.833601 4.7019925
-14.505312 -21.836117 4.5463428
-12.322568 -21.827169 4.3469787
-3.6547704 -7.2725596 1.4115559
-3.3240137 -7.4954352 1.4219923
-3.1503077 -7.5930753 1.4256734
-2.7372119 -7.0751181 1.3156334
-2.5050976 -7.5372357 1.3774568
-1.4524755 -7.1576648 1.2666246
-1.5133789 -8.5061493 1.4983516
-1.1103418 -8.6404371 1.5107963
-2.2722266 -21.839172 3.8079228
-1.2104346 -21.825386 3.7909026
-0.15585449 -21.841633 3.7879987
0.37200683 -21.88286 3.7955999
1.437456 -21.993095 3.8223095
1.977749 -22.063459 3.8417156
3.1282275 -22.57918 3.9532146
13.99435 -8.8579988 2.872309
14.07684 -7.5429454 2.76968
15.553584 16.38166 3.9175541
13.60687 15.792038 3.6151476
11.548276 15.549238 3.3590045
11.726342 16.612059 3.5264239
10.573774 16.627893 3.4173772
8.4592676 16.658726 3.2401958
7.9630957 16.666119 3.2033148
7.4778662 16.673344 3.1690874
4.7417674 18.36602 3.2895861
4.7768064 20.537228 3.6567583
4.4429884 24.380127 4.2977824
4.4261522 28.118856 4.9365802
2.414712 28.773312 5.0075779
-8.7840815 28.15547 5.1150055
-20.193184 -6.2535992 3.66611
-19.816416 -6.6650944 3.6258569
-19.827187 -7.2057805 3.6585901
-17.96974 -8.0461836 3.4145629
-18.598579 -8.8725672 3.5737059
-17.80316 -9.0268097 3.461729
-19.849644 -21.7596 5.1079412
-18.953354 -21.811697 5.0113177
-15.550239 -21.834433 4.6488252
-14.015034 -21.836908 4.4999638
-13.282851 -21.838087 4.4328427
-3.8076854 -6.9999876 1.3819569
-3.6968651 -7.2052588 1.4044545
-3.571665 -7.3953509 1.4242893
-3.3841553 -7.4617472 1.4209294
-3.0364549 -7.6573467 1.428581
-2.7020702 -7.3252225 1.3540559
-2.5161426 -7.3637524 1.3495579
-2.5181251 -7.9951644 1.4537141
-2.2330518 -7.7369213 1.3965516
-2.029038 -7.7250896 1.3851719
-1.7895947 -7.5506077 1.3457478
-1.5827343 -8.4832077 1.4965937
-1.3825048 -8.5495729 1.5019773
-1.1807715 -8.6168518 1.5083491
-2.4574413 -21.840069 3.8115337
-1.3941162 -21.828615 3.7933581
-0.33865723 -21.829815 3.7863073
0.18851073 -21.86853 3.792711
1.2512256 -21.970345 3.8163993
2.3395751 -22.166416 3.8655841
2.9153612 -22.423065 3.9214685
3.5903368 -23.217487 4.0743699
13.19872 -8.0659342 2.6825883
13.950917 -8.0698452 2.7950652
14.891274 -7.6798339 2.90575
17.082655 16.859087 4.1623893
15.928696 16.497744 3.9770849
14.87999 16.175091 3.8116138
13.039546 15.624867 3.5294006
12.349209 15.545341 3.4431086
11.750894 15.54822 3.3799345
11.934057 16.609219 3.5469189
11.342094 16.617323 3.489171
10.21249 16.632872 3.3849018
9.1466017 16.648485 3.2943261
7.6451268 16.670851 3.1806774
7.1665134 16.677982 3.1481187
4.8992968 16.711769 3.0202312
4.8042526 22.237577 3.9455442
4.6515379 24.365185 4.301867
4.6978855 28.299686 4.9750614
-8.5247707 28.15159 5.1011467
-19.882637 -7.0379462 3.6578124
-19.720629 -7.5208988 3.6603441
-20.051138 -8.2065163 3.7573602
-19.175541 -8.3939114 3.6301916
-18.073452 -8.9743233 3.4995427
-12.33831 -7.6911664 2.5214705
-19.26063 -21.793835 5.0441074
-17.491562 -21.830214 4.8513212
-16.644238 -21.832239 4.7610936
-15.038047 -21.835258 4.597981
-13.53458 -21.837683 4.455627
-12.110996 -21.827099 4.3290434
-3.6160252 -7.3297672 1.4174436
-3.2709863 -7.5251884 1.4230195
-2.3046923 -7.7411571 1.4007517
-1.6210889 -7.3540831 1.3060069
-1.4521631 -8.5264387 1.4999964
-1.251001 -8.5933838 1.506023
-1.0481299 -8.6613131 1.513054
0.0053027342 -21.854218 3.7900877
2.7060351 -22.270691 3.8907182
13.700146 -8.9967604 2.8424695
12.866928 -8.0120192 2.6287055
14.080717 -8.3031197 2.8349078
14.833701 -7.8081865 2.907182
14.031177 -6.9586282 2.7161853
14.244555 15.982622 3.7128997
11.956055 15.547214 3.4013677
12.144258 16.606342 3.5679131
11.545385 16.614538 3.5087743
10.40376 16.630234 3.4019897
9.8580465 16.63789 3.3538976
9.3274994 16.645796 3.3091381
8.8106737 16.65349 3.267442
7.3315573 16.675524 3.1591351
6.8591452 16.682564 3.1281872
6.3956347 16.689472 3.0996332
4.7517138 18.982199 3.3935759
-8.2668114 28.147734 5.0877194
-19.662226 -6.2485666 3.5779865
-18.349829 -8.9206867 3.5384588
-17.793285 -21.829489 4.8841128
-16.934755 -21.831543 4.7917109
-14.536728 -21.836067 4.5493517
-13.788847 -21.837273 4.4789538
-13.063311 -21.838442 4.4132309
-12.351323 -21.827179 4.3494291
-3.7741747 -7.0620193 1.3886677
-3.6599901 -7.264863 1.410772
-3.3311913 -7.4914117 1.4218589
-2.684912 -7.4475336 1.372964
-2.4331641 -7.9291101 1.4384004
-1.521665 -8.5034046 1.4981364
-1.3210156 -8.5700369 1.5038185
-1.1187549 -8.6376181 1.5104982
-1.7622802 -21.835087 3.7990837
1.9549267 -22.056965 3.840241
5.8072948 -7.7434182 1.6786094
13.555322 -9.0650787 2.8280773
13.976699 -8.8663549 2.8705003
14.335185 -8.1514807 2.8599217
14.108481 -7.5780511 2.7773931
15.229033 -7.2560697 2.9255755
15.231089 -6.8110423 2.8935418
16.717573 16.744101 4.1034226
13.643877 15.803029 3.6207855
12.783892 15.550326 3.4911652
11.572324 15.549116 3.3614819
11.75105 16.611721 3.5288501
11.164892 16.619761 3.4722929
10.596924 16.627571 3.4194822
9.5100384 16.643074 3.3243206
8.9885492 16.650839 3.281574
7.9834619 16.665815 3.2047899
7.4977536 16.673048 3.1704559
7.0220699 16.680136 3.1386547
6.0975242 16.693911 3.0822308
5.6470509 16.700624 3.0574133
5.2035108 16.707235 3.0347443
4.7662497 16.713755 3.0141516
4.7425585 18.29373 3.2774804
4.8186669 23.130026 4.0974641
4.4677978 24.378382 4.298255
2.4493017 28.838976 5.0194297
-8.7531443 28.155006 5.1133361
-19.807098 -6.6399322 3.6229382
-19.833778 -7.1858029 3.6584806
-19.462221 -8.1335945 3.6581492
-18.044296 -8.057889 3.427196
-18.632725 -8.8660078 3.5785632
-19.887587 -21.757395 5.1120958
-18.989784 -21.80958 5.0151873
-18.099146 -21.82876 4.917695
-17.229057 -21.830839 4.8230696
-15.583442 -21.834772 4.6521921
-14.045825 -21.836861 4.5028424
-13.312719 -21.838041 4.4355302
-12.600815 -21.83919 4.3727107
-3.8121874 -6.9916544 1.381061
-2.7043602 -7.3088937 1.3515364
-2.5174315 -7.3435392 1.3463151
-2.5299609 -8.0048399 1.4559306
-2.0373876 -7.725554 1.3856184
-1.8006152 -7.563488 1.3483622
-1.5455614 -7.2660732 1.2883165
-1.5909911 -8.4804792 1.4963911
-1.1891601 -8.6140471 1.5080659
-1.4160693 -21.829 3.7936699
-0.36047363 -21.829628 3.7863371
0.16669433 -21.866825 3.7923827
1.2290088 -21.967628 3.815711
2.316494 -22.159847 3.8640332
3.5549316 -23.14126 4.0603704
13.730078 -8.8332891 2.4540534
14.052446 -8.1098356 2.4388087
14.645713 -7.987412 2.5075779
14.974755 -7.2524481 2.5010169
15.001245 -6.8233914 2.4772096
22.706299 -7.7863259 3.6081848
16.431343 15.482492 3.3935704
16.723852 16.537994 3.5354064
15.945912 16.548595 3.4543829
15.202382 16.558746 3.3789203
12.5183 16.59812 3.1249707
11.316865 16.616013 3.0218909
10.744726 16.624533 2.9754059
8.6132174 16.656286 2.8186235
8.1135597 16.663733 2.7859306
7.6250682 16.671007 2.7555718
6.6780124 16.685122 2.7014344
5.7653513 16.698725 2.6554534
4.8812304 16.711905 2.6170013
4.7802391 17.966311 2.7945507
4.7617188 19.808828 3.0623724
4.8021045 22.335608 3.4340837
4.8005514 25.282885 3.8682811
-9.3070555 28.163061 4.4584913
-11.854815 22.327089 3.7998235
-12.488169 21.005596 3.6733031
-13.111909 20.89012 3.707376
-19.454794 -6.384068 3.0777593
-19.781353 -7.5667105 3.1835296
-17.952972 -8.9368553 3.0144572
-12.322172 -7.6982217 2.1839542
-19.223213 -21.795336 4.3683577
-15.79457 -21.834658 4.0507483
-15.005942 -21.835321 3.9825134
-14.243379 -21.836552 3.9188859
-12.78707 -21.838898 3.8040259
-3.680166 -7.044229 1.1946437
-3.5555713 -7.2254009 1.2104601
-3.4277539 -7.4119697 1.2274971
-3.0517676 -7.5332708 1.2217473
-2.2932715 -7.7310028 1.2121294
-2.0715039 -7.656404 1.1922462
-1.5777148 -7.1914811 1.1066914
-1.6266112 -8.3751831 1.2824342
-1.4288183 -8.4403028 1.2867503
-2.6208692 -21.840754 3.3065386
-1.027041 -21.824169 3.2841191
0.5558545 -21.899462 3.2928662
1.6243066 -22.016481 3.3183904
2.7310498 -22.290705 3.3756702
3.3450487 -22.741076 3.4550951
13.976616 -8.6836376 2.4733553
14.308906 -7.5136895 2.4293382
14.965918 -7.4035764 2.5098093
14.991977 -6.9713383 2.4852338
16.21187 16.544968 3.4818547
14.734048 16.565153 3.3324296
13.376162 16.585346 3.202774
12.735336 16.594887 3.1443377
11.519707 16.612988 3.0387878
10.941342 16.621607 2.991184
9.3057709 16.645966 2.8665776
8.7894773 16.65366 2.8305426
6.8397312 16.682713 2.710227
6.3766012 16.689617 2.6855614
4.7193651 17.157768 2.6748431
4.8009129 19.260368 2.9836974
4.7870164 21.391682 3.2950079
4.8341599 24.345228 3.7308867
2.8885889 28.940474 4.3717871
-12.307373 21.102003 3.6720006
-12.866987 20.886452 3.6874664
-20.15147 -6.4261942 3.1793492
-19.657064 -6.7953191 3.1263115
-19.579824 -7.3021679 3.1411462
-18.865078 -8.0926943 3.0855968
-18.226231 -8.8831501 3.0477362
-17.757437 -21.829985 4.2298899
-16.074394 -21.833992 4.0754619
-14.505327 -21.836128 3.9404814
-13.033735 -21.838501 3.822835
-3.7227049 -6.9824896 1.1894203
-3.4724998 -7.3465705 1.2214415
-2.6501806 -7.3742266 1.1778626
-2.4482861 -7.3662968 1.1668162
-2.1441064 -7.6693168 1.1970128
-1.6633593 -7.2895923 1.1238942
-1.6949853 -8.3527565 1.2811292
-1.2989502 -8.4832449 1.2900159
-2.2722411 -21.839272 3.3004797
-1.7403467 -21.834755 3.2924891
-0.15586425 -21.842028 3.2832568
0.90272945 -21.934372 3.2998443
1.4374951 -21.993656 3.3130212
2.5339403 -22.222883 3.3620691
3.1286571 -22.582355 3.4268835
5.815908 -7.7387486 1.4551271
13.472309 -8.9901333 2.4345644
13.845019 -8.7634764 2.4629743
14.170141 -8.0389395 2.4488695
14.572763 -7.8086834 2.4851546
14.825195 -7.4892364 2.4966459
14.982759 -7.1203327 2.4935122
15.009443 -6.6939006 2.4703403
16.191494 15.483582 3.3675323
15.715054 16.551741 3.4307396
14.981421 16.561768 3.3568804
14.278823 16.571903 3.2881219
12.329311 16.600933 3.1082885
11.724858 16.609936 3.0560906
10.573271 16.627087 2.9618199
10.023095 16.635283 2.9193354
9.4881496 16.643251 2.8797002
8.459199 16.658579 2.8083739
7.4778028 16.673203 2.7467394
7.0025635 16.680285 2.7192681
5.6284714 16.700766 2.6491003
5.1852589 16.707373 2.629528
4.7482371 16.713886 2.6117535
4.6098533 25.295723 3.8649352
2.4053028 28.661201 4.3233371
-8.0791988 28.27915 4.4208379
-9.5132809 28.089724 4.4578562
-11.739424 21.721216 3.711355
-13.329844 20.893381 3.7253106
-19.604233 -6.5937271 3.1090119
-19.758257 -7.1807384 3.1600096
-19.262953 -8.0729847 3.1395006
-17.84586 -7.9907174 2.9391222
-18.952797 -21.81106 4.3433609
-17.194155 -21.831326 4.1771359
-15.550243 -21.834442 4.0293055
-14.770185 -21.835701 3.9625945
-13.282851 -21.8381 3.8421092
-12.565414 -21.828127 3.7858875
-3.5168457 -7.2818427 1.215536
-2.611284 -7.6421905 1.2139405
-2.005161 -7.6341996 1.1864518
-1.7632324 -8.3304119 1.2799226
-1.5662842 -8.39501 1.2836663
-2.4574561 -21.840168 3.3036101
-1.3941064 -21.828669 3.2878528
-0.86577147 -21.825527 3.2832732
0.71810544 -21.915791 3.2960284
1.7893652 -22.036648 3.3233306
2.3396873 -22.167606 3.3506207
2.9157665 -22.426199 3.3993559
13.714595 -8.842701 2.4528639
14.036587 -8.1193933 2.4374614
14.62291 -7.9939384 2.5050397
15.000141 -6.8409719 2.4781542
16.464136 15.482346 3.3971417
14.51935 16.568325 3.3114293
13.835405 16.578505 3.2457659
12.544028 16.597736 3.1272545
11.340942 16.615654 3.0238903
10.212241 16.632463 2.9337475
9.1465139 16.64834 2.8552868
8.6341896 16.655975 2.8200328
8.1340132 16.663427 2.787235
7.6450729 16.67071 2.7567821
7.16646 16.677841 2.7285645
5.7839403 16.698446 2.6563256
4.7602344 19.716013 3.0487585
4.8263965 25.281115 3.8687499
2.6916552 29.141781 4.3990788
-13.082559 20.889679 3.7049768
-19.426138 -6.3531833 3.0722229
-19.704145 -6.9747667 3.1418982
-19.194946 -7.8560977 3.1175811
-17.98521 -8.9305182 3.0183716
-12.338388 -7.6912179 2.1854668
-20.168467 -21.740381 4.4575562
-19.260054 -21.793196 4.3717809
-18.372412 -21.828518 4.2886534
-17.491894 -21.830618 4.2048926
-16.644556 -21.832634 4.1266913
-15.827681 -21.834579 4.0536566
-14.274458 -21.8365 3.9214337
-13.534595 -21.837694 3.8618572
-3.6852586 -7.0368328 1.1940119
-3.560791 -7.2177978 1.2097816
-3.2308202 -7.4327841 1.2182368
-2.3026073 -7.7341571 1.2129848
-2.0805371 -7.6594348 1.1930422
-1.8429931 -7.4955316 1.1602442
-1.587793 -7.2030215 1.1087123
-2.1093895 -21.838484 3.2979169
-1.5781054 -21.831903 3.2902129
-0.52157223 -21.828423 3.2820642
0.0053027342 -21.854616 3.2850683
1.0657032 -21.950773 3.3034081
1.601997 -22.013758 3.3177373
2.1467676 -22.112707 3.3394878
2.7062645 -22.272522 3.3725042
13.585298 -8.9213381 2.4430177
13.960859 -8.6931896 2.4721031
13.592749 -8.0153694 2.3719666
14.336352 -7.5463881 2.4352756
14.990884 -6.9890451 2.486208
16.741646 15.481108 3.427525
15.955195 15.484673 3.3420689
16.243847 16.544533 3.485172
13.403213 16.584944 3.2052801
10.964897 16.621254 2.9930894
9.857954 16.637741 2.9069188
9.3274269 16.645643 2.8681254
8.3063087 16.660856 2.7983477
6.859087 16.682425 2.7112916
5.9402442 16.696115 2.6637781
5.4922657 16.702795 2.642921
4.7995214 19.173183 2.9709294
4.7852979 21.284184 3.2791827
4.4194531 25.308201 3.8617527
2.9191895 28.954512 4.3743458
-8.2667475 28.147505 4.4096751
-11.629785 21.143888 3.6272724
-12.285756 21.113411 3.671845
-20.153355 -6.4046469 3.1786351
-19.586361 -7.2823501 3.1410272
-18.928511 -8.0975161 3.094646
-18.259268 -8.8766594 3.0517755
-19.571381 -21.775095 4.4008875
-17.793627 -21.829897 4.2333179
-15.308984 -21.834831 4.0084295
-14.536738 -21.836079 3.943089
-13.063315 -21.838453 3.8251092
-12.351807 -21.828054 3.7699621
-11.665488 -21.827812 3.7202024
-3.4778075 -7.3388195 1.2207286
-3.1186669 -7.4956713 1.220338
-2.9461865 -7.5927439 1.2242079
-2.6525683 -7.35781 1.1756605
-2.4497266 -7.3461847 1.1640157
-2.3815284 -7.7608404 1.2202556
-1.9373291 -7.6038885 1.1794889
-1.6737792 -7.3015294 1.1259931
-2.8288426 -21.840673 3.3103971
-1.2322656 -21.825825 3.2859619
0.3501367 -21.88155 3.2895348
1.9550341 -22.058144 3.3286548
5.806572 -7.7424521 1.4547312
13.457094 -8.9993896 2.4334352
14.154175 -8.0485497 2.4474971
14.562378 -7.8218498 2.4847114
14.814682 -7.5024743 2.496134
17.028652 15.483923 3.4596093
16.223686 15.483435 3.3710155
16.514633 16.540842 3.5134149
12.354848 16.600552 3.1105309
11.749521 16.60957 3.0581849
11.163911 16.61829 3.0092974
10.596396 16.626743 2.9636438
10.045523 16.634949 2.9210327
8.4799414 16.658272 2.8097429
7.0220165 16.679996 2.7203631
6.0974708 16.693777 2.6714623
5.6470065 16.700487 2.6499512
5.2034764 16.707102 2.6303027
4.7662158 16.713617 2.6124542
4.7715182 20.422216 3.1524315
2.4397411 28.726355 4.3335285
-8.0775776 28.380566 4.4354334
-13.300263 20.892939 3.7228606
-20.181454 -6.2278662 3.1747203
-19.597954 -6.5698247 3.1069739
-19.751781 -7.1560936 3.1578283
-19.27998 -8.0574265 3.1409588
-17.919458 -8.0021391 2.9499238
-18.539961 -8.821867 3.0862286
-18.099482 -21.829166 4.2624283
-16.39164 -21.833237 4.1038203
-15.58373 -21.835157 4.0323033
-12.600815 -21.839199 3.7899792
-11.901601 -21.827894 3.737077
-3.349751 -7.3663006 1.2163697
-3.1783299 -7.462194 1.2191795
-3.0061669 -7.558939 1.2227741
-2.6722851 -7.2221947 1.1575313
-2.6138184 -7.6247106 1.2115788
-2.233911 -7.7109833 1.2067332
-1.7624463 -7.4031582 1.1439003
-1.7713866 -8.3277454 1.2797856
-1.176704 -8.5238085 1.2934031
-2.4795215 -21.840275 3.303997
-1.9467431 -21.837694 3.2955377
-1.416079 -21.829054 3.2881193
-0.88760251 -21.825344 3.2833753
-0.36047363 -21.829777 3.2817779
1.2290429 -21.968191 3.3073022
1.7669873 -22.033913 3.3226483
2.3166161 -22.161041 3.3492773
2.8906152 -22.407745 3.3961186
3.5568407 -23.153757 3.5211718
13.564854 -8.7269897 2.0542591
13.937846 -8.4985285 2.0790708
13.748925 -7.934669 2.0217311
14.727319 -7.5766797 2.1093216
15.900829 -7.2325726 2.2247679
22.699804 -7.7841034 3.0562835
16.721201 16.535358 2.9950151
15.944306 16.54693 2.9265501
15.201684 16.557987 2.8627734
14.490336 16.568584 2.8033116
13.807549 16.578753 2.7478404
12.518178 16.59796 2.6477118
11.907393 16.607058 2.6025574
10.744634 16.624382 2.5209923
10.189511 16.632654 2.4842234
9.650053 16.64069 2.4499192
9.1249905 16.648512 2.4179404
8.6131344 16.656139 2.388154
8.1134815 16.663588 2.360456
7.6250143 16.670866 2.334734
7.1467772 16.677996 2.3108985
6.677949 16.684984 2.288866
4.8811865 16.711773 2.217325
4.7770262 17.954252 2.3661923
4.5691648 27.695457 3.5749469
3.9541502 28.187292 3.6250591
1.8960693 28.269558 3.6084721
-8.5554876 28.151588 3.7472801
-9.3069725 28.162828 3.7775762
-11.598472 26.274605 3.657846
-11.203745 23.808044 3.3511357
-11.31935 21.318623 3.0741179
-12.027231 21.389101 3.1252294
-13.43835 21.410212 3.2194073
-19.495953 -6.9229946 2.6348865
-19.633232 -7.5100503 2.6771617
-19.065586 -7.8253856 2.6247516
-17.45649 -21.831102 3.5599694
-16.610449 -21.833111 3.4938977
-15.005942 -21.835331 3.3743219
-14.243374 -21.836561 3.3204076
-12.787094 -21.838911 3.2230937
-12.083467 -21.828823 3.1776221
-11.404048 -21.828571 3.1365991
-3.502368 -7.1172833 1.0102574
-3.3757763 -7.2995944 1.0242707
-3.0148926 -7.4422398 1.0226581
-2.6060545 -8.066164 1.0795854
-2.3847656 -8.0394411 1.067993
-1.7937255 -7.3267307 0.96068311
-1.8047071 -8.2261705 1.0725929
-1.6100049 -8.2896614 1.075491
-2.6208789 -21.841061 2.801615
-2.087373 -21.838476 2.7940068
-1.5561621 -21.831572 2.7875061
-1.0270507 -21.824316 2.7826014
0.5558691 -21.899939 2.7900548
1.6243457 -22.017042 2.811693
2.1698241 -22.120413 2.8307538
2.7314208 -22.293774 2.8605437
14.534267 -8.0853405 2.1182058
14.727036 -7.7332506 2.1184864
15.806157 -7.3499389 2.2200575
13.376016 16.585182 2.7136352
12.735205 16.594728 2.6641192
12.117061 16.603933 2.6178813
10.380381 16.629808 2.4967036
9.8356152 16.637924 2.4615564
8.7893991 16.653515 2.398253
8.2856245 16.661022 2.3698399
7.3116894 16.675537 2.3189638
6.8396778 16.682573 2.2963145
6.376543 16.68948 2.2754149
5.9215136 16.696259 2.2561951
5.4738231 16.702934 2.2385879
5.0328369 16.709511 2.2225411
4.7831836 21.374563 2.7895751
4.8644137 28.021315 3.6221466
4.2044334 28.248985 3.6373956
2.8927441 28.982201 3.7094872
-9.0447311 28.158909 3.7667487
-10.982075 22.413416 3.1787975
-12.478765 21.395857 3.1545537
-18.857714 -8.6341343 2.6414714
-15.276504 -21.834896 3.3939111
-14.505332 -21.83614 3.3387108
-13.758418 -21.837345 3.2871568
-13.033759 -21.838512 3.2390337
-3.545542 -7.0552115 1.0056267
-3.4201074 -7.2357206 1.0192922
-2.5575049 -7.6949143 1.0327286
-1.872085 -8.2043457 1.0717551
-1.6777002 -8.2675486 1.0744087
-1.2856152 -8.3961115 1.0817838
-2.8067088 -21.841061 2.804533
-2.2722461 -21.839373 2.7964568
-1.7403516 -21.834808 2.7896819
-1.2104492 -21.825495 2.783947
-0.68272948 -21.827211 2.7812548
0.37201658 -21.883652 2.7874815
0.902749 -21.934851 2.7959697
1.4375292 -21.994219 2.8071423
1.9779589 -22.065813 2.8215497
2.5340772 -22.224077 2.8487761
3.1291015 -22.58552 2.9039538
14.053764 -8.4275818 2.0870304
14.045815 -7.9684067 2.0566847
14.211543 -6.7538242 2.0039644
16.479849 16.538958 2.9735632
14.980986 16.561277 2.8441467
12.955034 16.591452 2.6809278
11.139912 16.61849 2.5480485
10.573183 16.626936 2.5094788
10.023023 16.635132 2.4734828
9.4880714 16.643103 2.4399037
8.9671335 16.650866 2.4086046
8.4591255 16.658434 2.3794675
7.9629636 16.665833 2.3523827
7.4777389 16.673061 2.3272495
5.6284323 16.70063 2.2445195
5.185205 16.707235 2.2279398
4.748198 16.713755 2.2128794
4.7862692 18.538357 2.4384487
4.8642335 23.465881 3.0521252
4.3154101 27.415323 3.5345819
3.7351756 28.133314 3.6144757
1.6823339 28.198029 3.5976598
-8.0837202 28.294992 3.7478099
-8.7839499 28.155008 3.7562549
-9.5392132 28.1663 3.7873797
-11.096797 23.136187 3.2680004
-11.556113 21.382055 3.0954676
-12.237627 21.39225 3.1387975
-13.623135 21.35309 3.2258387
-14.057774 20.904079 3.2083428
-19.542231 -7.1022253 2.6481512
-19.770668 -7.7303162 2.7036047
-19.668701 -8.2430315 2.7160802
-19.051805 -8.5307007 2.6585557
-18.063198 -21.82966 3.6085875
-17.194462 -21.831722 3.5392871
-11.873842 -21.828745 3.1647692
-3.4640234 -7.1724596 1.0144325
-2.9627588 -7.4714799 1.0236453
-2.5358446 -8.0514164 1.0750784
-2.3258104 -8.0583019 1.0681895
-1.9794091 -7.5361509 0.99235302
-1.7452685 -8.2455101 1.0734068
-1.5502685 -8.3092031 1.0765135
-1.3540527 -8.3735867 1.080305
-1.9248047 -21.83769 2.7920122
-0.86578125 -21.825674 2.7818842
0.7181201 -21.916269 2.7927349
2.9161718 -22.429314 2.8806195
3.5942187 -23.242624 2.9953423
13.922231 -8.5080776 2.0780101
14.530288 -7.9433093 2.1090367
14.726196 -7.5946989 2.1102462
14.753618 -7.1635532 2.0887892
15.889526 -7.2465863 2.2241962
22.711494 -7.8134885 3.0589056
15.975741 16.546461 2.9292853
15.231812 16.557539 2.8653264
14.519194 16.568157 2.8056927
13.835254 16.578342 2.750061
13.177608 16.588137 2.6981359
11.93224 16.606688 2.6043646
10.767959 16.624033 2.5225704
10.212158 16.632315 2.4856966
9.6720943 16.640362 2.4512939
7.645 16.670568 2.3357596
7.1663961 16.677702 2.3118522
6.6971774 16.684696 2.2897446
5.7838964 16.698313 2.2506449
4.6039548 27.733854 3.5804937
1.9251122 28.279276 3.6099596
-8.5246143 28.151131 3.7460773
-9.2756443 28.162361 3.7762659
-11.616504 26.386816 3.6718481
-11.218691 23.901781 3.3627515
-11.291841 21.318211 3.0724242
-11.998891 21.38868 3.1234131
-12.693178 21.399067 3.1687517
-13.408271 21.409763 3.2173212
-20.111845 -6.5774374 2.6949291
-19.489721 -6.898859 2.6331115
-19.129896 -7.8294668 2.6325285
-18.213579 -7.9728255 2.5321753
-17.492212 -21.831018 3.5628045
-15.827988 -21.834965 3.4346647
-15.038042 -21.835279 3.376632
-14.274467 -21.836514 3.3225682
-13.534599 -21.837704 3.2720904
-12.816381 -21.838861 3.224967
-3.5075293 -7.1098514 1.0096986
-3.381079 -7.2919512 1.0236703
-3.1918895 -7.3432231 1.0197554
-3.0219481 -7.4382849 1.0225291
-2.9377685 -7.7632604 1.0571475
-2.6156151 -8.0681791 1.0802035
-2.3927393 -8.0368938 1.0679716
-1.8044677 -7.3388376 0.96250653
-1.812749 -8.2235651 1.0724893
-1.618081 -8.2870197 1.0753584
-1.4223095 -8.3511572 1.0789104
-3.1795557 -21.840912 2.8109624
-2.6430664 -21.841125 2.8019648
-0.52157712 -21.828569 2.7808604
0.0052929688 -21.855009 2.7834337
0.533916 -21.89773 2.7897046
2.1468749 -22.113884 2.8296454
3.3195164 -22.725212 2.9249828
13.385737 -7.8933024 1.9791228
14.71455 -7.7454691 2.1178026
15.794907 -7.3638959 2.2195089
14.763179 16.564522 2.8259203
14.069629 16.57485 2.7689416
12.761274 16.594337 2.6661034
12.142231 16.603559 2.6197357
11.543955 16.612471 2.5764239
10.964805 16.621098 2.5359752
9.3273335 16.645498 2.4300969
8.8105221 16.6532 2.3994737
8.3062353 16.660713 2.370975
7.8135104 16.668058 2.344496
6.8590331 16.682285 2.2972167
6.3955321 16.689196 2.2762456
4.7960935 19.15951 2.5154288
4.7814841 21.267229 2.7761865
4.8325047 24.210188 3.1442058
4.9001074 28.060699 3.6278687
3.5173535 28.079628 3.6041441
-8.2666798 28.147274 3.7362182
-12.449863 21.395428 3.1526549
-13.157563 21.40601 3.2000854
-19.649555 -7.850585 2.6948938
-18.7302 -8.0126772 2.5945752
-18.880707 -8.6218719 2.6434844
-18.1702 -8.8333559 2.5731084
-18.684927 -21.825972 3.6592255
-17.793959 -21.830303 3.5868871
-16.108301 -21.834301 3.4556701
-15.308999 -21.834843 3.3962786
-12.3523 -21.82892 3.194356
-3.550669 -7.0478559 1.0050844
-3.2966602 -7.4137626 1.03335
-3.0810254 -7.4051976 1.0214927
-2.8193848 -7.8205209 1.058761
-1.8801367 -8.2017412 1.0716599
-1.293789 -8.3934193 1.0816032
-2.294287 -21.839479 2.7967615
-1.2322754 -21.825878 2.7841535
-0.70458007 -21.827028 2.7813189
0.35014158 -21.881943 2.7872221
0.88063961 -21.932625 2.7955713
1.4152392 -21.991493 2.8066094
1.9551318 -22.059317 2.8204682
2.5108397 -22.217463 2.8476074
14.038042 -8.4371986 2.085943
14.005107 -7.9637866 2.0518868
14.221929 -7.6389861 2.0560417
14.734511 -7.461875 2.1034892
14.290806 -6.8090472 2.0161011
15.973184 -7.1428995 2.2284725
16.51227 16.538473 2.9764361
15.744726 16.549902 2.9092431
15.010639 16.560835 2.8466418
14.307192 16.57131 2.788275
12.981367 16.591059 2.6829572
12.354726 16.600393 2.6354773
11.749429 16.609411 2.5911286
9.5098677 16.642778 2.4412465
8.4798679 16.658125 2.3806305
7.983335 16.665527 2.353467
7.4976315 16.672768 2.328254
7.0219531 16.679855 2.3049016
6.5555367 16.68681 2.2833345
6.0974364 16.693638 2.2634685
5.6469626 16.700354 2.245244
4.7849851 18.457371 2.4284205
4.7678661 20.406551 2.6689551
1.7112646 28.207706 3.5991156
-11.486782 25.578564 3.5710759
-11.528247 21.381638 3.0937383
-13.592915 21.352636 3.2237256
-14.027217 20.903622 3.2061205
-19.535946 -7.0778928 2.646342
-19.790707 -7.7154064 2.705291
-19.07519 -8.5182467 2.6606269
-18.44873 -8.7784557 2.6020441
-19.886406 -21.7561 3.7539563
-18.988695 -21.808306 3.682802
-17.229683 -21.83164 3.5420556
-14.801997 -21.835661 3.3597107
-14.045839 -21.836882 3.3067675
-13.312734 -21.83806 3.2573333
-12.600825 -21.839211 3.2111993
-3.4692285 -7.1649609 1.0138621
-3.1400096 -7.3722086 1.0205348
-2.9698095 -7.4675226 1.0235075
-2.5819774 -7.531826 1.0140451
-2.5453124 -8.0534029 1.0756831
-1.9908496 -7.5490818 0.9943164
-1.7261132 -7.2505345 0.94922817
-1.7533398 -8.2428808 1.0732917
-3.0151219 -21.840979 2.8080308
-2.4795313 -21.840376 2.7994397
-0.36046875 -21.829924 2.7806194
0.1667041 -21.867617 2.7851219
0.6961816 -21.914059 2.7923627
1.2290771 -21.968746 2.8022935
2.3167479 -22.162226 2.8379419
13.770908 -8.3967438 1.6860451
14.55832 -7.9397526 1.733469
22.693359 -7.7818937 2.5078547
15.201538 16.557817 2.3497083
14.490195 16.568419 2.3009059
13.807426 16.578588 2.2553766
12.518071 16.597816 2.1731954
11.317065 16.616301 2.1015909
10.745092 16.62509 2.0692923
10.190092 16.63361 2.0391417
3.3155956 6.4117727 0.75456554
7.6256981 16.672384 1.9165001
7.1473093 16.679243 1.8969032
6.6783347 16.685968 1.8787874
2.4154346 6.4844389 0.72334975
1.8941553 6.4850955 0.70624328
1.7255077 6.4853091 0.70152634
1.5589989 6.4855204 0.69727474
1.3943994 6.4857292 0.69347686
1.2314941 6.4859366 0.69011962
0.7508105 6.4865494 0.68259811
0.59260255 6.486752 0.68091458
0.12133789 6.4873576 0.67827266
-0.035244141 6.4875588 0.67818588
-0.34874022 6.4879656 0.67919677
-0.6639111 6.4883733 0.68180126
-1.4582666 6.4413886 0.69038814
-8.5554047 28.151363 3.0756989
-10.520859 25.480753 2.8817511
-9.9756098 21.198238 2.4490619
-10.693217 21.368961 2.4978764
-12.027123 21.388912 2.5651336
-12.722221 21.399309 2.6024506
-13.438228 21.410017 2.642431
-14.627769 20.983671 2.6738946
-20.084501 -6.5906982 2.2096815
-19.903261 -7.0676336 2.2078698
-19.234272 -7.894619 2.1734293
-18.882622 -8.288187 2.1556709
-18.573433 -8.6929321 2.1437058
-12.322236 -7.6982603 1.5188212
-18.335976 -21.82942 2.9801366
-16.610737 -21.8335 2.8678057
-14.243393 -21.836573 2.7253625
-13.504448 -21.837763 2.6840484
-12.083955 -21.829679 2.6082654
-11.404497 -21.829416 2.5745916
