# .PCD v0.7 - Point Cloud Data file format
VERSION 0.7
FIELDS x y z
SIZE 4 4 4
TYPE F F F
COUNT 1 1 1
WIDTH 1489
HEIGHT 1
VIEWPOINT 0 0 0 1 0 0 0
POINTS 1489
DATA ascii
11.10039 6.2131248 -0.96873283
9.4374514 6.2192883 -0.86071193
8.5176954 6.2226954 -0.80330527
8.1018848 6.2242346 -0.77803314
7.7112207 6.2256808 -0.75472748
6.5803418 6.1500158 -0.6858992
6.2670798 6.1472363 -0.66851819
5.2390919 6.2387609 -0.62039852
4.7466211 6.2405772 -0.59708393
4.5137596 6.2414355 -0.58656996
3.6553807 6.2446008 -0.55102402
3.4562109 6.2453332 -0.54356885
2.5306053 6.2487364 -0.51339769
1.8535839 6.2512217 -0.49653208
1.6907617 6.2518187 -0.49319384
1.5300195 6.2524085 -0.4901844
1.3711231 6.2529907 -0.48749399
1.1966991 6.1650095 -0.47824278
1.0431055 6.1655712 -0.47619417
0.14256835 6.2526488 -0.4762778
-0.61417967 6.2554078 -0.47865474
-0.76705074 6.2559643 -0.47997412
-0.92086911 6.2565231 -0.48158199
-1.3898437 6.2582297 -0.48818973
-1.5493456 6.2588072 -0.49100971
-1.7108105 6.2593956 -0.49415106
-1.8744237 6.2599878 -0.49762571
-2.2091894 6.2612033 -0.5056144
-2.3808203 6.2618246 -0.51015818
-2.5556836 6.2624583 -0.51508456
-2.9162695 6.2637644 -0.52616441
-3.1026561 6.2644396 -0.53235799
-3.6908007 6.2665648 -0.55383271
-3.8943944 6.2616162 -0.5615347
-4.0550876 6.1822019 -0.5630281
-4.4987106 6.1856971 -0.58246362
-4.7945213 6.2686572 -0.60099584
-5.0395799 6.2695398 -0.61256444
-5.2943945 6.2704587 -0.62495857
-5.5598927 6.2714157 -0.63824314
-5.8370996 6.2724156 -0.65249389
-6.1271386 6.2734594 -0.66779315
-7.087822 6.2769175 -0.72098857
-7.4436812 6.2781968 -0.74155605
-8.6481056 6.2825265 -0.81401426
-9.1045895 6.2841687 -0.84245872
-9.4631252 6.1999326 -0.86153263
-10.11916 6.2860765 -0.90718418
-11.985683 6.292778 -1.0308942
-12.72791 6.2954392 -1.0813479
-14.386181 6.2709312 -1.1951044
-15.494189 6.3134618 -1.2741201
-17.948866 6.3222618 -1.4491724
-20.358564 6.6232581 -1.6303468
-20.497793 6.1256957 -1.6291815
-20.850742 4.6188378 -1.6263387
-21.976582 4.3147092 -1.705534
-22.916561 3.3603966 -1.763829
-23.037539 2.2493799 -1.7627194
-23.126581 0.57670712 -1.7617078
-23.124346 -0.53966737 -1.7614689
-23.104715 -1.097572 -1.7614807
-23.028622 -2.2113736 -1.7617656
-22.972118 -2.7668939 -1.7620388
-22.506123 -5.5203376 -1.7647107
-22.376396 -6.0645742 -1.7655051
-20.745831 -6.1637249 -1.6481112
-20.180264 -7.0719781 -1.6284209
-19.84201 -8.0480909 -1.6305934
-19.656532 -8.5308723 -1.6317965
-20.671621 -10.810952 -1.7764935
-14.377666 -7.9669137 -1.2517594
-19.893164 -12.313686 -1.7816626
-19.610996 -12.803679 -1.7835488
-19.317568 -13.287827 -1.7855159
-18.697617 -14.237558 -1.7896888
-16.19039 -17.342157 -1.806733
-15.791064 -17.754589 -1.8094665
-15.381825 -18.15856 -1.812272
-14.962861 -18.553907 -1.8151481
-14.534335 -18.940218 -1.8180941
-4.9997849 -8.0103235 -0.71908283
-11.890849 -20.11574 -1.7794964
-11.248593 -20.122524 -1.7555652
-10.622998 -20.128948 -1.7332505
-10.012627 -20.135031 -1.7124652
-9.4621286 -20.238089 -1.7013073
-8.9881153 -20.500135 -1.7046037
-8.5074415 -20.751694 -1.7079496
-8.0201368 -20.992592 -1.7113452
-5.4275389 -21.775915 -1.7090327
-4.8729782 -21.777523 -1.6994311
-4.3242869 -21.779114 -1.6909204
-2.7063866 -21.783989 -1.6716677
-1.1136132 -21.729639 -1.656947
-0.58762693 -21.703831 -1.653417
-0.063710935 -21.700064 -1.6525302
0.46038085 -21.716181 -1.6541241
1.5271386 -21.949301 -1.6755476
2.0814452 -22.173666 -1.6960113
3.2784081 -22.95437 -1.7657794
3.8474901 -22.964823 -1.7732126
4.3902049 -22.811337 -1.7690283
4.9318848 -22.664429 -1.7663499
5.5084863 -22.666948 -1.7763941
6.9519725 -23.583376 -1.8723474
8.1503515 -23.416735 -1.8881735
9.9644623 -23.094751 -1.9154519
3.7264159 -8.0940094 -0.6785571
11.183984 -22.825556 -1.9356741
11.796885 -22.674631 -1.9464563
13.023564 -22.330103 -1.9685889
13.644599 -22.148909 -1.9810717
14.815048 -21.6367 -1.9969387
15.916855 -20.995731 -2.0063972
16.990517 -20.298048 -2.0158064
18.541895 -19.147608 -2.0297756
20.943369 -16.963879 -2.0524557
21.392578 -16.488995 -2.0568721
22.82041 -15.090871 -2.0834551
23.20997 -14.555927 -2.0863352
23.585928 -14.010261 -2.0891216
23.947939 -13.454376 -2.0918114
24.628838 -12.313041 -2.0968926
24.947168 -11.728499 -2.0992796
23.516602 -9.6997023 -1.9372096
23.767059 -9.1383657 -1.9391109
24.002939 -8.5701647 -1.9409105
24.223925 -7.99542 -1.9426062
24.620312 -6.8281565 -1.9456787
24.944071 -6.2738123 -1.9587215
27.256142 -5.4723148 -2.117054
27.394951 -4.815546 -2.1181867
27.620029 -3.4913478 -2.1200821
27.706161 -2.82481 -2.1208441
27.774637 -2.1560912 -2.1214812
27.858114 -0.81383729 -2.1223783
27.84919 1.2036755 -2.1227748
25.504316 4.2169824 -1.9685972
25.051952 5.3953452 -1.9515214
19.390772 6.1828256 -1.549912
16.439629 6.1303353 -1.3361285
14.455928 6.2005882 -1.1978563
13.551415 6.2039428 -1.1349849
11.998075 6.2097044 -1.0288078
9.614316 6.2186313 -0.87196416
9.1263571 6.2204404 -0.84108144
8.6715622 6.2221251 -0.81277156
8.2461519 6.2237 -0.78674859
7.8468652 6.2251792 -0.76276791
6.075459 6.147944 -0.65821683
5.3303809 6.2384238 -0.62487316
5.0758886 6.2393627 -0.61251557
4.8311329 6.2402658 -0.60098189
4.595293 6.2411351 -0.59021217
4.1474509 6.2427869 -0.57075685
3.1395702 6.2464976 -0.53239018
2.7711914 6.2478538 -0.520491
2.5928807 6.248508 -0.51518083
2.4180956 6.2491503 -0.51027298
1.9117968 6.2510095 -0.49779502
1.7481836 6.2516088 -0.49433914
1.5867187 6.2522006 -0.49121341
1.2514355 6.1648083 -0.47903964
0.65081054 6.250792 -0.47858533
0.34718749 6.2519016 -0.47683033
0.045087889 6.2530041 -0.47619402
-0.10583984 6.2535543 -0.47629061
-0.56023437 6.2552109 -0.47825563
-0.8662793 6.2563257 -0.48097971
-1.0208007 6.256886 -0.48277718
-1.1765722 6.2574534 -0.48487011
-1.4926562 6.2586036 -0.48997527
-1.6533788 6.2591867 -0.49300101
-1.8162109 6.2597766 -0.49635628
-2.1491113 6.2609863 -0.50409603
-2.4933789 6.2622323 -0.51329446
-2.6704688 6.2628746 -0.51847976
-2.8512695 6.2635303 -0.52407837
-3.9797559 6.1819286 -0.55988711
-4.1946874 6.1827049 -0.56896108
-4.4181638 6.1854062 -0.57885689
-4.7099118 6.268352 -0.59708416
-4.9517088 6.2692237 -0.60837597
-5.7375193 6.2720556 -0.6473313
-6.022861 6.2730846 -0.66224915
-6.6358495 6.2752905 -0.6955111
-7.3153319 6.2777352 -0.7340892
-7.6845994 6.2790637 -0.75571638
-8.0765133 6.2804737 -0.7791214
-9.9276953 6.2853894 -0.89480442
-10.482275 6.2873816 -0.93083888
-11.08374 6.2895398 -0.97048473
-13.247285 6.2973046 -1.1170005
-14.897754 6.2194347 -1.2294049
-20.449444 6.3021421 -1.6295638
-20.582245 5.8031068 -1.6285098
-20.703915 5.3015442 -1.6275342
-20.814335 4.7977648 -1.6266372
-21.083368 4.3267956 -1.6390171
-22.806767 4.1095972 -1.7647773
-22.890039 3.5566313 -1.7640616
-22.961006 3.0021825 -1.7634329
-23.019688 2.4464519 -1.7628906
-23.121855 0.77439392 -1.7617861
-23.128359 -0.34204283 -1.7614856
-23.085556 -1.4575512 -1.7615343
-23.045712 -2.0144122 -1.7616894
-22.993555 -2.5702722 -1.761932
-22.92909 -3.1249423 -1.7622621
-22.549141 -5.3270273 -1.7644502
-22.42371 -5.8721142 -1.7652141
-21.380175 -6.1537981 -1.6942658
-20.384375 -6.4037399 -1.6271281
-20.235624 -6.8977442 -1.6280688
-19.905098 -7.8762751 -1.6301858
-19.723457 -8.3602991 -1.6313616
-19.530966 -8.8405828 -1.632615
-20.756708 -10.630499 -1.7759321
-20.512753 -11.138365 -1.7775435
-19.990419 -12.138782 -1.781014
-19.712215 -12.630773 -1.7828714
-19.122187 -13.597231 -1.7868288
-18.488037 -14.53874 -1.7911041
-17.810528 -15.453259 -1.7956927
-16.715176 -16.770491 -1.8031477
-16.329424 -17.194073 -1.8057824
-15.5279 -18.016462 -1.8112701
-15.112353 -18.414888 -1.8141214
-14.687217 -18.804413 -1.8170427
-14.252598 -19.184856 -1.8200331
-13.808544 -19.556015 -1.8230926
-10.842753 -20.126713 -1.7409768
-10.227168 -20.132915 -1.7196569
-9.6309471 -20.150455 -1.7008078
-8.6784277 -20.663794 -1.706759
-5.6255078 -21.775341 -1.7127017
-5.0687013 -21.776958 -1.7027073
-4.5180078 -21.778551 -1.6938123
-2.8955858 -21.783728 -1.6734844
-2.3622851 -21.78446 -1.6686758
-1.8288769 -21.751411 -1.6622802
-0.24919921 -21.699314 -1.6525732
0.27455077 -21.701426 -1.6527587
1.3344531 -21.879604 -1.6692935
1.8822656 -22.077763 -1.6873868
4.2007713 -22.879282 -1.771448
5.280488 -22.567543 -1.7650012
6.149375 -23.688818 -1.8637636
6.740664 -23.608816 -1.8697238
3.6471777 -8.1035528 -0.67672271
10.967422 -22.87644 -1.9319662
11.579579 -22.729397 -1.9425871
12.193994 -22.571724 -1.953701
12.806396 -22.395561 -1.9646353
15.173642 -21.435951 -1.9999964
15.723544 -21.113384 -2.004724
17.850977 -19.682165 -2.0234962
18.362684 -19.28981 -2.0281374
18.865654 -18.883963 -2.0327525
19.359453 -18.464787 -2.0373375
19.843594 -18.032452 -2.0418892
20.317793 -17.587158 -2.0464046
20.78167 -17.129139 -2.0508807
21.676689 -16.175817 -2.0596993
23.073544 -14.746643 -2.085326
23.821337 -13.6524 -2.0908699
24.174141 -13.090011 -2.0934961
24.836132 -11.936561 -2.0984459
25.144707 -11.346317 -2.1007655
25.438017 -10.747542 -2.1029787
23.679989 -9.3379993 -1.9384489
24.5546 -7.0364561 -1.945166
26.633232 -6.2590356 -2.0834529
27.475273 -4.3894181 -2.1188524
27.585283 -3.7267277 -2.1197824
27.752441 -2.3931813 -2.1212702
27.809414 -1.7232074 -2.1218262
27.873163 0.29307067 -2.1227372
27.858612 0.96559322 -2.1227875
27.826191 1.6374878 -2.1227112
27.775936 2.3083014 -2.1225083
27.707832 2.9774022 -2.1221786
26.802938 4.1966639 -2.0659931
25.228632 4.5764112 -1.9525857
25.101006 5.1818089 -1.95182
24.957401 5.7834435 -1.9509405
24.797899 6.3806825 -1.949945
21.680555 6.1401 -1.7159723
15.854765 6.1953964 -1.2962914
14.800879 6.1993079 -1.222005
13.860723 6.2027955 -1.156406
13.01583 6.2059302 -1.0980952
10.335811 6.2159567 -0.91847777
9.7958889 6.2179589 -0.88357854
9.2951851 6.2198143 -0.85170978
8.3936815 6.2231541 -0.79572028
7.9854684 6.2246652 -0.77103972
7.6016111 6.2260861 -0.74827123
6.1798239 6.1475573 -0.66381252
5.957334 6.2193737 -0.65584362
5.6921582 6.2370858 -0.64303529
4.916748 6.2399497 -0.60497665
4.6778517 6.2408314 -0.5939424
4.2246189 6.2425022 -0.57401067
4.0089645 6.2432971 -0.56502247
3.5967188 6.2448153 -0.54879552
3.2066112 6.2462511 -0.53468591
3.0187695 6.246943 -0.52835476
2.8352149 6.2476182 -0.52246988
2.6556151 6.2482777 -0.51701468
2.479619 6.2489243 -0.51196676
1.9703223 6.2507944 -0.49910027
1.6436719 6.2519908 -0.49228346
1.4834961 6.2525792 -0.48936737
1.1517578 6.1651745 -0.47761482
0.99853516 6.1657333 -0.47565261
0.098535158 6.25281 -0.47622553
-0.052382812 6.2533603 -0.47622463
-0.2033789 6.253911 -0.476502
-0.35463867 6.2544618 -0.47705734
-0.50634766 6.2550144 -0.47789249
-0.81180662 6.2561264 -0.48041311
-0.96592772 6.2566881 -0.48210654
-1.1212207 6.2572532 -0.48409382
-1.2779101 6.257822 -0.4863832
-1.5962206 6.2589784 -0.49189219
-1.7582812 6.2595677 -0.49512964
-2.9701757 6.2639599 -0.52792519
-3.750576 6.2667823 -0.55617082
-3.9052539 6.1816611 -0.55681813
-4.1177735 6.1824288 -0.56567574
-4.6263962 6.2680492 -0.59326625
-5.9202929 6.2727146 -0.65684372
-6.5228319 6.2748852 -0.68926138
-6.8473434 6.276052 -0.70733768
-7.1895313 6.2772827 -0.72682405
-7.9349508 6.2799644 -0.77061749
-8.3428516 6.2814307 -0.79527432
-9.1402731 6.2142992 -0.84169304
-12.194912 6.293529 -1.0450562
-12.958271 6.296267 -1.0971277
-13.802285 6.2992945 -1.1553771
-14.551435 6.2214417 -1.2051692
-15.81457 6.3146105 -1.2967787
-20.399687 6.4782443 -1.6299495
-20.536533 5.9801245 -1.6288741
-20.879696 4.4712853 -1.6261003
-22.771631 4.3045483 -1.7648376
-23.051035 2.0870574 -1.7625866
-23.1308 -0.14434448 -1.7615134
-23.096737 -1.2601446 -1.7615002
-23.061211 -1.8172802 -1.7616246
-23.013466 -2.3735175 -1.7618359
-22.880995 -3.482456 -1.762521
-22.699657 -4.585022 -1.7635536
-22.46953 -5.6793413 -1.7649335
-20.434404 -6.2280569 -1.6268139
-20.28956 -6.7231097 -1.6277267
-19.966816 -7.7039537 -1.6297882
-19.788994 -8.1892691 -1.6309365
-19.60038 -8.6709166 -1.6321623
-20.600498 -10.959072 -1.7769631
-20.08625 -11.963176 -1.7803754
-19.526552 -12.9455 -1.7841144
-18.922207 -13.904068 -1.7881747
-17.933653 -15.293354 -1.7948573
-17.582695 -15.742585 -1.7972398
-16.849365 -16.618578 -1.8022323
-16.467176 -17.044939 -1.8048409
-15.672725 -17.873264 -1.8102772
-15.260605 -18.274761 -1.8131036
-14.838877 -18.667475 -1.816
-13.517118 -19.790659 -1.8251024
-10.443418 -20.130756 -1.727033
-9.3243647 -20.315573 -1.7022653
-8.8486128 -20.574606 -1.7055746
-8.366025 -20.823076 -1.7089348
-7.3812008 -21.287655 -1.7158018
-6.8793554 -21.503428 -1.7193056
-1.4873047 -21.743368 -1.6596892
-0.96000975 -21.722103 -1.6558157
0.089033201 -21.700676 -1.6525838
0.61395508 -21.739882 -1.656217
2.836787 -22.618427 -1.7359539
3.462285 -23.079803 -1.777262
4.5476365 -22.765045 -1.7678776
5.9440036 -23.730204 -1.8629522
6.5296383 -23.633039 -1.8671566
7.7247558 -23.480469 -1.8823842
10.142012 -23.058744 -1.9183366
11.362432 -22.782705 -1.9387695
12.589589 -22.459625 -1.9607474
14.418711 -21.850014 -1.9935815
14.977245 -21.546818 -1.9983194
16.075117 -20.897474 -2.0077722
16.613544 -20.551626 -2.0124805
17.144541 -20.19165 -2.0171731
17.667675 -19.817865 -2.0218463
18.182354 -19.430374 -2.0264959
18.688583 -19.02927 -2.0311215
19.673231 -18.18714 -2.0402811
20.618555 -17.292774 -2.0493
21.973213 -15.86997 -2.0641196
11.951621 -8.2005634 -1.1037989
23.692881 -13.849231 -2.0899155
24.723213 -12.143574 -2.0975995
25.33585 -10.960533 -2.1022067
24.486895 -7.2441645 -1.9446392
25.680859 -6.2673764 -2.0130677
27.298409 -5.281177 -2.1173971
27.432108 -4.6233788 -2.1184936
27.54834 -3.9618475 -2.1194675
27.791229 -1.9607327 -2.1216433
27.836689 -1.289782 -2.122118
27.864277 -0.61786681 -2.1224668
27.873983 0.054754637 -2.1226888
27.79578 2.0708239 -2.1225946
27.733994 2.7406299 -2.1223099
25.148037 4.9677415 -1.9521043
25.010067 5.5707712 -1.9512649
24.856201 6.1696825 -1.9503121
20.586494 6.1783862 -1.6368011
17.507793 6.1898179 -1.4141418
14.182051 6.2016025 -1.1787473
13.305224 6.2048569 -1.1179951
11.13957 6.2129798 -0.97133273
10.53746 6.2152109 -0.93164212
8.9905081 6.2209435 -0.83257347
8.5446777 6.2225952 -0.80495971
8.1271486 6.2241406 -0.77955425
7.0163279 6.2282519 -0.71445739
6.2859569 6.1471653 -0.66954052
5.5170212 6.2377329 -0.63415879
5.255127 6.2387009 -0.62118107
5.0035448 6.2396288 -0.60907036
4.761445 6.2405233 -0.5977636
4.5280857 6.2413831 -0.5872072
4.0845509 6.2430186 -0.56813473
3.873203 6.2437973 -0.55953526
3.6680076 6.2445545 -0.55150735
3.4684961 6.2452879 -0.54401952
3.2742674 6.2460022 -0.53704113
3.0847948 6.2467003 -0.53054404
2.8997655 6.2473803 -0.52450436
2.5415626 6.2486973 -0.51370931
2.3677247 6.2493348 -0.50891453
1.8638281 6.2511849 -0.49675193
1.7008886 6.251781 -0.49339312
1.3810059 6.252954 -0.48765293
1.2063671 6.1649742 -0.4783811
1.0526757 6.1655359 -0.47631389
0.74936521 6.1714807 -0.47342581
0.60638672 6.2509546 -0.47826025
0.30305663 6.2520618 -0.47666803
0.15201172 6.2526145 -0.4762916
-0.60465819 6.2553735 -0.47858179
-0.75747067 6.255929 -0.47988355
-1.0660839 6.2570519 -0.48335668
-1.5393358 6.2587729 -0.49082407
-1.7006445 6.2593589 -0.49394512
-1.8641406 6.2599511 -0.49739841
-2.0300195 6.2605529 -0.50119364
-2.5446582 6.2624183 -0.5147649
-2.7227831 6.2630639 -0.52006871
-2.9047656 6.2637229 -0.52579319
-3.0908885 6.2643967 -0.53195804
-3.2815137 6.2650867 -0.53858536
-3.6780467 6.2665186 -0.55333745
-4.041738 6.1821532 -0.56247121
-4.2587008 6.1829357 -0.57173061
-4.7795019 6.2686024 -0.60029751
-5.5429688 6.2713547 -0.63738525
-5.8194237 6.2723522 -0.65157408
-6.1085839 6.2733922 -0.66680348
-7.7964745 6.2794652 -0.76235259
-8.6205959 6.2824278 -0.81231618
-9.0751266 6.2840624 -0.84060925
-10.08497 6.2859559 -0.90496939
-10.652588 6.287992 -0.94200915
-11.941582 6.2926197 -1.0279179
-13.493222 6.2981858 -1.1339729
-16.566444 6.3173056 -1.3501937
-20.3496 6.6543088 -1.630433
-20.737265 5.154819 -1.6272645
-21.813164 4.3167968 -1.6933531
-22.979395 2.8402159 -1.7632656
-23.034521 2.2841606 -1.7627487
-23.077295 1.7272967 -1.7623187
-23.107735 1.1696551 -1.7619761
-23.125898 0.61159486 -1.7617204
-23.106318 -1.0627075 -1.7614774
-22.976006 -2.7321975 -1.7620193
-22.908007 -3.2864318 -1.7623745
-22.827744 -3.8392634 -1.7628168
-22.735292 -4.3903556 -1.7633456
-20.855419 -6.1620116 -1.6560762
-20.190126 -7.0412574 -1.6283581
-20.027178 -7.5311675 -1.6294003
-19.668398 -8.5007954 -1.6317194
-19.472773 -8.9798851 -1.6329952
-14.3854 -7.9428148 -1.2513845
-20.180664 -11.786887 -1.7797472
-19.628954 -12.773148 -1.7834287
-19.032431 -13.736151 -1.7874326
-18.391924 -14.6738 -1.7917538
-16.60376 -16.894831 -1.8039083
-16.215057 -17.316053 -1.8065643
-15.407754 -18.133539 -1.8120941
-14.989365 -18.529396 -1.8149661
-14.561494 -18.916344 -1.8179073
-14.123994 -19.294054 -1.8209188
-13.677509 -19.662489 -1.8239962
-13.221767 -20.021269 -1.827141
-11.93163 -20.115301 -1.7810501
-10.661728 -20.128557 -1.7346035
-9.4912205 -20.221363 -1.7011051
-9.0179491 -20.484009 -1.704396
-8.0507812 -20.977875 -1.7111316
-7.557373 -21.208628 -1.7145724
-6.5520411 -21.63674 -1.7215928
-6.0240426 -21.774183 -1.7204552
-4.3583789 -21.779016 -1.69142
-3.8145995 -21.78059 -1.6839029
-3.2752147 -21.782152 -1.6774175
-1.6744823 -21.747778 -1.6610595
-1.1464844 -21.731255 -1.6571994
-0.62048829 -21.705441 -1.6536082
-0.096435547 -21.699932 -1.6525308
0.95557612 -21.792603 -1.6611639
1.4930371 -21.936962 -1.6744277
2.0460253 -22.154697 -1.6943219
3.2377441 -22.916592 -1.7624981
3.8137889 -22.975883 -1.773622
4.3567576 -22.823404 -1.769452
4.898037 -22.673475 -1.76648
6.9146581 -23.587946 -1.8718807
7.5125585 -23.510237 -1.8795605
8.1122456 -23.422621 -1.887655
8.7145996 -23.325161 -1.8962027
9.9263372 -23.102383 -1.9148371
3.7079492 -8.0859823 -0.67737335
11.145771 -22.834646 -1.935015
11.758457 -22.684408 -1.9457684
12.985087 -22.341669 -1.96788
13.605683 -22.160625 -1.9802829
14.780195 -21.655792 -1.9966427
15.334687 -21.343395 -2.0013759
16.42374 -20.675655 -2.0108151
16.957335 -20.320757 -2.0155129
18.001102 -19.569113 -2.0248525
18.510313 -19.172882 -2.0294864
19.501728 -18.340055 -2.0386693
19.982929 -17.903933 -2.04321
20.454159 -17.454876 -2.0477142
22.374609 -15.635067 -2.0786798
22.795595 -15.124022 -2.0832717
23.562851 -14.044675 -2.0889504
25.231825 -11.17253 -2.1014218
25.520596 -10.57135 -2.1036034
23.988604 -8.6058741 -1.9408009
24.210518 -8.0315046 -1.942503
24.417324 -7.4511437 -1.9440995
27.386747 -4.8567109 -2.1181192
27.50913 -4.1965189 -2.1191363
27.61412 -3.5329366 -2.1200309
27.701298 -2.8665476 -2.1208
27.770821 -2.1980026 -2.1214447
27.822655 -1.5275674 -2.1219645
27.856562 -0.85585511 -2.1223578
27.872578 -0.18350464 -2.1226244
27.813408 1.8332238 -2.1226652
27.684628 3.1721892 -2.1220586
27.593632 3.8383582 -2.1215663
25.720694 4.2128515 -1.9848044
25.193037 4.7533593 -1.9523739
25.06077 5.357645 -1.9515753
24.912539 5.9580774 -1.9506626
23.25585 6.1588597 -1.8320522
19.49128 6.1824522 -1.5571961
16.460781 6.1099143 -1.337104
13.605244 6.2037439 -1.1387064
12.785244 6.2067857 -1.082299
12.042226 6.2095408 -1.0317887
11.212939 6.128829 -0.97313184
10.745 6.2144418 -0.94525969
10.173955 6.2165589 -0.90795982
9.6460638 6.2185144 -0.87398732
9.1558886 6.2203307 -0.8429364
8.2719727 6.2236047 -0.78831416
6.3939843 6.1467662 -0.6754266
6.0937696 6.1478758 -0.65919465
5.6124606 6.23738 -0.63897729
4.8461618 6.2402101 -0.60168016
4.6097655 6.2410827 -0.59086305
4.161006 6.2427368 -0.57132524
3.7400098 6.2442894 -0.55428821
3.5385351 6.2450304 -0.54661173
3.151377 6.2464547 -0.53279263
2.7824414 6.2478113 -0.52083492
2.6039453 6.2484679 -0.51550168
2.257129 6.2497411 -0.50602138
2.0882909 6.250361 -0.50184423
1.9220996 6.2509713 -0.49802235
1.5967578 6.2521644 -0.49139944
1.4371191 6.252749 -0.48857674
1.2611035 6.1647739 -0.47918445
0.95407224 6.1658983 -0.47513533
0.80292964 6.1712842 -0.47391814
0.50820309 6.2513146 -0.47762266
0.054511718 6.2529697 -0.47619593
-0.24745117 6.2540722 -0.47663513
-0.55071288 6.2551756 -0.47818935
-0.70324218 6.2557311 -0.47938934
-0.85664058 6.2562914 -0.48087665
-1.1667676 6.2574191 -0.48473048
-1.3239062 6.2579894 -0.48710817
-1.482666 6.2585669 -0.48979667
-1.6432617 6.25915 -0.49280271
-1.8059667 6.2597399 -0.49613693
-2.138535 6.2609458 -0.5038321
-2.3089354 6.2615638 -0.50821835
-2.4824219 6.2621937 -0.51298434
-2.8398535 6.2634873 -0.52371693
-3.4072461 6.2655406 -0.54312426
-3.8108494 6.2669992 -0.55855531
-3.9665527 6.1818824 -0.55933851
-4.4040232 6.1853552 -0.57822961
-4.6950974 6.2682981 -0.59640443
-4.9363279 6.2691674 -0.60764664
-5.1869431 6.2700706 -0.61968839
-5.4478903 6.2710133 -0.632595
-5.7200975 6.2719932 -0.64643478
-6.0045996 6.2730188 -0.66128445
-6.3027344 6.2740917 -0.67723924
-6.6157517 6.2752185 -0.69439644
-7.2929392 6.2776551 -0.73279339
-8.0512695 6.2803822 -0.77759975
-8.9105663 6.2834702 -0.83031112
-9.2575092 6.1991954 -0.8484484
-9.7645502 6.2027502 -0.88094014
-11.04459 6.2894006 -0.96788788
-11.696386 6.2917395 -1.0114043
-12.410009 6.2942991 -1.059664
-14.065557 6.3002391 -1.1736764
-14.834238 6.2192078 -1.2249252
-16.146572 6.3158007 -1.3203284
-17.383242 6.3202343 -1.4085644
-18.797939 6.325305 -1.5103896
-20.574306 5.8343883 -1.6285733
-20.69663 5.3329601 -1.6275929
-22.801172 4.1441088 -1.7648247
-22.885195 3.5912945 -1.7641037
-22.956934 3.0368786 -1.7634695
-23.128916 -0.30710876 -1.7614895
-23.087637 -1.4226685 -1.7615275
-22.933466 -3.0902679 -1.762239
-22.857569 -3.6436598 -1.7626501
-22.769463 -4.1953936 -1.7631482
-22.669092 -4.7451248 -1.7637335
-22.556572 -5.2928138 -1.7644054
-22.431923 -5.8381257 -1.7651635
-20.393349 -6.3727202 -1.6270719
-20.086151 -7.3579965 -1.6290221
-19.916073 -7.8458385 -1.630115
-19.543348 -8.8106403 -1.6325341
-20.77162 -10.598621 -1.7758338
-20.528368 -11.106726 -1.7774403
-20.273613 -11.609937 -1.7791293
-20.007412 -12.107832 -1.7809005
-18.83041 -14.041731 -1.7887933
-18.508505 -14.509653 -1.7909658
-18.1758 -14.970893 -1.7932162
-17.478359 -15.872158 -1.7979488
-16.738895 -16.743795 -1.8029858
-15.958662 -17.583727 -1.8083187
-15.553486 -17.991282 -1.8110946
-15.138613 -18.390202 -1.813941
-14.714062 -18.780325 -1.8168581
-13.836679 -19.533089 -1.8228986
-4.8825974 -8.0733976 -0.71850401
-11.51414 -20.119741 -1.7653369
-10.881728 -20.126312 -1.7423592
-9.6681538 -20.149004 -1.7019092
-9.1863184 -20.392233 -1.703225
-8.7085838 -20.648149 -1.7065492
-8.2239943 -20.893555 -1.7099242
-7.2354298 -21.351698 -1.7168192
-6.7318358 -21.564175 -1.7203363
-6.2223339 -21.765375 -1.7238979
-2.9290135 -21.783682 -1.6738201
-1.3333887 -21.739746 -1.6586554
-0.80655271 -21.714573 -1.6547683
-0.28193358 -21.699183 -1.6525955
1.3006152 -21.867357 -1.6682061
3.6220312 -23.038099 -1.7759701
4.7060447 -22.724201 -1.7672327
6.1129589 -23.695726 -1.8635763
6.7034082 -23.613184 -1.8692666
7.3005662 -23.538876 -1.8767891
8.5009565 -23.360483 -1.8930984
9.1048822 -23.257559 -1.9020138
10.929257 -22.885283 -1.931318
11.541172 -22.738871 -1.9419098
12.768193 -22.406961 -1.9639462
13.385742 -22.226278 -1.9758492
-15.598408 6.328475 -1.6639169
-15.736484 5.9464283 -1.6628522
-15.86581 5.561605 -1.6618487
-15.986328 5.1741953 -1.6609069
-17.507168 4.2958617 -1.7818646
-17.870049 3.480448 -1.7995874
-18.005566 2.6125219 -1.7984301
-18.058603 2.1766944 -1.7979553
-18.135117 1.3023376 -1.797214
-18.172148 0.42572629 -1.796752
-18.175859 -0.012896728 -1.796626
-18.127714 -1.32768 -1.7966669
-18.046356 -2.2012241 -1.7970439
-17.990908 -2.6364844 -1.7973373
-17.925653 -3.0704737 -1.7977003
-17.850634 -3.5029836 -1.7981329
-17.453369 -5.21419 -1.8005556
-17.329969 -5.6362739 -1.8013331
-16.252899 -6.1679459 -1.7183425
-15.564609 -6.3405132 -1.661268
-15.258838 -7.0925808 -1.6632615
-14.918896 -7.8310466 -1.6655
-14.395879 -8.0054293 -1.6282083
-14.545341 -8.5544586 -1.66798
-14.346065 -8.9100609 -1.66931
-14.877168 -10.805605 -1.8175213
-14.625732 -11.17188 -1.8192179
-14.365742 -11.532702 -1.8209765
-14.097353 -11.887876 -1.8227959
-13.535684 -12.580492 -1.8266146
-13.242626 -12.917585 -1.8286129
-12.941582 -13.24824 -1.8306689
-12.632686 -13.572322 -1.8327821
-11.660117 -14.503201 -1.8394561
-11.321084 -14.799089 -1.841789
-10.621621 -15.368195 -1.8466117
-4.9803028 -8.0059652 -0.93198776
-9.1413574 -16.410931 -1.8568547
-8.7552929 -16.65073 -1.8595337
-7.5615134 -17.317379 -1.8678339
-7.1523438 -17.521511 -1.8706845
-5.4644823 -18.243511 -1.8824704
-5.0308204 -18.399698 -1.8855053
-4.592783 -18.545876 -1.8885733
-4.1506639 -18.681898 -1.8916726
-3.2551367 -18.923065 -1.8979583
-1.4259082 -19.278578 -1.9108288
-0.028007813 -19.431032 -1.9206918
1.3851074 -19.482954 -1.930685
1.8580663 -19.477566 -1.9340349
2.805371 -19.432491 -1.9407496
3.2753808 -19.370583 -1.9418967
3.7474315 -19.314569 -1.9447833
4.6844044 -19.149937 -1.9487143
5.1411133 -19.016434 -1.9471933
6.038291 -18.701807 -1.9425801
6.4997559 -18.584803 -1.9461526
7.8704882 -18.166157 -1.956949
8.3219233 -18.004148 -1.960567
9.2148733 -17.646713 -1.9678193
10.092627 -17.244963 -1.9750787
10.952988 -16.799362 -1.9823282
12.205684 -16.050175 -1.9931433
12.6121 -15.779256 -1.9967242
14.173847 -14.592772 -2.0108609
14.547011 -14.27114 -2.0143373
15.620283 -13.24853 -2.0245886
15.961816 -12.889048 -2.0279388
16.618856 -12.143229 -2.0345247
17.239599 -11.363005 -2.0409424
17.82205 -10.550105 -2.047173
16.67375 -9.3345137 -1.8888432
17.351807 -8.125721 -1.8939196
17.557188 -7.7109427 -1.8954684
19.030243 -6.2493472 -1.9799038
20.005302 -6.0388169 -2.0655868
20.295723 -5.0721464 -2.0678635
20.636894 -3.5955203 -2.0706155
20.725029 -3.09758 -2.0713532
20.800224 -2.597394 -2.0719995
20.862452 -2.0952611 -2.0725548
20.947645 -1.0867041 -2.0733876
20.980331 -0.074758299 -2.0738502
20.960449 0.93761289 -2.07394
20.930761 1.4430773 -2.0738449
20.887959 1.947553 -2.0736568
20.832022 2.4506922 -2.0733755
18.48995 5.4378929 -1.9050702
18.344395 5.8796067 -1.9041401
16.436903 6.1575961 -1.7349987
14.395732 6.2004929 -1.5493505
12.687773 6.2068615 -1.396171
11.196543 6.163856 -1.2633686
10.670595 6.214469 -1.2205902
10.105322 6.2165732 -1.1727526
9.5824022 6.2185192 -1.1291558
9.0966797 6.2203283 -1.0892951
7.8224411 6.2250671 -0.98817945
7.447998 6.2264585 -0.95958316
7.0943942 6.2277722 -0.93312007
6.7595897 6.2290149 -0.90859509
5.8544531 6.2363148 -0.84550476
5.5784569 6.2373376 -0.82714629
5.3140235 6.238318 -0.8100301
5.0601759 6.2392588 -0.79406017
4.3535352 6.2418737 -0.75223356
4.1338086 6.2426867 -0.74009025
3.7144041 6.2442355 -0.71816665
3.5136523 6.2449765 -0.70828956
2.7598631 6.247756 -0.67513615
2.5817969 6.2484131 -0.66827756
2.2358203 6.2496848 -0.65609807
1.7379882 6.2515159 -0.64137292
1.2417285 6.1647177 -0.62159592
1.0877343 6.1652808 -0.61882508
0.78400391 6.1712279 -0.61490303
0.64126951 6.2506995 -0.621099
0.035644531 6.2529125 -0.61808509
-0.26636717 6.2540135 -0.61874425
-0.41779295 6.2545652 -0.61961532
-0.56971681 6.2551193 -0.62085217
-1.0304589 6.2567945 -0.62679017
-1.5026073 6.2585082 -0.63620877
-1.6634668 6.2590928 -0.64016342
-2.1596484 6.2608895 -0.65464765
-2.33041 6.2615075 -0.66040176
-2.504287 6.262136 -0.66664916
-2.6816015 6.2627783 -0.67341232
-3.2373533 6.2647839 -0.69704354
-3.4317479 6.2654843 -0.70613265
-3.8367772 6.2669458 -0.72633749
-4.2082419 6.1826038 -0.73926038
-4.4321876 6.1853037 -0.75215638
-5.2188673 6.2700229 -0.80636895
-5.7548242 6.2719469 -0.84138513
-6.6558204 6.275178 -0.90420264
-7.3375778 6.2776208 -0.95451277
-8.1015625 6.2803564 -1.0132517
-8.5204096 6.2818542 -1.0463684
-8.9678612 6.2834558 -1.0823773
-9.3182516 6.1991882 -1.1062857
-9.9607515 6.2852707 -1.1642144
-10.518037 6.287262 -1.2112584
-12.503467 6.294353 -1.3836948
-15.688583 6.0820627 -1.6632223
-15.944668 5.3116941 -1.6612334
-16.059483 4.9227085 -1.6603317
-16.920771 4.3056312 -1.7258608
-17.918095 3.2007933 -1.7991834
-17.984434 2.7666063 -1.7986147
-18.124462 1.4573779 -1.7973249
-18.168467 0.58106136 -1.7968135
-18.173027 -0.2961615 -1.7965814
-18.16046 -0.73460263 -1.7965704
-17.949883 -2.9169307 -1.7975639
-17.705957 -4.211081 -1.798996
-17.605206 -4.638679 -1.7996118
-17.374794 -5.487093 -1.8010497
-16.660576 -6.1602664 -1.7558131
-15.469609 -6.584754 -1.6618849
-15.315469 -6.9603434 -1.6628909
-15.152782 -7.3326044 -1.6639578
-14.981582 -7.7013273 -1.6650859
-14.613906 -8.4275198 -1.6675235
-14.000351 -9.4858379 -1.6716266
-14.715771 -11.042778 -1.8186098
-14.458779 -11.405536 -1.8203468
-14.193369 -11.762734 -1.8221446
-13.347314 -12.798885 -1.8278985
-13.049101 -13.131875 -1.8299342
-12.742969 -13.45831 -1.8320272
-12.429062 -13.778029 -1.8341769
-11.778447 -14.396646 -1.8386425
-11.441992 -14.695151 -1.8409567
-10.747519 -15.269668 -1.8457427
-10.389824 -15.545355 -1.8482126
-8.8927441 -16.566774 -1.8585796
-8.5027437 -16.801001 -1.8612875
-8.1068163 -17.026423 -1.8640393
-7.705039 -17.242903 -1.8668346
-7.2978611 -17.450274 -1.8696704
-6.8852048 -17.648411 -1.8725469
-6.0446873 -18.016359 -1.8784143
-5.1849122 -18.34552 -1.8844265
-3.8631053 -18.76428 -1.8936899
-3.4147656 -18.883392 -1.8968371
-2.9631348 -18.992002 -1.90001
-2.0504785 -19.177464 -1.9064296
-0.6608789 -19.374529 -1.9162235
-0.19359374 -19.418219 -1.9195222
1.2177734 -19.482086 -1.9295006
1.6904784 -19.480791 -1.9328479
3.1097362 -19.398008 -1.9419112
4.0523729 -19.274553 -1.946878
4.9803905 -19.067318 -1.9479735
5.4311132 -18.9139 -1.9451274
5.8744235 -18.74057 -1.9413186
6.3365331 -18.627541 -1.9448855
3.6575389 -8.0938873 -0.87794799
9.0577736 -17.713282 -1.9665339
10.37246 -17.105812 -1.9774215
10.802011 -16.881451 -1.981046
11.226689 -16.646196 -1.984664
12.06037 -16.143602 -1.991872
12.468857 -15.876399 -1.9954578
12.871299 -15.598721 -1.999028
13.267519 -15.310776 -2.0025809
14.783975 -14.05822 -2.0165672
15.144629 -13.720661 -2.0199966
16.177851 -12.652078 -2.0300829
16.823378 -11.894978 -2.0366166
11.921426 -8.0046711 -1.41939
17.721739 -10.696354 -2.0460837
16.587744 -9.4734774 -1.8882024
16.827421 -9.0790157 -1.8899896
17.684198 -7.4401474 -1.8964294
17.87203 -7.016521 -1.8978558
18.048975 -6.5878844 -1.8992064
18.51372 -6.2555466 -1.9316604
19.948711 -6.2082505 -2.0651474
20.24791 -5.2444839 -2.0674856
20.378828 -4.7567406 -2.0685239
20.49707 -4.2655406 -2.069473
20.602596 -3.7712743 -2.070333
20.895693 -1.7701242 -2.0728641
20.936367 -1.2656127 -2.0732672
20.978388 -0.25408569 -2.0737953
20.942774 1.264143 -2.0738893
20.90461 1.7690191 -2.073734
20.85334 2.2726855 -2.0734861
20.788994 2.7747624 -2.0731447
20.229229 4.2079382 -2.0423958
18.668808 4.8337107 -1.9061989
18.538769 5.2805076 -1.9053799
18.397198 5.7236133 -1.9044785
18.244326 6.1627121 -1.9034961
14.738193 6.1992173 -1.5804478
12.965234 6.2058277 -1.4208128
10.882071 6.2136817 -1.2386602
8.3671093 6.223042 -1.0307308
6.8761325 6.2285829 -0.91707188
6.4688473 6.1502476 -0.88229185
5.955195 6.2359409 -0.8523246
5.4064159 6.2379746 -0.8159557
4.6630664 6.2407289 -0.77005523
4.4331055 6.2415795 -0.75673699
4.2108202 6.2424021 -0.74429685
3.9955957 6.2431979 -0.73267841
3.584121 6.2447166 -0.71170926
3.3868651 6.2454453 -0.70227039
3.1946678 6.2461534 -0.69347638
2.8238182 6.2475204 -0.67769456
2.4686718 6.2488294 -0.66412687
2.2961719 6.249464 -0.65811139
1.9599218 6.2506995 -0.64751768
1.795625 6.2513046 -0.64290327
1.6335645 6.2518992 -0.63872337
1.4735059 6.2524862 -0.63496387
0.98897457 6.1656432 -0.61723948
0.6952734 6.2505026 -0.62164724
0.24007812 6.2521653 -0.61845684
0.08910156 6.252717 -0.61811912
-0.21282226 6.253818 -0.61852211
-0.36410156 6.2543688 -0.61926562
-0.51584959 6.2549229 -0.62037247
-0.66822267 6.255477 -0.62184662
-0.82139647 6.2560349 -0.62369084
-1.1309668 6.2571592 -0.62851673
-1.4460937 6.2583032 -0.6349085
-1.6062695 6.2588854 -0.63871419
-1.7684569 6.2594724 -0.64294338
-1.9329101 6.2600684 -0.64760816
-2.0998633 6.2606735 -0.65272415
-2.4423242 6.2619114 -0.66437864
-2.6183887 6.2625489 -0.67095631
-2.9817188 6.2638612 -0.68572873
-3.1696875 6.2645397 -0.69397652
-3.5600781 6.2659483 -0.71235245
-3.7633691 6.2666807 -0.7225526
-3.9182615 6.18156 -0.72343338
-4.1311717 6.1823254 -0.73497623
-4.3511424 6.1831174 -0.74733633
-5.1285253 6.2696972 -0.80065954
-5.3870115 6.2706261 -0.81714749
-5.6565232 6.2715931 -0.83482087
-6.2329884 6.2736621 -0.87415576
-6.5424414 6.2747717 -0.89605206
-6.8679881 6.2759385 -0.91962636
-7.2113571 6.2771678 -0.94503736
-7.9594626 6.2798462 -1.0021563
-8.3689747 6.2813134 -1.0343263
-8.8059082 6.282876 -1.0692729
-9.1468163 6.1985755 -1.0921832
-10.315576 6.2865391 -1.1940855
-11.541455 6.2909179 -1.2993013
-13.007949 6.2961535 -1.428488
-15.63955 6.2173409 -1.6636001
-15.775136 5.8344641 -1.662553
-16.128906 4.6702685 -1.6597826
-16.369942 4.314785 -1.6733829
-17.72327 4.2168589 -1.8007946
-18.02206 2.4855206 -1.7982844
-18.142998 1.1746032 -1.7971292
-18.163555 0.73634154 -1.7968838
-18.174267 0.29780638 -1.7967079
-18.175097 -0.14083129 -1.7966021
-18.147099 -1.0175683 -1.7966003
-17.826952 -3.6288128 -1.7982719
-17.739305 -4.0591192 -1.7987944
-17.642012 -4.4874949 -1.7993857
-17.086395 -6.1522241 -1.7950839
-15.92999 -6.1740131 -1.6887547
-15.211396 -7.2011552 -1.6635727
-14.866494 -7.9375076 -1.6658468
-14.286435 -9.0129766 -1.6697087
-14.076601 -9.3629551 -1.6711144
-14.550771 -11.277675 -1.8197246
-14.28834 -11.636886 -1.8215008
-13.155644 -13.014702 -1.8292065
-12.222265 -13.980879 -1.835595
-11.89584 -14.289158 -1.8378358
-11.22083 -14.883969 -1.8424795
-10.872578 -15.170161 -1.84488
-10.517285 -15.448615 -1.8473321
-4.9221973 -8.0381832 -0.93168205
-9.0293846 -16.481762 -1.8576313
-8.6415529 -16.719025 -1.8603232
-8.2477045 -16.947582 -1.8630596
-7.8480368 -17.167274 -1.8658395
-6.1948924 -17.953978 -1.8773648
-5.769033 -18.12693 -1.8803407
-5.3384275 -18.290112 -1.8833523
-4.4642773 -18.586582 -1.889474
-3.573916 -18.842388 -1.8957198
-0.35958007 -19.404022 -1.9183502
0.10885742 -19.440527 -1.9216586
0.5791406 -19.46583 -1.9249825
1.522959 -19.48255 -1.9316614
1.9961327 -19.473867 -1.9350134
2.4697363 -19.453733 -1.9383714
5.2728224 -18.969711 -1.946363
6.1730857 -18.668873 -1.9436206
6.633955 -18.548531 -1.9471976
7.0926852 -18.416962 -1.9507885
7.5489354 -18.274107 -1.9543911
8.002471 -18.120079 -1.9580035
8.4530077 -17.954819 -1.9616235
8.9002438 -17.778397 -1.9652492
9.7836323 -17.392284 -1.9725078
11.914335 -16.235676 -1.9905987
12.324824 -15.972251 -1.9941891
13.519932 -15.119343 -2.0048647
14.654394 -14.175495 -2.0153458
15.017773 -13.841331 -2.0187852
15.373349 -13.497629 -2.0221944
16.390205 -12.411386 -2.0322106
16.711708 -12.031573 -2.0354717
17.620264 -10.841653 -2.0449889
16.500479 -9.6116247 -1.8875532
16.74369 -9.2194653 -1.8893646
17.615088 -7.5889392 -1.8959062
17.987549 -6.7402472 -1.8987368
18.157362 -6.3085704 -1.9000375
20.198555 -5.4163465 -2.0670969
20.456659 -4.4398899 -2.0691469
20.566679 -3.9466817 -2.0700383
20.663906 -3.4505796 -2.0708399
20.748301 -2.9519212 -2.0715511
20.819746 -2.4511418 -2.0721712
20.878134 -1.9485357 -2.0726993
20.953163 1.0850818 -2.0739222
20.919628 1.5903198 -2.0737996
20.872969 2.0944343 -2.0735843
20.813271 2.5971074 -2.0732763
18.900049 4.2397923 -1.9146336
18.586132 5.1226792 -1.9056792
18.448671 5.5671253 -1.9048074
18.299805 6.0076623 -1.9038538
16.185907 6.1938171 -1.7130636
14.123593 6.2015085 -1.5247214
12.466435 6.2076855 -1.376586
11.099932 6.2128687 -1.2573645
9.4370995 6.2190614 -1.1171647
8.5174017 6.2224827 -1.0426576
8.1016207 6.2240281 -1.009856
6.5801563 6.1498361 -0.89026761
5.9726462 6.1481519 -0.84727311
5.7727146 6.2366171 -0.84001786
5.238945 6.238596 -0.80525893
4.7464938 6.2404199 -0.77499557
4.0710545 6.2429175 -0.7367022
3.8600976 6.2436972 -0.72558862
3.6552832 6.2444544 -0.71521461
3.4561424 6.2451892 -0.70553833
3.0730371 6.2466025 -0.68812501
2.5305469 6.2486024 -0.66637772
2.356914 6.2492404 -0.66018569
2.1863866 6.249867 -0.65448594
1.3710938 6.252861 -0.63275468
1.0430762 6.1654444 -0.6180886
0.89070308 6.1660047 -0.61581057
0.59686524 6.2508631 -0.6206829
0.44498047 6.2514172 -0.6194905
0.29361328 6.2519703 -0.61866254
-0.0083593745 6.2530723 -0.61809146
-0.15931641 6.253623 -0.6183461
-0.31047851 6.2541747 -0.61896175
-0.61416012 6.2552805 -0.62128204
-1.0757715 6.256959 -0.62754959
-1.3898144 6.2580991 -0.63365918
-1.7107714 6.2592626 -0.6413964
-2.0404198 6.2604575 -0.65085953
-2.3807812 6.2616892 -0.6621722
-3.1025879 6.264298 -0.69098586
-3.293535 6.2649875 -0.69962859
-3.489414 6.2656932 -0.70890683
-3.6907127 6.2664194 -0.71885854
-3.8955662 6.2635179 -0.72909588
-4.0549903 6.1820531 -0.73079586
-4.2723923 6.1828341 -0.74286556
-5.5597458 6.2712464 -0.82841969
-5.8369336 6.2722421 -0.8469165
-6.4310837 6.2743726 -0.88811356
-7.0875878 6.2767258 -0.93581527
-7.8204489 6.2793493 -0.9913739
-8.2209663 6.2807837 -1.0226295
-8.6478024 6.2823095 -1.0565563
-9.4627733 6.1997046 -1.1182308
-10.11875 6.2858362 -1.1774794
-10.689209 6.2878733 -1.2258428
-12.727324 6.2951512 -1.4035302
-15.728125 5.9703956 -1.6629168
-16.194639 4.4169579 -1.6592596
-17.400976 4.2976341 -1.7717105
-17.865156 3.5075035 -1.7996283
-17.938437 3.0742924 -1.7990106
-18.099365 1.7672247 -1.7975732
-18.13332 1.3297217 -1.7972331
-18.157421 0.89163631 -1.7969625
-18.171612 0.45314819 -1.796762
-18.094473 -1.7375588 -1.7968088
-18.049463 -2.1739831 -1.7970282
-17.994698 -2.6093047 -1.7973166
-17.855625 -3.4760046 -1.7981038
-17.771465 -3.906929 -1.7986014
-17.677607 -4.3359952 -1.7991681
-17.573994 -4.7630024 -1.7998043
-17.460772 -5.1877093 -1.8005091
-17.337959 -5.6099386 -1.8012823
-17.205605 -6.0295367 -1.802124
-16.323622 -6.166615 -1.7248349
-15.103691 -7.4405284 -1.6642807
-14.930049 -7.8081927 -1.6654263
-14.379589 -7.9679794 -1.6250024
-14.5575 -8.5321064 -1.6678991
-14.641699 -11.149136 -1.81911
-14.382236 -11.510315 -1.8208648
-13.55372 -12.559216 -1.8264918
-12.652217 -13.552278 -1.8326483
-12.336083 -13.870012 -1.8348143
-11.681054 -14.484468 -1.8393121
-11.342509 -14.78082 -1.8416415
-10.996758 -15.069673 -1.8440237
-4.9927344 -7.9990268 -0.93205571
-9.1652832 -16.395651 -1.8566889
-8.7796288 -16.635984 -1.8593646
-7.9902539 -17.090477 -1.8648502
-7.5869236 -17.304312 -1.8676568
-7.1780467 -17.509024 -1.8705053
-6.3446188 -17.890415 -1.8763193
-5.9203711 -18.066786 -1.879283
-5.0579977 -18.390236 -1.8853151
-4.178369 -18.673689 -1.8914785
-3.7327244 -18.8001 -1.894605
-3.2832811 -18.916151 -1.8977607
-2.3750098 -19.116669 -1.9041457
-1.9160937 -19.20093 -1.9073757
-0.99082029 -19.336887 -1.9138961
-0.52501953 -19.388432 -1.9171824
-0.056796875 -19.428862 -1.9204882
0.41251951 -19.458126 -1.9238046
0.88348633 -19.476185 -1.927135
1.3555468 -19.482922 -1.9304757
1.8284277 -19.478249 -1.933825
2.3019433 -19.462164 -1.9371814
2.7757323 -19.434622 -1.9405422
3.2458594 -19.373775 -1.9417236
3.7179101 -19.318167 -1.9445808
4.1899414 -19.254887 -1.947824
4.6555567 -19.157228 -1.9487463
5.112793 -19.025492 -1.9473306
5.5609961 -18.864752 -1.9440477
6.4709864 -18.592426 -1.9459291
7.3876462 -18.32597 -1.9531142
3.7263963 -8.0939732 -0.88070309
8.7422266 -17.842167 -1.9639642
9.1871872 -17.658566 -1.9675925
10.065458 -17.258173 -1.974852
10.926376 -16.813948 -1.9821018
12.180107 -16.06675 -1.9929193
12.586855 -15.796465 -1.9965008
14.889951 -13.960754 -2.0175707
15.598622 -13.270717 -2.0243776
15.940702 -12.91178 -2.0277305
16.598867 -12.167093 -2.0343213
11.927119 -8.3077688 -1.4367683
17.220762 -11.387894 -2.0407445
16.895458 -8.9627829 -1.8904977
17.338623 -8.1514597 -1.8938204
17.544638 -7.7370505 -1.8953735
19.99543 -6.0687637 -2.06551
20.147665 -5.5877194 -2.0666976
20.414619 -4.6138301 -2.0688097
20.719883 -3.1287987 -2.0713096
20.795937 -2.6287384 -2.0719621
20.858906 -2.1266894 -2.0725226
20.908916 -1.6231128 -2.0729914
20.945782 -1.1183014 -2.0733674
20.96954 -0.6125952 -2.0736511
20.980146 -0.10643005 -2.0738416
20.977608 0.39987427 -2.0739388
20.961855 0.90599483 -2.0739427
20.891005 1.9160223 -2.0736713
20.686659 3.4204106 -2.0725675
19.594257 4.2199464 -1.9812367
18.63205 4.9643798 -1.9059683
18.353798 5.8521237 -1.9042007
11.997559 6.2094345 -1.3353384
11.196474 6.141809 -1.2623103
10.139365 6.2164478 -1.1756136
9.613965 6.2184033 -1.1317681
9.1260347 6.2202182 -1.0916867
8.6712694 6.2219105 -1.0549427
8.2458687 6.2234936 -1.0211669
7.1159472 6.2276917 -0.9347176
5.8721189 6.2362485 -0.84669614
5.3302441 6.2382579 -0.81106627
4.3674998 6.2418222 -0.75302023
4.1473436 6.2426367 -0.74082518
3.5260448 6.2449303 -0.70888817
3.3303125 6.2456532 -0.69964093
3.139492 6.2463574 -0.69102925
2.4180467 6.2490158 -0.66232133
2.246455 6.2496471 -0.6564489
2.0777733 6.250267 -0.65105689
1.5866797 6.2520714 -0.6375829
1.4271679 6.252655 -0.63394541
1.251416 6.1646824 -0.62178171
0.65079099 6.2506638 -0.62119281
0.49871093 6.2512217 -0.61987102
0.19602539 6.2523279 -0.61832064
0.045087889 6.2528782 -0.61808741
-0.10583007 6.2534275 -0.61821413
-0.25691405 6.2539792 -0.61870211
-0.40830076 6.25453 -0.6195516
-0.56021482 6.255084 -0.62076432
-1.0207715 6.2567587 -0.62663186
-1.1765332 6.2573252 -0.62934983
-1.3337402 6.2578964 -0.63246071
-1.9813379 6.2602439 -0.6490528
-2.1490722 6.2608509 -0.65430403
-2.319629 6.2614694 -0.66002738
-2.4933202 6.2620969 -0.66624397
-3.0360839 6.2640576 -0.68807286
-3.2253613 6.26474 -0.69649655
-3.4194336 6.2654405 -0.70554394
-3.6187694 6.2661581 -0.71525478
-3.8237598 6.2668982 -0.72566283
-4.1945896 6.1825547 -0.7384991
-4.709785 6.2681932 -0.77499747
-5.2028418 6.2699656 -0.80535114
-6.32166 6.2739806 -0.88037825
-6.635654 6.275106 -0.90274817
-6.9662008 6.2762914 -0.92683953
-7.3150973 6.2775402 -0.95282018
-7.6843653 6.2788634 -0.98089087
-8.07623 6.2802658 -1.0112683
-8.9389944 6.2833519 -1.0800351
-9.2876558 6.1990781 -1.1037614
-11.738584 6.2916222 -1.3164752
-13.24667 6.2970057 -1.4498011
-14.122382 6.3001304 -1.5285558
-15.538291 6.4868112 -1.6643786
-15.679999 6.105979 -1.6632886
-15.813007 5.722301 -1.6622592
-15.937187 5.3359251 -1.661292
-16.052549 4.9471006 -1.6603863
-16.159052 4.5559974 -1.6595432
-16.821083 4.3072901 -1.7163565
-17.750332 4.0915136 -1.8005743
-17.913633 3.2278948 -1.7992212
-18.037676 2.3584509 -1.7981448
-18.08499 1.9220117 -1.7977104
-18.14999 1.0468146 -1.7970507
-18.167694 0.60847288 -1.7968252
-18.175507 0.16988036 -1.7966698
-18.173456 -0.26876342 -1.7965845
-18.161503 -0.7072131 -1.7965692
-18.139736 -1.1452868 -1.7966233
-18.015184 -2.4552469 -1.7972066
-17.883085 -3.3229547 -1.7979442
-17.802393 -3.7544949 -1.798417
-17.711924 -4.1842842 -1.7989596
-17.611816 -4.6120243 -1.7995709
-17.502001 -5.0375581 -1.8002515
-17.382578 -5.4607196 -1.8010006
-15.623925 -6.1822519 -1.660884
-15.478965 -6.5611711 -1.661824
-14.625908 -8.4050655 -1.6674436
-14.013906 -9.4642076 -1.6715355
-14.979384 -10.651416 -1.8168325
-14.475107 -11.383028 -1.8202364
-13.936934 -12.092348 -1.8238852
-13.067978 -13.111229 -1.8298053
-12.762353 -13.438097 -1.8318946
-12.127831 -14.071508 -1.8362429
-11.120029 -14.968227 -1.843174
-4.8634667 -8.0692644 -0.9312923
-9.3004198 -16.308502 -1.8557519
-8.5272951 -16.786612 -1.8611169
-8.1317282 -17.012573 -1.863866
-7.3234763 -17.437572 -1.8694918
-6.4936719 -17.825609 -1.8752787
-6.0712109 -18.00544 -1.8782287
-3.8910253 -18.756517 -1.893494
-3.4430077 -18.876245 -1.8966389
-2.9914649 -18.985518 -1.899811
-2.5365429 -19.084267 -1.9030097
-1.6184863 -19.249599 -1.9094719
-1.1553906 -19.315973 -1.9127356
0.24628906 -19.449034 -1.9226297
1.6609179 -19.48122 -1.9326384
3.080498 -19.402748 -1.9419174
4.0228515 -19.278646 -1.9466751
4.4918551 -19.197262 -1.948831
4.9518943 -19.075884 -1.9480848
5.4031639 -18.924313 -1.9453567
5.845449 -18.74724 -1.9410959
6.7679586 -18.511307 -1.9482434
8.5838184 -17.904505 -1.9626806
9.4725189 -17.5341 -1.9699364
9.9111519 -17.332294 -1.9735665
10.345459 -17.119493 -1.9771948
11.200274 -16.661215 -1.9844378
11.620175 -16.415863 -1.9880482
12.846318 -15.616394 -1.9988052
13.242929 -15.329091 -2.0023592
14.392373 -14.406345 -2.0128915
14.761171 -14.079017 -2.0163519
15.122285 -13.742065 -2.0197828
15.475478 -13.395639 -2.0231819
16.484892 -12.301523 -2.0331659
11.921504 -8.030858 -1.4208392
17.413496 -11.129222 -2.0427794
16.572432 -9.4979334 -1.8880886
16.812725 -9.1038885 -1.8898798
17.472881 -7.8844676 -1.8948318
17.6721 -7.4664516 -1.8963377
18.038202 -6.614852 -1.8991239
20.239336 -5.2748466 -2.0674179
20.490038 -4.2963395 -2.069416
20.689854 -3.3053877 -2.0710568
20.770468 -2.806062 -2.0717413
20.838085 -2.3047028 -2.0723343
20.968945 0.72679257 -2.073952
20.944727 1.2325336 -2.0738959
20.907373 1.7374914 -2.0737467
20.793407 2.7434106 -2.073169
20.716854 3.2437315 -2.072741
18.794247 4.3552394 -1.9069778
18.676533 4.8056369 -1.906247
18.547226 5.2526598 -1.9054333
18.406416 5.6960411 -1.9045376
16.816553 6.1076756 -1.7685102
12.251133 6.2084899 -1.3576057
11.401093 6.1278696 -1.27943
10.920049 6.2135401 -1.2419128
10.335401 6.2157164 -1.1921389
8.8287983 6.2213244 -1.0675998
8.3933983 6.2229443 -1.032811
7.601367 6.2258887 -0.97122657
6.8969336 6.2285047 -0.91859096
6.1796484 6.1473827 -0.86159992
5.9559469 6.2179246 -0.85109138
5.4228806 6.2379136 -0.81701839
5.1647263 6.2388706 -0.80058122
4.9166307 6.23979 -0.78524154
4.6777344 6.2406735 -0.77091956
4.0088768 6.2431479 -0.73338252
3.206543 6.2461109 -0.69400877
2.8351562 6.247478 -0.67815351
2.4795702 6.2487888 -0.66452008
1.9702734 6.2506614 -0.64782012
1.6436425 6.2518616 -0.63897198
1.4834667 6.25245 -0.63518667
1.1517383 6.1650486 -0.61993307
0.99852538 6.1656089 -0.61738586
0.84710938 6.1709962 -0.6156984
0.70482421 6.2504673 -0.62174928
0.098535158 6.2526832 -0.61812919
-0.35462889 6.2543344 -0.61920989
-0.50634766 6.254889 -0.62029308
-0.81179684 6.2559996 -0.6235646
-0.96591794 6.2565598 -0.62576246
-1.2778808 6.2576928 -0.63131255
-1.5961914 6.2588487 -0.63846397
-1.7582421 6.2594347 -0.64266568
-2.4314258 6.2618723 -0.66398454
-3.157783 6.2644968 -0.69344336
-3.5475585 6.265903 -0.71173793
-3.9051659 6.1815124 -0.72273332
-4.3371677 6.1830673 -0.74654281
-4.6262794 6.2678919 -0.77004308
-5.3705368 6.2705674 -0.81608075
-6.5226364 6.2747006 -0.89463705
-6.8471289 6.2758641 -0.91810036
-7.5511131 6.2783861 -0.97069776
-7.9346871 6.279758 -1.0002301
-8.3425779 6.2812181 -1.0322341
-8.7777338 6.2827759 -1.0670012
-9.6104393 6.2002306 -1.1305057
-10.28043 6.2864137 -1.1911165
-12.194385 6.2932496 -1.3564254
-15.486611 6.6212401 -1.6648462
-15.6308 6.2412047 -1.6636676
-15.894189 5.4730554 -1.6616277
-17.717392 4.2437291 -1.8008423
-17.807333 3.8133643 -1.8001074
-17.957989 2.9477112 -1.7988434
-18.018602 2.5127482 -1.798315
-18.069365 2.0766962 -1.7978561
-18.162539 0.7637732 -1.7968973
-18.173887 0.32524475 -1.7967169
-18.148573 -0.99017268 -1.7965963
-17.976835 -2.7360516 -1.7974141
-17.909327 -3.1697032 -1.7977933
-17.648388 -4.4607587 -1.7993466
-17.541992 -4.8870921 -1.8000027
-17.425966 -5.3111448 -1.8007275
-17.163593 -6.150764 -1.8022164
-15.380761 -6.8042278 -1.6624639
-15.053945 -7.5481238 -1.6646085
-14.693271 -8.2775202 -1.6669958
-14.50041 -8.6363106 -1.6682795
-14.299287 -8.9909277 -1.6696228
-15.065107 -10.519654 -1.8162558
-14.820341 -10.88999 -1.8179044
-14.566904 -11.255046 -1.8196156
-14.034668 -11.968401 -1.8232214
-13.756044 -12.316401 -1.8251147
-12.871504 -13.323098 -1.831148
-12.56084 -13.645643 -1.8332742
-11.916474 -14.270115 -1.837694
-10.894522 -15.152485 -1.8447287
-10.539717 -15.431417 -1.8471774
-4.9347067 -8.0313768 -0.9317537
-9.4347363 -16.220261 -1.8548211
-7.8731737 -17.153786 -1.8656646
-7.4682031 -17.364971 -1.8684837
-6.6421094 -17.759661 -1.8742428
-6.221416 -17.942822 -1.8771796
-5.3655176 -18.280186 -1.8831629
-4.9308105 -18.434082 -1.8862056
-4.0486817 -18.711637 -1.8923881
-3.1516893 -18.948046 -1.898685
-1.7817578 -19.22345 -1.908322
-0.38859373 -19.40134 -1.9181454
0.079824217 -19.438534 -1.9214535
0.549375 -19.46455 -1.924772
1.966455 -19.474737 -1.9348031
2.4400878 -19.45533 -1.938161
2.9137597 -19.423161 -1.941398
3.383496 -19.3585 -1.9425311
4.3274121 -19.234009 -1.9487416
4.7897754 -19.122126 -1.9485534
5.688457 -18.807949 -1.9422734
7.0640721 -18.425531 -1.9505637
7.5204296 -18.283386 -1.954165
7.9741893 -18.130032 -1.9577774
8.8723049 -17.789789 -1.965022
9.3162107 -17.602945 -1.9686506
9.7562599 -17.405037 -1.9722809
10.1921 -17.196148 -1.9759097
