# .PCD v0.7 - Point Cloud Data file format
VERSION 0.7
FIELDS x y z
SIZE 4 4 4
TYPE F F F
COUNT 1 1 1
WIDTH 1495
HEIGHT 1
VIEWPOINT 0 0 0 1 0 0 0
POINTS 1495
DATA ascii
2.6041698 6.2473273 -0.66902709
2.2575879 6.2486029 -0.656726
2.0888281 6.2492251 -0.65130532
1.9227442 6.2498355 -0.64634579
1.5975683 6.2510295 -0.63774931
1.4380273 6.2516165 -0.63408506
1.2802148 6.2521954 -0.63082707
1.1239258 6.252768 -0.62796628
0.95523435 6.1647687 -0.61663425
0.65283203 6.1658759 -0.61287856
0.20714843 6.2512894 -0.61825359
0.05626953 6.2518401 -0.61799365
-0.39676756 6.2534943 -0.61937493
-0.85426754 6.2551594 -0.62403661
-1.0085742 6.2557206 -0.62633687
-1.1641601 6.2562871 -0.62902337
-1.9676465 6.2592034 -0.64854741
-2.3052733 6.2604251 -0.65943909
-2.4786131 6.2610526 -0.66561103
-2.835664 6.2623444 -0.67951107
-3.0200391 6.2630119 -0.68728894
-3.6011424 6.2651091 -0.71429366
-4.016006 6.2666044 -0.73571485
-4.1751366 6.1814981 -0.73733151
-4.9293165 6.2679973 -0.78820807
-5.1795115 6.268898 -0.80379856
-5.4400392 6.2698331 -0.82051146
-5.9957519 6.2718301 -0.85765731
-6.2932129 6.2728972 -0.87830794
-6.6056442 6.2740192 -0.90051979
-6.9343748 6.275197 -0.92443019
-7.2813668 6.2764411 -0.9502213
-8.0379 6.279151 -1.0082108
-8.4522753 6.2806363 -1.0408826
-9.3688374 6.2839165 -1.1150943
-9.7434664 6.1997356 -1.1415467
-10.425869 6.2859626 -1.2033813
-12.382636 6.2929568 -1.3729727
-13.164873 6.2957511 -1.4424484
-15.531015 6.5267191 -1.6652403
-15.673495 6.1460538 -1.6641284
-17.749296 4.1367316 -1.8014798
-17.836836 3.7059577 -1.8007662
-17.914589 3.2734869 -1.8001211
-18.040741 2.4042945 -1.7990365
-18.089071 1.9679828 -1.7985973
-18.127558 1.5307891 -1.7982275
-18.171844 -0.66109437 -1.7974175
-18.080009 -1.9736197 -1.7977649
-17.969561 -2.8441365 -1.7983434
-17.899649 -3.2774479 -1.7987363
-17.730556 -4.139133 -1.7997292
-17.631435 -4.5671015 -1.800329
-17.522636 -4.9928827 -1.800997
-17.404219 -5.4162841 -1.8017334
-17.27622 -5.8370914 -1.8025377
-16.870087 -6.1570654 -1.7751418
-15.738887 -6.1783423 -1.6713138
-15.018916 -7.6396337 -1.6655955
-14.669628 -7.912992 -1.6475078
-14.256074 -9.0783749 -1.670632
-14.044745 -9.4274874 -1.6720386
-15.013818 -10.61207 -1.817359
-14.247432 -11.702837 -1.8224996
-13.975087 -12.055207 -1.8243344
-13.694443 -12.401635 -1.8262287
-13.405674 -12.741945 -1.8281817
-12.171328 -14.038239 -1.8365659
-11.166064 -14.937134 -1.8434298
-5.3589549 -7.9403787 -0.94690824
-9.7269135 -16.028728 -1.8533003
-9.3505373 -16.281404 -1.8558892
-8.9678411 -16.525635 -1.8585246
-6.9658203 -17.614685 -1.8723534
-5.7006149 -18.156874 -1.881126
-5.2693849 -18.318201 -1.8841215
-3.9502342 -18.742119 -1.8933002
-2.5976954 -19.073263 -1.902735
-1.6803613 -19.240944 -1.9091467
-1.2177246 -19.308546 -1.9123843
-0.75309569 -19.365231 -1.9156382
1.1235352 -19.480759 -1.928807
2.0688086 -19.4708 -1.9354556
3.48417 -19.342993 -1.9427601
4.8791208 -19.062086 -1.9449676
5.7789354 -18.759844 -1.9403379
6.2410936 -18.648972 -1.9438769
6.7013278 -18.526833 -1.9474314
7.1593261 -18.393442 -1.9509994
3.3818653 -8.1046267 -0.86806095
8.5172462 -17.925993 -1.9617642
8.9635153 -17.747883 -1.9653653
9.4061909 -17.558672 -1.9689698
9.8449898 -17.358435 -1.9725757
10.279531 -17.1472 -1.97618
10.709639 -16.925035 -1.9797812
11.134902 -16.692089 -1.9833764
11.555127 -16.448351 -1.9869641
11.97001 -16.193964 -1.9905417
12.379238 -15.929039 -1.9941067
12.782578 -15.653618 -1.9976575
13.179677 -15.367915 -2.0011911
15.416308 -13.44414 -2.0219071
15.762148 -13.090034 -2.0252566
16.099579 -12.726846 -2.0285707
16.428339 -12.354758 -2.0318468
11.666299 -8.3407202 -1.4175807
17.058847 -11.584661 -2.038276
17.360098 -11.187109 -2.0414243
17.65164 -10.781479 -2.0445254
16.768076 -9.1620398 -1.8887496
17.221035 -8.3576012 -1.8921177
18.001797 -6.6803632 -1.8979888
20.060713 -5.8332629 -2.0650618
20.20664 -5.3506522 -2.0661979
20.340176 -4.8641911 -2.0672472
20.569296 -3.881058 -2.0690818
20.747324 -2.8866513 -2.0705597
20.81702 -2.3860953 -2.0711637
20.873652 -1.8837643 -2.071676
20.965273 -0.36979979 -2.0726645
20.969521 0.13599731 -2.0728095
20.938711 1.1470971 -2.0728228
20.855459 2.1551647 -2.0724666
20.794199 2.6571538 -2.0721502
20.71998 3.1573064 -2.0717421
20.532793 4.150672 -2.0706518
18.688047 4.7261639 -1.9054083
18.422245 5.6169758 -1.9037421
18.272255 6.0566363 -1.9027874
18.111494 6.492228 -1.9018028
14.972695 6.19731 -1.6017675
14.014794 6.2008843 -1.5148557
10.433896 6.2143292 -1.2004243
8.9082708 6.2200112 -1.073956
8.0553417 6.2231841 -1.0061815
7.6675682 6.2246256 -0.97622037
6.9564452 6.2272711 -0.92288405
5.9403806 6.1472588 -0.84498554
5.2105665 6.2376924 -0.80339003
4.9608397 6.2386174 -0.78786331
4.720459 6.2395072 -0.77336872
4.2646384 6.2411957 -0.74718648
4.0478516 6.2419963 -0.73537701
3.8376951 6.242774 -0.72434896
3.6336229 6.2435269 -0.71405685
3.4351757 6.2442617 -0.70445633
3.2418652 6.2449746 -0.69551003
2.6888769 6.2470145 -0.67226422
2.3391504 6.2483039 -0.65948212
2.0016992 6.2495451 -0.64865631
1.513955 6.2513371 -0.63578266
1.1983691 6.2524958 -0.62928361
1.0280468 6.1645012 -0.61775154
0.87585938 6.1650605 -0.61550987
0.72470701 6.1656132 -0.61364174
0.43045896 6.250473 -0.61929691
-0.62811524 6.2543354 -0.62132519
-0.78096676 6.2548928 -0.62307179
-0.93477535 6.2554536 -0.62519139
-1.0897266 6.2560163 -0.62769324
-1.2460155 6.2565851 -0.63058251
-1.5633886 6.2577362 -0.63756412
-1.7249316 6.2583246 -0.64167726
-2.0548143 6.2595181 -0.65121293
-2.2236524 6.2601309 -0.65666729
-2.570498 6.2613859 -0.66903782
-2.7490723 6.2620316 -0.67599666
-2.9315038 6.262691 -0.6835041
-3.1181445 6.2633657 -0.69158822
-3.3093653 6.2640557 -0.70027572
-3.5055859 6.2647638 -0.70960462
-4.2898927 6.1819119 -0.74376965
-4.5152245 6.1827226 -0.75675887
-4.7501364 6.185462 -0.77089596
-5.0588474 6.2684636 -0.79622114
-5.3143263 6.269383 -0.81238788
-5.5805469 6.2703376 -0.82971859
-5.8585348 6.2713361 -0.848306
-7.1133299 6.2758393 -0.93766266
-7.8489842 6.2784758 -0.99351978
-8.2511616 6.2799163 -1.0249509
-8.679863 6.2814507 -1.0590725
-10.02455 6.2024751 -1.1652226
-10.731397 6.287055 -1.2293965
-11.354541 6.2892828 -1.2830271
-15.606474 6.3281083 -1.664641
-15.873877 5.5612555 -1.6625865
-16.106035 4.7840519 -1.6607772
-17.514853 4.2952886 -1.7825845
-17.796278 3.9117889 -1.8010981
-17.951397 3.0468352 -1.799811
-18.014229 2.6121843 -1.7992703
-18.067265 2.1763537 -1.7987982
-18.167227 0.86387205 -1.7977968
-18.18078 0.42539001 -1.7976019
-18.162226 -0.89015561 -1.7974331
-18.100536 -1.7652313 -1.7976679
-18.054941 -2.2015653 -1.7978891
-17.859238 -3.5033362 -1.798969
-17.461914 -5.2144971 -1.8013736
-17.205576 -6.0559478 -1.8029846
-15.57246 -6.3407502 -1.6619989
-15.423906 -6.7183843 -1.6629574
-15.266728 -7.0927978 -1.6639775
-14.926806 -7.8312297 -1.6661994
-14.553262 -8.5545931 -1.6686615
-14.146611 -9.2614145 -1.6713598
-13.930976 -9.6081753 -1.6727972
-14.374501 -11.532647 -1.8216449
-14.106103 -11.887758 -1.8234512
-13.829433 -12.23705 -1.825317
-13.544531 -12.580298 -1.8272423
-13.251523 -12.917341 -1.8292258
-12.641708 -13.571989 -1.8333647
-11.669335 -14.502712 -1.8399899
-10.984277 -15.086911 -1.8446739
-5.2532325 -7.9993453 -0.94596809
-8.76542 -16.649826 -1.8599197
-8.3734369 -16.880922 -1.8626231
-7.9755759 -17.10317 -1.86537
-7.1630077 -17.520485 -1.8709884
-5.9048438 -18.076382 -1.8797084
-5.042285 -18.398571 -1.8857
-4.6045313 -18.544737 -1.8887446
-3.7170508 -18.806566 -1.8949252
-2.8148828 -19.026886 -1.9012184
-1.9001563 -19.20483 -1.9076095
-0.50950193 -19.390476 -1.9173453
0.89834958 -19.476404 -1.9272245
1.3702148 -19.482538 -1.930541
1.8428711 -19.47732 -1.9338657
3.2588866 -19.367685 -1.9413433
3.7310252 -19.31422 -1.9444414
4.200654 -19.240908 -1.9466966
5.5577731 -18.808834 -1.938655
6.9410152 -18.45849 -1.949295
7.3977342 -18.319252 -1.9528692
8.302969 -18.007101 -1.9600466
8.7509279 -17.834291 -1.9636459
9.1953802 -17.650375 -1.9672492
9.6360645 -17.4554 -1.9708546
10.072646 -17.249392 -1.9744598
10.932569 -16.80459 -1.9816617
11.355214 -16.566042 -1.985253
11.772685 -16.316725 -1.9888355
14.152012 -14.602062 -2.0100145
14.52502 -14.280993 -2.0134702
14.890527 -13.950205 -2.0168979
15.598125 -13.260193 -2.0236621
16.27253 -12.533447 -2.030288
16.59667 -12.156789 -2.0335433
17.217489 -11.377871 -2.0399272
17.513681 -10.976065 -2.043051
16.890371 -8.9541903 -1.8896571
17.917665 -6.8848705 -1.8973507
18.950596 -6.2508521 -1.9724749
20.519238 -4.1168113 -2.0686765
20.6208 -3.6221457 -2.0695028
20.70952 -3.1248391 -2.0702398
20.934893 -1.1162945 -2.0722814
20.96912 -0.10543884 -2.0727518
20.950809 0.90596372 -2.0728531
20.921991 1.4109674 -2.0727651
20.825077 2.4177642 -2.0723128
20.582148 3.9145525 -2.0709453
19.595566 4.2190447 -1.9813442
18.744688 4.5115237 -1.9057577
18.623037 4.9603596 -1.9050044
18.345274 5.8472967 -1.9032531
18.188768 6.2845731 -1.9021933
16.386688 6.1082425 -1.7286385
13.554209 6.2026019 -1.4734063
12.739463 6.2056413 -1.4007089
12.000917 6.2083964 -1.3355865
11.175849 6.1276846 -1.2598517
10.142627 6.2154131 -1.1758354
8.6745119 6.2208796 -1.055143
8.2490721 6.2224641 -1.0213585
7.8498144 6.2239509 -0.99022824
7.119082 6.2266669 -0.93488431
6.4642773 6.2290983 -0.88735646
6.07832 6.1467462 -0.8544848
5.5984669 6.2362528 -0.82838702
5.078867 6.2381792 -0.79514349
4.8341308 6.2390862 -0.78016567
4.5983005 6.2399602 -0.7661804
4.3706446 6.2408023 -0.75311619
3.7303319 6.2431707 -0.71888167
3.5292578 6.2439141 -0.70895618
3.3335447 6.2446365 -0.69970256
3.1427734 6.2453408 -0.69108415
2.7744434 6.2466998 -0.67562485
2.4214454 6.2479997 -0.66234976
2.2498925 6.248631 -0.6564703
1.915293 6.2498636 -0.64613175
1.7517285 6.2504644 -0.64163816
1.590332 6.2510562 -0.63757467
1.4308593 6.2516422 -0.63392907
1.1168847 6.2527933 -0.62784612
0.4964453 6.1712809 -0.61197782
0.20029296 6.2513151 -0.6182338
11.92998 -9.4944134 -1.8546568
12.166816 -9.2124872 -1.8563861
12.396699 -8.9244184 -1.8580679
12.834824 -8.3306084 -1.8612835
13.243047 -7.7144241 -1.8642938
13.435508 -7.3984098 -1.8657191
13.620039 -7.0773773 -1.8670895
13.796494 -6.7515736 -1.8684044
14.490234 -6.2439356 -1.9192919
15.658242 -5.8691425 -2.0340991
15.803847 -5.4927588 -2.0352085
16.066288 -4.7289252 -2.0372274
16.289598 -3.9520204 -2.0389743
16.473104 -3.1641333 -2.0404437
16.549707 -2.7667401 -2.0410726
16.616201 -2.3674157 -2.0416312
16.718388 -1.5640343 -2.0425322
16.794374 -0.35129759 -2.0433424
16.799004 0.053883664 -2.043467
16.793242 0.45906311 -2.0435188
16.777119 0.8639648 -2.0434973
16.750595 1.2683074 -2.0434029
16.713758 1.6718206 -2.0432358
16.666611 2.0742211 -2.0429955
16.609209 2.4752197 -2.0426834
16.541563 2.8745661 -2.0422986
16.277763 4.0598798 -2.0407133
14.781347 4.4539433 -1.8778775
14.537304 5.1573052 -1.8763216
14.401962 5.5038762 -1.8754488
14.257919 5.846724 -1.874514
13.944521 6.5205536 -1.8725199
11.76374 6.2090116 -1.6180482
9.9583492 6.2158608 -1.427959
9.4462891 6.2177777 -1.3756421
8.5257711 6.22122 -1.2838366
8.1096487 6.222775 -1.2434188
7.7186813 6.2242365 -1.2061484
7.0020995 6.2269111 -1.1398247
6.6722164 6.2281413 -1.1102628
6.277627 6.1497684 -1.0689787
5.6981344 6.1479874 -1.0196633
5.2451463 6.2373991 -0.99133331
4.2945409 6.240932 -0.92152625
4.0768161 6.2417388 -0.90685844
3.2677832 6.2447381 -0.85733443
2.8938282 6.2461209 -0.83736598
2.5360839 6.2474418 -0.82017338
2.3624609 6.2480826 -0.81253821
1.6963476 6.2505364 -0.78782314
1.5356152 6.2511272 -0.78300029
1.0487597 6.1643 -0.76060551
0.89645505 6.1648579 -0.75778604
0.745166 6.1654129 -0.75542337
0.59518552 6.170795 -0.75410414
0.44998047 6.2361054 -0.7605316
0.29972655 6.2508245 -0.76122844
0.14874999 6.2513762 -0.76063716
-0.0020605468 6.2519269 -0.76048887
-0.15291016 6.2524772 -0.76078337
-0.45540038 6.2535796 -0.76270473
-0.76013672 6.2546892 -0.76642346
-0.91380858 6.2552481 -0.76896954
-1.3822558 6.2569499 -0.77945065
-1.7028222 6.258112 -0.78891903
-1.8662401 6.2587028 -0.79443866
-3.0924609 6.2631316 -0.84966016
-3.2830467 6.2638178 -0.86025035
-3.4785352 6.2645206 -0.87161851
-3.8860643 6.2659869 -0.89688355
-4.0990624 6.2667522 -0.91088253
-4.4840236 6.1824555 -0.92901516
-4.717783 6.1851883 -0.9462561
-5.5435548 6.2700372 -1.0180453
-6.7305369 6.2742801 -1.1192755
-7.0661035 6.2754779 -1.1495671
-7.4205565 6.2767434 -1.1822506
-7.7959666 6.2780828 -1.2175761
-8.619648 6.2810187 -1.2973453
-9.0738764 6.2826371 -1.3425088
-11.266211 6.2887063 -1.5694828
-12.42165 6.1676679 -1.6869977
-12.559082 5.8626714 -1.6859618
-12.689404 5.5548029 -1.6849755
-13.037177 4.6154876 -1.6823167
-13.191045 4.3148456 -1.688243
-14.464268 3.9702716 -1.8245394
-14.628368 3.2657611 -1.8232255
-14.760029 2.5549939 -1.8221382
-14.813652 2.1976922 -1.8216796
-14.859053 1.8393444 -1.8212789
-14.896298 1.4801391 -1.8209355
-14.946123 0.75982541 -1.8204215
-14.963057 0.038156737 -1.8201382
-14.947061 -0.6834619 -1.8200866
-14.926728 -1.0438129 -1.8201476
-14.898164 -1.4036285 -1.8202665
-14.816543 -2.1209435 -1.8206773
-14.555351 -3.5414052 -1.8221908
-14.469833 -3.8925602 -1.8227121
-14.376288 -4.241776 -1.8232903
-14.165332 -4.9337192 -1.8246163
-14.047939 -5.2761016 -1.8253639
-13.922725 -5.6158719 -1.826167
-12.288095 -6.3955445 -1.6850795
-12.137392 -6.6940074 -1.6860709
-11.815351 -7.2807345 -1.688202
-11.090693 -8.4091673 -1.6930404
-10.893184 -8.6810141 -1.6943673
-10.262734 -9.469615 -1.6986209
-9.8726854 -11.603979 -1.8532819
-9.5995893 -11.850644 -1.8551458
-5.2732129 -7.9727139 -1.1627495
-8.1475096 -12.98885 -1.8650967
-7.8407125 -13.196491 -1.8672067
-7.528789 -13.397154 -1.8693542
-6.8901563 -13.777019 -1.8737583
-6.5637403 -13.955975 -1.8760128
-6.2328124 -14.127435 -1.8783004
-5.214541 -14.595683 -1.8853537
-4.8672361 -14.73605 -1.8877637
-4.516211 -14.868327 -1.8902017
-3.8038573 -15.108318 -1.8951559
-3.4429102 -15.215835 -1.8976693
-3.0790234 -15.314873 -1.9002054
-2.7123828 -15.405393 -1.9027628
-2.3432031 -15.487288 -1.90534
-0.84490234 -15.72702 -1.9158202
-0.46597657 -15.764628 -1.9184759
0.29566404 -15.81271 -1.9238201
0.6778906 -15.823017 -1.9265054
1.8271191 -15.792781 -1.9338746
3.3577051 -15.62541 -1.9440908
3.7386131 -15.560708 -1.946697
4.11833 -15.486706 -1.9493011
4.4966798 -15.403396 -1.9519012
5.2425876 -15.192754 -1.9550071
5.9587598 -14.89626 -1.9515994
3.4671679 -8.0956345 -1.0712976
6.6900973 -14.635066 -1.9574212
7.4101171 -14.338036 -1.9632565
7.7653222 -14.176167 -1.9661746
9.4840918 -13.235986 -1.9807017
10.461474 -12.569968 -1.9893025
10.776973 -12.33154 -1.9921396
11.981484 -11.298845 -2.0032873
12.267226 -11.021564 -2.0060151
11.814619 -9.62677 -1.8538154
12.054619 -9.3478432 -1.8555664
11.636328 -8.1563234 -1.7285534
12.944424 -8.1716938 -1.8620901
13.344609 -7.5498929 -1.8650454
13.532929 -7.2312407 -1.8664421
13.713262 -6.9076862 -1.8677834
13.885448 -6.5794482 -1.8690689
14.057549 -6.2503772 -1.8713897
14.990048 -6.236444 -1.9749264
15.585371 -6.0474138 -2.0335462
16.007177 -4.9125047 -2.0367701
16.239882 -4.1385212 -2.0385823
16.432949 -3.3530645 -2.0401185
16.514404 -2.9566965 -2.0407815
16.585722 -2.5582516 -2.0413733
16.646864 -2.1580179 -2.0418942
16.697723 -1.7562628 -2.0423431
16.768593 -0.94929075 -2.0430253
16.798086 -0.13954468 -2.0434167
16.797266 0.26566893 -2.043503
16.786114 0.67073727 -2.0435169
16.76454 1.0753863 -2.043457
16.690439 1.8822943 -2.0431194
16.32579 3.8727543 -2.0410085
14.834268 4.2842155 -1.878211
14.720996 4.6389933 -1.8774954
14.598788 4.9906387 -1.876716
14.327773 5.683537 -1.8749681
14.179189 6.0243497 -1.8740008
12.844902 6.2049589 -1.7352285
12.096767 6.2077641 -1.6539129
10.216846 6.2148943 -1.4546678
9.685957 6.2168818 -1.4000266
9.1932325 6.2187247 -1.3500998
8.73417 6.2204413 -1.3043449
8.3049612 6.2220464 -1.2622992
7.9023337 6.2235503 -1.2235675
7.5234571 6.2249665 -1.187814
6.5064745 6.2287617 -1.0956627
6.1179786 6.1464238 -1.0549067
5.6352048 6.2359467 -1.0223843
5.1127148 6.2378912 -0.98108947
4.8666992 6.2388053 -0.96248627
3.9657323 6.2421513 -0.8995809
3.3597558 6.2443976 -0.86254162
3.1683397 6.2451053 -0.85183239
2.7988865 6.2464714 -0.83261651
2.6201367 6.2471304 -0.82403868
2.4449217 6.2477775 -0.81610519
2.272959 6.2484121 -0.80878896
2.103955 6.2490349 -0.80206662
1.9376464 6.2496476 -0.7959134
1.4523828 6.2514334 -0.7806834
1.2944238 6.2520132 -0.77662957
1.1380078 6.2525873 -0.77306485
0.96902341 6.1645913 -0.75907433
0.81726563 6.1651468 -0.75649321
0.66644531 6.1657014 -0.7543692
0.37189451 6.2505608 -0.76166809
0.069931641 6.2516632 -0.76050454
-0.080888674 6.2522149 -0.76058757
-0.38305664 6.2533174 -0.76208359
-0.53477538 6.2538691 -0.7635017
-1.1499902 6.2561064 -0.77374756
-1.3068261 6.2566752 -0.7774902
-2.4627147 6.26086 -0.81837553
-2.8190918 6.262145 -0.83536136
-3.0031152 6.2628083 -0.84487027
-3.7866504 6.2656293 -0.8905316
-3.9965625 6.2663836 -0.90408033
-4.9069724 6.2677555 -0.96827465
-5.1562986 6.2686491 -0.98734409
-5.4158301 6.2695794 -1.0077775
-5.9692869 6.2715592 -1.0531948
-6.2655077 6.2726188 -1.0784458
-6.5764647 6.2737298 -1.1055943
-6.9036813 6.2748966 -1.1348231
-7.2488766 6.2761307 -1.1663357
-7.6140037 6.2774343 -1.2003659
-8.0013084 6.2788138 -1.2371838
-8.4133692 6.2802849 -1.2770977
-8.8531837 6.2818513 -1.32047
-9.3241796 6.2835283 -1.3677102
-9.6959276 6.1993327 -1.3998952
-10.965693 6.2876358 -1.5376021
-12.206211 6.6129289 -1.6886847
-12.494355 6.0086246 -1.6864501
-12.628096 5.7021074 -1.6854403
-12.754658 5.3927908 -1.68448
-13.091093 4.4496589 -1.6818998
-13.721025 4.2974906 -1.748999
-14.420361 4.1373444 -1.8248864
-14.665917 3.0805779 -1.8229192
-14.731572 2.7251379 -1.822377
-14.789082 2.3683856 -1.8218914
-14.838398 2.0105188 -1.8214632
-14.87955 1.6517035 -1.8210921
-14.937217 0.93192625 -1.820523
-14.95372 0.57130617 -1.8203251
-14.961992 0.21044555 -1.8201849
-14.953857 -0.51131165 -1.8200779
-14.93745 -0.87185484 -1.8201112
-14.912831 -1.2319489 -1.8202025
-14.87999 -1.5914123 -1.8203517
-14.838984 -1.950067 -1.8205584
-14.732422 -2.6642709 -1.8211452
-14.666914 -3.0194597 -1.821525
-14.59331 -3.3731551 -1.8219621
-14.511669 -3.7251635 -1.822456
-14.421943 -4.0753312 -1.8230073
-14.324228 -4.4234695 -1.8236152
-14.218515 -4.769403 -1.8242798
-14.104941 -5.112978 -1.8250003
-13.983457 -5.4540162 -1.8257768
-13.85417 -5.7923479 -1.8266089
-13.717138 -6.1277909 -1.8274959
-12.973926 -6.1753831 -1.7478296
-12.357754 -6.2519293 -1.6846222
-12.055879 -6.848659 -1.6866091
-11.894727 -7.1419806 -1.6876755
-11.726728 -7.4316955 -1.6887908
-11.552021 -7.7176895 -1.6899542
-11.182724 -8.2778749 -1.6924233
-10.988281 -8.5517769 -1.6937281
-10.787402 -8.8213587 -1.6950793
-10.580215 -9.0864582 -1.6964757
-10.147256 -9.6026497 -1.6994026
-10.774433 -10.700498 -1.8471469
-10.265068 -11.228646 -1.8506082
-10.000928 -11.484126 -1.8524073
-9.1723824 -12.214355 -1.8580669
-5.3696876 -7.918889 -1.1638402
-5.1677637 -8.0315351 -1.1617346
-7.6783004 -13.302242 -1.8683245
-7.3637595 -13.499207 -1.8704914
-6.7201171 -13.871484 -1.8749325
-3.6155858 -15.165561 -1.8964666
-2.8877246 -15.363266 -1.9015396
-2.5197363 -15.449272 -1.9041073
-1.4018457 -15.654996 -1.9119205
-1.0252539 -15.70588 -1.9145569
-0.64704102 -15.747801 -1.9172066
-0.26737306 -15.780723 -1.9198687
0.11348633 -15.804543 -1.9225411
0.87793946 -15.824756 -1.9279116
1.2611523 -15.820949 -1.9305902
1.6442676 -15.804091 -1.932813
2.4104881 -15.745573 -1.9376333
2.7933104 -15.703945 -1.9402391
3.5569334 -15.592769 -1.9454534
4.3162694 -15.444328 -1.9506607
5.0677147 -15.253274 -1.9551611
5.4317966 -15.120161 -1.9543208
5.7855368 -14.960564 -1.9511672
3.3703125 -8.126812 -1.0702261
6.5164843 -14.700688 -1.9560299
6.8794041 -14.560903 -1.9589453
7.2393551 -14.412158 -1.961863
7.5961523 -14.254536 -1.9647814
8.2993069 -13.912804 -1.9706137
9.6575098 -13.12534 -1.9822084
10.309013 -12.680927 -1.9879425
10.939688 -12.203742 -1.9936153
11.842861 -11.428564 -2.001976
12.13166 -11.154853 -2.0047164
12.413955 -10.873685 -2.0074303
12.68955 -10.585234 -2.0101159
11.640234 -8.360549 -1.7433169
12.844365 -8.3169088 -1.8613538
13.444023 -7.383985 -1.8657821
14.532382 -6.2433057 -1.9239731
15.510371 -6.2247357 -2.0329785
15.665068 -5.8522067 -2.0341508
15.945859 -5.0953207 -2.0362973
16.071787 -4.7114892 -2.0372701
16.18792 -4.3243933 -2.0381746
16.476776 -3.1461852 -2.0404737
16.552948 -2.7487044 -2.0410995
16.794813 -0.33295959 -2.0433495
16.792725 0.47739929 -2.0435193
16.776133 0.88228148 -2.0434947
16.749159 1.2865949 -2.0433972
16.664248 2.0924048 -2.0429833
16.606377 2.493346 -2.0426674
16.538242 2.8926048 -2.0422792
16.371572 3.6850066 -2.0412874
16.273096 4.0776043 -2.0406845
15.314931 4.2325959 -1.9327706
14.776181 4.4700055 -1.8778448
14.251201 5.8621635 -1.8744701
13.93709 6.5356488 -1.8724786
12.444931 6.2064581 -1.6916337
11.732871 6.2091265 -1.6147364
9.9342966 6.2159524 -1.4254832
8.9493456 6.2196369 -1.3256956
8.0913963 6.2228436 -1.2416637
7.3340621 6.2256732 -1.1702102
6.2639647 6.1498199 -1.0677979
5.9661522 6.1469903 -1.0420098
5.6915135 6.1543279 -1.0196776
5.4944334 6.2364717 -1.0110315
5.2335448 6.237442 -0.99042988
4.7417579 6.2392707 -0.95325691
4.0671191 6.2417755 -0.90621591
3.8563867 6.2425566 -0.89256167
3.2591112 6.2447696 -0.85684788
2.8855371 6.2461514 -0.8369469
2.7049901 6.2468181 -0.82805097
2.5281348 6.2474713 -0.81981361
1.8517089 6.2499638 -0.79291642
1.6890136 6.2505631 -0.78759366
1.5283788 6.2511539 -0.782794
1.3696094 6.2517376 -0.77850288
1.2124804 6.2523136 -0.77470577
1.0418261 6.1643243 -0.76046699
0.73833984 6.1654377 -0.755328
0.58838868 6.1708198 -0.75402898
-0.0088867182 6.2519522 -0.76049286
-0.1597461 6.2525015 -0.76080734
-0.31082031 6.2530537 -0.76156569
-0.46227539 6.2536054 -0.76276869
-0.76707029 6.254715 -0.76652843
-1.2317675 6.256403 -0.77564329
-1.3894335 6.2569757 -0.77964336
-1.7101758 6.2581377 -0.78915739
-2.3797264 6.2605596 -0.81470084
-3.100996 6.2631607 -0.85012501
-3.2917774 6.2638493 -0.86074746
-4.1088572 6.2667875 -0.91153949
-4.2697458 6.1816864 -0.91387838
-4.4943552 6.1824918 -0.92975903
-4.7284961 6.1852264 -0.94704884
-5.2906055 6.2691312 -0.99784636
-5.5558105 6.2700796 -1.0190369
-6.1223435 6.2721062 -1.0661651
-6.426084 6.2731924 -1.0923865
-6.7453418 6.2743325 -1.1205975
-7.4370799 6.2768021 -1.1837894
-8.213398 6.2795706 -1.2576381
-9.0951853 6.2827129 -1.3446467
-12.28377 6.4560013 -1.6880244
-12.428007 6.1539264 -1.6869497
-12.695147 5.5407891 -1.6849319
-12.817968 5.2300811 -1.6839978
-12.933594 4.916811 -1.6831136
-14.312675 4.2854352 -1.8173858
-14.554072 3.6029351 -1.8238245
-14.631709 3.2497375 -1.8231983
-14.762646 2.5388312 -1.822116
-14.815888 2.1814752 -1.8216604
-14.897783 1.4638458 -1.8209214
-14.925615 -1.0601239 -1.8201517
-14.896669 -1.4199151 -1.8202734
-14.85957 -1.77898 -1.8204526
-14.814277 -2.1371393 -1.8206896
-14.76083 -2.4942403 -1.8209841
-14.629462 -3.2045236 -1.8217462
-14.55165 -3.5573573 -1.8222133
-14.465771 -3.9084246 -1.8227371
-14.371855 -4.2575536 -1.8233181
-14.26998 -4.6045618 -1.8239553
-13.916894 -5.6311936 -1.8262045
-13.783486 -5.9680328 -1.8270659
-13.35078 -6.1672144 -1.7889105
-11.807744 -7.2938719 -1.6882526
-11.636259 -7.5816641 -1.6893929
-11.458056 -7.8656335 -1.6905813
-11.081904 -8.4215832 -1.6930996
-10.679873 -8.9604921 -1.6958038
-10.469395 -9.2232046 -1.6972239
-10.252753 -9.4812021 -1.6986886
-10.388926 -11.10465 -1.8497655
-10.127773 -11.362903 -1.8515429
-9.8604488 -11.615313 -1.8533652
-9.0226269 -12.335828 -1.8590922
-5.2640524 -7.9778233 -1.1626549
-8.1336908 -12.998398 -1.8651919
-7.8266697 -13.205742 -1.8673034
-7.5145407 -13.406069 -1.8694525
-6.8754587 -13.785288 -1.8738598
-6.5488377 -13.963899 -1.8761157
-6.2177148 -14.135025 -1.878405
-5.5425782 -14.454296 -1.8830792
-5.1988769 -14.602229 -1.8854623
-4.8513966 -14.742211 -1.8878738
-3.4264941 -15.220503 -1.8977838
-2.3264062 -15.490798 -1.9054571
-1.9547558 -15.563563 -1.9080538
-1.2052441 -15.682702 -1.9132966
-0.82774413 -15.728913 -1.9159402
0.31294921 -15.813366 -1.9239416
0.69523436 -15.823291 -1.9266272
1.0781738 -15.823986 -1.9293197
1.4613867 -15.813291 -1.9317516
2.2276075 -15.762168 -1.9363903
2.9931934 -15.678486 -1.9416019
4.1355076 -15.483134 -1.9494189
4.5137792 -15.399393 -1.9520187
5.6183591 -15.04072 -1.9530566
5.9754295 -14.890722 -1.951731
8.4805956 -13.817747 -1.9721353
8.8243847 -13.629249 -1.9750421
9.4991302 -13.226486 -1.9808322
9.8296576 -13.012426 -1.9837118
10.155313 -12.790007 -1.9865788
11.99458 -11.286453 -2.0034113
12.280009 -11.008824 -2.0061378
12.298252 -9.0496387 -1.857347
11.635966 -8.1371145 -1.7271762
12.742665 -8.460845 -1.8606058
12.953828 -8.1578379 -1.8621594
13.353311 -7.5355682 -1.8651098
14.097675 -6.2497807 -1.8758248
15.034746 -6.2357721 -1.9799151
15.882324 -5.2773051 -2.035809
16.13372 -4.5095396 -2.0377517
16.345791 -3.7292998 -2.0394199
16.436884 -3.3351576 -2.0401502
16.699814 -1.7380307 -2.042362
16.739912 -1.3349792 -2.0427358
16.769707 -0.93096799 -2.0430372
16.798281 -0.1211853 -2.0434222
16.730947 1.4976104 -2.0433168
16.688251 1.9005243 -2.0431082
16.635292 2.3021686 -2.0428274
16.57205 2.7022667 -2.0424738
16.41502 3.4967279 -2.0415502
16.321358 3.8905475 -2.0409813
15.974833 4.2176142 -2.0097883
14.829335 4.3003616 -1.8781799
14.715683 4.6549664 -1.8774616
14.593046 5.0064616 -1.8766793
14.461514 5.3545623 -1.8758335
14.172265 6.0396867 -1.8739556
11.233232 6.1272111 -1.5564828
10.764179 6.2128448 -1.5118213
8.7141209 6.2205167 -1.3023646
8.286191 6.222116 -1.2604768
7.884697 6.2236161 -1.2218881
7.5068259 6.2250261 -1.1862602
7.1501856 6.2263589 -1.1533033
6.8126268 6.2276187 -1.1227666
5.8180075 6.147542 -1.0295876
4.8557811 6.2388458 -0.96167272
4.6191797 6.2397246 -0.94435418
4.39082 6.2405729 -0.92818052
4.1700392 6.2413945 -0.91307288
3.9561913 6.2421865 -0.89896393
3.7487304 6.2429557 -0.88579023
3.3509765 6.2444305 -0.86203992
3.1597753 6.2451372 -0.85136557
2.9731348 6.2458282 -0.84143543
2.7907031 6.2465019 -0.8322137
2.4370704 6.247807 -0.81576061
2.265244 6.2484417 -0.8084721
2.0963671 6.249063 -0.80177468
1.7663964 6.2502775 -0.7900691
1.4451953 6.2514591 -0.78048885
1.2873046 6.2520404 -0.77645689
0.50999022 6.1711063 -0.75321805
0.21395507 6.2511368 -0.76083791
-0.23867187 6.25279 -0.76114815
-0.54165035 6.2538934 -0.76357609
-0.84727538 6.2550054 -0.76781231
-1.3139746 6.256701 -0.77767259
-1.6329004 6.2578583 -0.78669971
-1.7953515 6.2584467 -0.79198837
-2.1273828 6.2596478 -0.80420125
-2.2974706 6.260263 -0.81116492
-2.4706249 6.2608881 -0.81873167
-2.6471386 6.2615252 -0.82692564
-2.8273437 6.2621746 -0.83577716
-3.011533 6.2628388 -0.84531701
-3.2001171 6.2635183 -0.85558134
-3.7960057 6.2656631 -0.89112407
-4.165195 6.1813102 -0.90667206
-4.3861814 6.1821051 -0.9220441
-4.6149316 6.1829252 -0.9385007
-5.1678419 6.268692 -0.9882409
-5.4278321 6.2696218 -1.0087384
-5.6989942 6.2705927 -1.0307164
-6.2792673 6.2726679 -1.0796334
-6.5909176 6.2737823 -1.1068723
-6.9189157 6.2749515 -1.1361989
-7.6310544 6.2774944 -1.2019736
-8.8738184 6.2819242 -1.3225228
-9.3463182 6.2836075 -1.3699499
-9.7194529 6.1994157 -1.4023099
-10.399638 6.2856231 -1.4781392
-12.500556 5.9947953 -1.6864035
-12.633974 5.6881509 -1.6853957
-13.095586 4.4352593 -1.6818649
-14.42458 4.12149 -1.8248528
-14.669072 3.0644829 -1.8228935
-14.791493 2.3521807 -1.8218707
-14.9533 -0.52763367 -1.8200781
-14.878329 -1.6076654 -1.8203595
-14.787363 -2.3239138 -1.8208362
-14.589794 -3.3891263 -1.8219831
-14.507773 -3.7410536 -1.8224798
-14.417695 -4.0911345 -1.8230335
-13.977793 -5.4693952 -1.8258131
-13.710693 -6.1429052 -1.8275379
-12.939101 -6.1761365 -1.7440436
-12.351064 -6.2655964 -1.6846662
-12.04874 -6.8620348 -1.6866564
-11.718955 -7.4447384 -1.6888424
-11.362275 -8.0124807 -1.6912212
-11.174062 -8.2903881 -1.6924814
-10.570674 -9.0983677 -1.6965402
-10.356962 -9.358634 -1.6979836
-10.137002 -9.6141262 -1.6994722
-10.763154 -10.712699 -1.8472235
-9.7183294 -11.744824 -1.854335
-9.4417963 -11.987995 -1.8562241
-5.1586328 -8.0366278 -1.1616538
-7.9738965 -13.107627 -1.8662906
-7.6641698 -13.311316 -1.868422
-7.3493848 -13.507974 -1.8705906
-6.3763185 -14.054295 -1.877308
-5.0177341 -14.676403 -1.886719
-4.6683006 -14.812186 -1.8891451
-3.9588475 -15.05927 -1.8940771
-3.5992382 -15.170408 -1.8965805
-2.5029979 -15.452956 -1.904224
-1.7596582 -15.598104 -1.9094176
-1.3848339 -15.657493 -1.9120398
-1.0081738 -15.707971 -1.9146764
-0.62987304 -15.749482 -1.917327
-0.25018555 -15.781993 -1.9199892
0.13075195 -15.805403 -1.9226623
0.51262695 -15.819681 -1.9253442
1.2784668 -15.820369 -1.9306905
2.0446484 -15.776648 -1.9351482
2.4278514 -15.743911 -1.9377513
2.8106444 -15.701848 -1.940357
3.1928222 -15.650508 -1.9429641
3.9544334 -15.519824 -1.9481765
3.3756347 -8.1145792 -1.0690594
6.5329981 -14.69456 -1.9561619
6.8957911 -14.554348 -1.9590774
7.6122556 -14.247198 -1.9649138
7.965498 -14.080324 -1.9678314
8.66082 -13.720295 -1.9736557
9.0024214 -13.527278 -1.9765588
9.3397264 -13.325701 -1.9794537
9.6725197 -13.115646 -1.982339
10.323525 -12.670473 -1.9880717
10.641328 -12.435536 -1.9909158
11.26041 -11.941604 -1.9965502
11.856074 -11.416326 -2.0021007
12.14458 -11.142261 -2.0048397
11.951689 -9.4691067 -1.854815
12.18794 -9.1866264 -1.8565404
11.639863 -8.3410139 -1.7418951
12.853993 -8.3031654 -1.8614246
13.06123 -7.9972734 -1.8629513
13.26081 -7.6859851 -1.8644253
13.452559 -7.3695121 -1.8658454
13.636348 -7.0480824 -1.8672107
13.812051 -6.7218375 -1.8685205
13.979531 -6.3910179 -1.8697734
14.574795 -6.2426701 -1.9286855
15.671797 -5.8352232 -2.0342021
16.077246 -4.6940079 -2.0373125
16.19293 -4.3067741 -2.038214
16.298788 -3.916563 -2.039047
16.48045 -3.1282251 -2.0405037
16.556162 -2.7306464 -2.0411263
16.621708 -2.3311548 -2.041678
16.677031 -1.9300274 -2.0421581
16.72205 -1.5275284 -2.0425665
16.756767 -1.1239356 -2.0429022
16.798897 0.090585932 -2.0434747
16.775116 0.90061462 -2.0434916
16.603506 2.5114715 -2.0426514
16.534922 2.9106543 -2.0422602
16.456171 3.3078692 -2.0417967
15.254892 4.2339554 -1.9257766
14.652695 4.8390985 -1.8770605
14.090996 6.2161274 -1.8734243
13.191464 6.2036591 -1.7732176
12.411211 6.2065835 -1.6879715
9.4017181 6.2179446 -1.3711299
8.4869432 6.2213655 -1.2800364
7.6844039 6.2243643 -1.2029154
5.6915526 6.1678815 -1.0208939
5.4823728 6.2365155 -1.0100666
5.2219825 6.2374845 -0.98953009
4.9718456 6.2384148 -0.9703669
4.498867 6.2401724 -0.93576401
3.8470018 6.2425909 -0.891967
3.6426854 6.24335 -0.87926
3.0616894 6.245501 -0.84608531
2.8773046 6.246182 -0.83652943
2.696914 6.2468476 -0.82766342
2.3468847 6.2481403 -0.81187737
2.1766405 6.2487664 -0.80490041
1.6816992 6.2505913 -0.7873655
1.521162 6.2511811 -0.78258866
1.3624804 6.2517643 -0.7783196
1.0349219 6.16435 -0.76033098
0.88270503 6.1649079 -0.75755298
0.73151368 6.165463 -0.75523239
0.58158201 6.170845 -0.75395292
0.43730468 6.2503204 -0.76215231
0.13508789 6.2514262 -0.76060569
-0.16658203 6.2525272 -0.76083171
-0.62120116 6.2541838 -0.76450741
-1.2388769 6.2564287 -0.77581394
-1.3966211 6.2570014 -0.77983624
-1.5561035 6.2575784 -0.78435874
-1.7175391 6.2581644 -0.78939664
-1.8811718 6.2587576 -0.79496491
-2.0472069 6.259357 -0.80108166
-2.2159276 6.2599673 -0.80776685
-2.5624511 6.26122 -0.82293439
-2.7408495 6.2618632 -0.83146858
-2.9231055 6.2625213 -0.84067672
-3.3005371 6.2638798 -0.86124748
-4.2797751 6.1817231 -0.91457373
-4.7392774 6.1852655 -0.94785225
-5.8455176 6.2711172 -1.042833
-6.7601953 6.2743855 -1.1219261
-8.2320995 6.2796378 -1.2594501
-8.6595306 6.2811613 -1.3012794
-9.1165915 6.2827888 -1.3467931
-9.4756346 6.1985478 -1.3773441
-12.29041 6.4423513 -1.6879678
-12.434384 6.1401653 -1.6869018
-12.938652 4.9025617 -1.6830746
-13.046679 4.5867901 -1.6822433
-13.264317 4.3067546 -1.6964116
-14.472422 3.9385247 -1.824475
-14.557754 3.5869677 -1.8237951
-14.704199 2.8788664 -1.8226043
-14.862793 1.8068335 -1.8212454
-14.899267 1.4475573 -1.8209072
-14.927558 1.0876019 -1.8206265
-14.947598 0.72715086 -1.8204037
-14.959443 0.36637938 -1.8202384
-14.895185 -1.4362017 -1.8202801
-14.812012 -2.1533499 -1.8207018
-14.758183 -2.5103915 -1.8209991
-14.626113 -3.2205462 -1.821766
-14.547958 -3.5733101 -1.8222355
-14.036914 -5.3070045 -1.8254343
-13.910995 -5.6465197 -1.8262427
-13.777266 -5.9832249 -1.8271062
-12.547363 -6.1845813 -1.7016174
-12.274697 -6.42273 -1.6851676
-11.965166 -7.0156641 -1.6872088
-11.800137 -7.3069577 -1.6883032
-10.87499 -8.7054195 -1.6944898
-10.377236 -11.116445 -1.8498449
-10.11581 -11.374451 -1.8516244
-9.8482227 -11.626572 -1.8534486
-9.29498 -12.112622 -1.857228
-8.7185354 -12.573444 -1.8611764
-7.5002637 -13.414976 -1.8695507
-6.8607516 -13.793545 -1.8739613
-6.5339255 -13.971821 -1.8762188
-6.2025876 -14.142597 -1.8785095
-5.8669138 -14.305744 -1.8808328
-5.5270996 -14.461184 -1.8831866
-5.1832418 -14.608746 -1.8855708
-3.7712889 -15.118409 -1.8953826
-3.4100585 -15.225148 -1.8978982
-2.679033 -15.413169 -1.9029955
-2.309629 -15.49429 -1.9055743
-1.9378515 -15.566661 -1.908172
-1.5639746 -15.630263 -1.9107863
-1.1881738 -15.684986 -1.9134161
-0.43157226 -15.767618 -1.9187171
1.0955371 -15.823809 -1.9294418
1.8618262 -15.790383 -1.9340762
2.2449706 -15.760698 -1.9365084
2.6279979 -15.723088 -1.9391131
3.010498 -15.676169 -1.9417198
3.3922558 -15.619926 -1.944327
4.907402 -15.301912 -1.9547302
5.2754979 -15.180593 -1.9549185
5.6344137 -15.033592 -1.9529275
5.9920311 -14.885194 -1.951862
6.7229004 -14.622439 -1.9576849
7.7973337 -14.161098 -1.966439
8.1486034 -13.989613 -1.9693545
8.4962692 -13.809361 -1.9722673
8.8398342 -13.620505 -1.9751734
9.8445606 -13.002502 -1.9838424
10.169922 -12.779744 -1.9867083
11.114756 -12.062353 -1.9952127
12.292822 -10.996055 -2.0062613
12.571279 -10.710777 -2.0089586
12.308652 -9.0365248 -1.8574233
13.361982 -7.5212517 -1.8651742
13.549628 -7.202086 -1.8665661
13.729198 -6.8781619 -1.8679023
13.900644 -6.5494475 -1.8691827
14.137929 -6.2491832 -1.8802704
15.079736 -6.235095 -1.9849399
15.748681 -5.6387591 -2.0347874
15.888428 -5.2600989 -2.035856
16.018593 -4.8776846 -2.0368583
16.350126 -3.7115278 -2.0394547
16.440771 -3.3171997 -2.0401816
16.521299 -2.9207051 -2.040838
16.591719 -2.5220063 -2.0414238
16.701845 -1.7197524 -2.0423806
16.770849 -0.91260737 -2.0430493
16.789795 -0.50796568 -2.0432744
16.7967 0.30235168 -2.0435073
16.762079 1.1119897 -2.0434482
16.729239 1.5158533 -2.043309
16.686083 1.918717 -2.0430973
16.568935 2.720315 -2.0424559
16.495029 3.1185052 -2.0420268
14.710302 4.6709614 -1.8774273
14.587255 5.0223041 -1.8766421
14.314658 5.7145696 -1.8748829
14.007343 6.3913627 -1.8728665
12.774111 6.205224 -1.7274966
11.204287 6.1273198 -1.5534003
10.737236 6.2129459 -1.5089886
8.6941109 6.2205911 -1.3003906
7.8670702 6.2236819 -1.2202119
7.4902344 6.2250886 -1.1847112
6.4781737 6.2288666 -1.0931873
6.0913868 6.146524 -1.0526353
5.3449512 6.2370281 -0.99915707
5.0900292 6.2379742 -0.97934932
4.844873 6.2388859 -0.9608615
4.6086717 6.2397647 -0.94359845
4.1602049 6.2414298 -0.91241199
3.94666 6.2422223 -0.89834607
3.7394726 6.24299 -0.88521475
3.5381541 6.2437372 -0.87296283
3.1512303 6.2451692 -0.85089928
2.9647851 6.2458572 -0.8410024
2.6041112 6.2471914 -0.82329321
2.088789 6.2490911 -0.80148512
1.7590234 6.2503042 -0.78982848
1.5975391 6.2509003 -0.78480482
1.4380078 6.2514863 -0.78029519
0.95522457 6.1646428 -0.75881988
0.65281248 6.165751 -0.75419921
0.20713867 6.2511625 -0.76081359
0.056259766 6.2517133 -0.76049393
-0.39675781 6.2533669 -0.76219428
-0.54853517 6.2539191 -0.76365167
-0.70094723 6.2544742 -0.76556122
-0.85425782 6.2550311 -0.76792961
-1.1641406 6.2561588 -0.77406663
-2.4785645 6.2609172 -0.81908923
-2.6552148 6.2615557 -0.82731199
-2.8356152 6.2622051 -0.83619529
-3.2087889 6.2635503 -0.85606509
-3.4022851 6.264246 -0.86712569
-4.0159178 6.2664533 -0.90535545
-4.6254687 6.1829629 -0.93927246
-4.9291892 6.2678351 -0.96995091
-5.4398923 6.2696648 -1.0097034
-5.7115426 6.2706375 -1.0317481
-5.9955759 6.2716532 -1.0554116
-6.2930369 6.272718 -1.0808233
-6.6054492 6.2738333 -1.1081555
-6.9341602 6.2750068 -1.1375775
-7.2811422 6.2762456 -1.1693151
-8.4519825 6.2804217 -1.2808764
-8.8945704 6.2819986 -1.3245872
-9.3684959 6.2836871 -1.3721951
-10.425468 6.2857146 -1.480835
-11.021855 6.2878361 -1.5435423
-12.219766 6.5857964 -1.6885695
-12.884541 5.0524187 -1.6834893
-13.820332 4.2954679 -1.7604599
-14.518037 3.7550299 -1.8241125
-14.59916 3.40255 -1.8234619
-14.672216 3.0484447 -1.8228678
-14.793877 2.3360193 -1.8218502
-14.842461 1.9780602 -1.8214272
-14.88288 1.6191669 -1.8210614
-14.939053 0.89927304 -1.8205028
-14.962353 0.17775512 -1.8201748
-14.935575 -0.90449214 -1.820117
-14.876601 -1.6239343 -1.8203681
-14.834853 -1.9825107 -1.8205801
-14.784912 -2.3400848 -1.8208499
-14.660605 -3.0515673 -1.8215622
-14.314981 -4.4548998 -1.823673
-14.208574 -4.8006263 -1.8243426
-14.094267 -5.1439805 -1.8250681
-12.344501 -6.2792454 -1.6847091
-12.041572 -6.8753996 -1.6867036
-11.53585 -7.7434115 -1.6900619
-11.353906 -8.0251637 -1.6912771
-11.165361 -8.3028765 -1.6925397
-10.768877 -8.8455677 -1.6952041
-10.561113 -9.1102686 -1.6966047
-10.347138 -9.370327 -1.6980499
-10.126894 -9.6255884 -1.6995405
-10.499814 -10.991286 -1.8490115
-9.9766893 -11.506973 -1.8525726
-9.7059278 -11.755969 -1.8544198
-8.8581543 -12.465813 -1.8602191
-5.1494236 -8.0416241 -1.1615618
-7.9599609 -13.117009 -1.8663864
-7.3350096 -13.516719 -1.8706896
-6.3613086 -14.062018 -1.8774121
-5.6898241 -14.38798 -1.882059
-2.4862499 -15.456646 -1.9043411
-2.1155956 -15.533206 -1.9069296
-1.7426953 -15.601005 -1.9095362
-0.99102539 -15.710062 -1.9147966
-0.23290038 -15.783261 -1.9201105
0.5299902 -15.820134 -1.9254661
0.91268551 -15.824817 -1.9281559
1.2958789 -15.819791 -1.9307916
2.0620508 -15.775373 -1.9352664
2.445205 -15.742199 -1.9378694
3.2100976 -15.647942 -1.9430822
3.5913963 -15.586837 -1.9456892
4.3504882 -15.436716 -1.9508959
5.4643259 -15.10691 -1.9541485
5.8169041 -14.944592 -1.9507374
3.3809276 -8.1024017 -1.0679424
6.9121189 -14.547801 -1.9592094
7.9813962 -14.072576 -1.9679632
10.015234 -12.887134 -1.9853418
10.338008 -12.660018 -1.9882007
11.27414 -11.930066 -1.9966766
11.869258 -11.404087 -2.0022249
12.439189 -10.84787 -2.0076747
12.714179 -10.558772 -2.0103579
11.962509 -9.4564743 -1.8548939
12.198466 -9.1737156 -1.8566173
12.863525 -8.289444 -1.8614947
13.07041 -7.9832973 -1.8630189
13.461035 -7.3550806 -1.8659085
14.617441 -6.242033 -1.9334244
15.524795 -6.1911511 -2.0330875
15.678564 -5.8182354 -2.0342536
15.822909 -5.44133 -2.0353544
15.957637 -5.0606742 -2.0363882
16.082714 -4.676537 -2.0373549
16.197968 -4.2891631 -2.0382533
16.398729 -3.5057518 -2.0398431
16.624443 -2.3130167 -2.0417013
16.679296 -1.9118181 -2.0421784
16.782042 -0.70120054 -2.0431762
16.795586 -0.29625061 -2.0433636
16.798819 0.10894653 -2.0434783
16.79163 0.51410645 -2.0435197
16.774101 0.91894776 -2.0434887
16.600615 2.529599 -2.0426352
16.263681 4.1130438 -2.0406263
15.195322 4.2353058 -1.918835
14.647099 4.8550162 -1.8770248
14.382891 5.5506926 -1.8753253
13.154414 6.2037992 -1.7691457
12.377637 6.2067094 -1.6843256
11.515293 6.1262445 -1.5866319
10.93168 6.1585565 -1.52625
10.433486 6.2140827 -1.4771959
9.8864651 6.2161307 -1.4205652
9.3795509 6.2180276 -1.3688853
8.907959 6.2197919 -1.3215759
8.4676266 6.2214384 -1.2781466
6.9562402 6.2270832 -1.1356753
6.6286716 6.2283049 -1.1064104
6.2367282 6.1499209 -1.065448
5.2104392 6.2375274 -0.9886328
4.9607129 6.2384562 -0.96952862
4.0477538 6.2418475 -0.90493935
3.8376074 6.2426276 -0.89136946
3.241787 6.2448344 -0.85588294
2.8690233 6.2462125 -0.8361131
2.6888182 6.2468781 -0.82727712
2.3390918 6.2481694 -0.81154728
2.1689746 6.2487955 -0.80459732
1.8368652 6.2500186 -0.79241276
1.3553418 6.25179 -0.77813888
1.1983496 6.2523651 -0.77438706
1.0280175 6.1643753 -0.76019484
0.57480466 6.1708708 -0.75387925
0.27921873 6.2509003 -0.76112252
-0.1734082 6.2525516 -0.760858
-0.32450193 6.2531037 -0.76165557
-0.62809569 6.2542095 -0.76459366
-1.5633594 6.2576056 -0.784576
-1.8886132 6.2587848 -0.79523021
-2.3954003 6.2606158 -0.81538707
-2.9314454 6.2625504 -0.84110808
-3.1180761 6.2632232 -0.85105556
-3.3092968 6.2639117 -0.86174673
-3.5055077 6.2646184 -0.87322646
-3.9146092 6.2660894 -0.89872867
-4.1285057 6.2668586 -0.9128601
-4.2897949 6.1817594 -0.91526973
-4.5151072 6.1825676 -0.93125075
-5.0587111 6.2682986 -0.97981268
-6.1492677 6.2722025 -1.0684642
-6.4543552 6.273294 -1.094857
-6.7750878 6.2744389 -1.1232585
-7.8487301 6.2782707 -1.2225964
-8.2508888 6.2797036 -1.2612737
-9.4984083 6.1986284 -1.37967
-10.02416 6.2022343 -1.4338801
-10.730976 6.2868009 -1.51285
-12.29705 6.428709 -1.6879112
-12.440722 6.1263981 -1.6868542
-12.706572 5.5127473 -1.6848452
-12.943701 4.8883061 -1.683036
-13.310918 4.3058124 -1.7017714
-14.383428 4.2723761 -1.8251766
-14.476455 3.9226274 -1.824443
-14.638339 3.2176487 -1.8231444
-14.707138 2.8627527 -1.8225801
-14.864609 1.7905688 -1.8212289
-14.928642 1.0712768 -1.8206152
-14.959785 0.3500244 -1.8202322
-14.957988 -0.3717877 -1.8200805
-14.944765 -0.7324658 -1.8200915
-14.809775 -2.1695559 -1.8207138
-14.693193 -2.8822732 -1.8213714
-14.622753 -3.2365661 -1.8217862
-14.457598 -3.9401455 -1.8227874
-14.260351 -4.6358948 -1.824016
-12.267988 -6.4363041 -1.6852114
-11.957851 -7.0289731 -1.6872573
-11.441572 -7.8911815 -1.6906912
-11.256171 -8.1708441 -1.6919312
-10.450029 -9.2467794 -1.6973547
-10.869922 -10.595819 -1.8464993
-10.103808 -11.386021 -1.8517061
-8.9965134 -12.356694 -1.8592712
-8.7052536 -12.58357 -1.8612673
-5.2458005 -7.988009 -1.1624688
-8.1061525 -13.017451 -1.8653811
-7.7986426 -13.224153 -1.8674963
-7.4860449 -13.423862 -1.8696487
-5.8516307 -14.312956 -1.8809385
-4.4682322 -14.885664 -1.8905352
-4.1132812 -15.008674 -1.8930029
-2.6623731 -15.417037 -1.9031116
-1.9210058 -15.569734 -1.9082898
-1.5470312 -15.632924 -1.9109046
-0.41439453 -15.769053 -1.9188377
-0.033984374 -15.796398 -1.921506
0.72988278 -15.823723 -1.9268708
1.4960546 -15.811716 -1.9319528
3.0277734 -15.67382 -1.9418377
3.4095018 -15.617177 -1.9444449
3.790293 -15.551228 -1.9470514
4.9243751 -15.297468 -1.9548471
5.6504588 -15.026451 -1.9527993
6.0087595 -14.879648 -1.9519942
6.3753805 -14.752339 -1.9549032
7.1005077 -14.470757 -1.9607344
7.4585547 -14.316567 -1.963653
8.1645021 -13.981648 -1.969487
9.859355 -12.992601 -1.9839721
10.504667 -12.538052 -1.989689
10.819404 -12.298512 -1.9925234
11.128593 -12.050995 -1.9953396
11.432021 -11.795571 -1.9981354
11.729453 -11.532399 -2.0009093
12.020722 -11.261605 -2.0036597
12.305537 -10.983294 -2.0063837
11.847519 -9.5892305 -1.8540554
12.086767 -9.3094435 -1.855801
12.972597 -8.1300983 -1.8622978
13.370664 -7.5068722 -1.8652384
13.55794 -7.1875439 -1.8666278
13.908203 -6.5344729 -1.8692392
14.178545 -6.2485795 -1.8847616
15.606347 -5.9967465 -2.033705
15.755215 -5.621716 -2.0348372
16.024239 -4.8603058 -2.036902
16.144169 -4.4744358 -2.037833
16.254267 -4.0854797 -2.0386956
16.354462 -3.6936877 -2.039489
16.654375 -2.1034939 -2.0419595
16.703848 -1.701552 -2.0423987
16.743067 -1.2984039 -2.0427663
16.771914 -0.89431578 -2.0430608
16.79044 -0.48957825 -2.0432832
16.796377 0.32074341 -2.0435092
16.683876 1.9369769 -2.0430858
16.565809 2.7384386 -2.042438
16.491436 3.1365373 -2.0420055
16.406933 3.5325146 -2.0415015
14.819433 4.3326216 -1.8781177
14.704931 4.6869855 -1.8773931
14.308066 5.7301102 -1.87484
14.000019 6.4065509 -1.8728262
12.000401 6.2081242 -1.6435152
10.142246 6.2151737 -1.4469397
9.6169043 6.2171402 -1.392984
9.128994 6.2189655 -1.3436536
8.6742182 6.2206659 -1.2984276
7.8495507 6.2237482 -1.2185444
7.1188769 6.2264762 -1.1504431
6.0781541 6.1465716 -1.0515088
5.7926855 6.1476359 -1.0274843
5.59832 6.236083 -1.0193943
4.1504002 6.2414665 -0.91175473
3.9371581 6.2422576 -0.89773315
3.5291796 6.2437701 -0.87242931
2.7743847 6.2465615 -0.83141226
2.5961425 6.247221 -0.82292348
2.4213867 6.2478642 -0.81507534
1.9152539 6.2497296 -0.79512054
1.7516894 6.2503324 -0.78958958
1.4308202 6.251513 -0.78010356
1.1168652 6.252665 -0.77261853
0.94833982 6.1646671 -0.75869483
0.79672849 6.1652226 -0.75617826
0.64601558 6.1657758 -0.75411457
0.49642578 6.1711588 -0.75309014
0.3513574 6.2506351 -0.76153153
0.20029296 6.2511883 -0.76078856
0.049443357 6.2517385 -0.76049042
-0.10137695 6.2522893 -0.76063299
9.5560541 -8.3888502 -1.8382165
10.536865 -7.2061448 -1.8453817
11.053037 -6.4386945 -1.8491857
12.500263 -6.1172342 -2.0118384
12.65125 -5.8172283 -2.0129681
12.794756 -5.5133457 -2.0140462
13.058672 -4.8947515 -2.0160427
13.291249 -4.2630668 -2.0178216
13.395547 -3.9428215 -2.0186276
13.491787 -3.619931 -2.0193779
13.579804 -3.2946007 -2.0200708
13.659629 -2.9670303 -2.0207064
13.849072 -1.9731625 -2.0222642
13.933232 -1.3034766 -2.0230086
13.983359 -0.63018495 -2.0235143
13.981064 0.71997863 -2.0238049
13.928584 1.3932269 -2.0235891
13.88957 1.7286053 -2.023391
13.721767 2.7270386 -2.0224383
12.901729 4.2295952 -1.9627661
12.008457 4.5891666 -1.8584116
11.629726 5.4381461 -1.8559418
11.489472 5.7142215 -1.8550183
9.9579687 6.2156243 -1.6969564
9.4459276 6.2175493 -1.634786
8.109375 6.2225676 -1.4776601
7.3500195 6.2254167 -1.3924437
7.0018845 6.2267203 -1.354555
6.6720214 6.2279572 -1.3194227
6.2774315 6.1495905 -1.2703648
5.9790039 6.1467681 -1.2396216
5.2450094 6.2372332 -1.1780936
4.9939747 6.2381692 -1.1551766
4.7523828 6.2390714 -1.1337811
3.4616797 6.2438736 -1.0320621
3.267705 6.2445941 -1.0188528
3.0785253 6.245296 -1.0065563
2.8937597 6.2459793 -0.99512434
2.713037 6.2466483 -0.98451537
2.0242188 6.2491946 -0.94960052
1.6963086 6.2504044 -0.93624884
1.2195507 6.2521601 -0.92085302
0.8964355 6.1647305 -0.90055209
0.74515623 6.1652875 -0.89774519
0.44894531 6.221601 -0.90173692
0.2997168 6.2506976 -0.90464497
-0.15290038 6.2523489 -0.90411544
-0.30396482 6.2529011 -0.9049924
-0.76011717 6.25456 -0.91081727
-0.91377926 6.2551188 -0.91384298
-1.2246387 6.256247 -0.92157316
-1.3822362 6.2568183 -0.92630005
-1.5415429 6.2573967 -0.93162155
-1.7027929 6.2579789 -0.93754995
-1.8662012 6.2585688 -0.94411039
-2.5464063 6.2610245 -0.97709286
-2.9063475 6.26232 -0.9980318
-3.0923924 6.2629886 -1.0097347
-3.282959 6.2636738 -1.0223179
-3.4784472 6.2643743 -1.035828
-3.8859766 6.2658367 -1.0658519
-4.0989647 6.2665982 -1.0824895
-4.2596583 6.1814971 -1.0852255
-6.1087694 6.2718792 -1.2656634
-6.4118261 6.2729583 -1.2967201
-6.7303319 6.2740912 -1.3301327
-7.0658789 6.2752848 -1.3661317
-7.4203219 6.2765446 -1.404971
-7.7957129 6.2778778 -1.4469495
-8.6193552 6.2808013 -1.5417448
-9.0735445 6.2824116 -1.5954124
-9.8565426 6.4784927 -1.7051101
-10.003515 6.2348542 -1.7040153
-10.144707 5.9880743 -1.7029662
-10.280107 5.7382474 -1.7019575
-10.533134 5.2299762 -1.700063
-10.762158 4.711143 -1.6983346
-11.263633 4.2960467 -1.7427088
-12.104775 3.9595208 -1.8411273
-12.192226 3.6650493 -1.8404452
-12.413447 2.7712798 -1.8386865
-12.526279 2.1683252 -1.8377562
-12.668125 0.95082641 -1.8364819
-12.700693 0.032389525 -1.836044
-12.697441 -0.2739453 -1.8359972
-12.645497 -1.1913898 -1.8361539
-12.61412 -1.49617 -1.8363051
-12.530361 -2.1032672 -1.836756
-12.41874 -2.7060535 -1.8374035
-12.279414 -3.3033125 -1.8382473
-12.112666 -3.8938417 -1.8392855
-12.019082 -4.1861987 -1.839877
-11.918759 -4.4764237 -1.8405164
-11.811738 -4.7643781 -1.8412036
-11.450917 -5.6130619 -1.8435475
-11.317558 -5.8904166 -1.844422
-10.592304 -6.1796484 -1.7727869
-9.8717966 -6.4166527 -1.7020642
-9.7199316 -6.6568499 -1.7030772
-9.0570116 -7.5820475 -1.707528
-7.6954684 -9.0449362 -1.7167685
-7.4814062 -9.2357845 -1.7182302
-7.0397167 -9.6026878 -1.7212524
-5.2657032 -7.9613681 -1.3798727
-6.6292772 -11.157608 -1.8761883
-6.0954394 -11.486796 -1.879867
-5.8224511 -11.642131 -1.8817511
-5.5455661 -11.791164 -1.8836639
-4.693203 -12.199341 -1.8895643
-4.1082325 -12.438142 -1.893623
-3.8111913 -12.547274 -1.8956866
-3.2087305 -12.74458 -1.8998779
-2.903662 -12.832607 -1.9020029
-1.9749218 -13.053286 -1.9084828
-1.0295312 -13.207502 -1.915095
-0.71151364 -13.243884 -1.9173228
-0.39231443 -13.272671 -1.9195607
0.24880859 -13.30727 -1.9240606
0.89235348 -13.311011 -1.9285846
2.1806738 -13.224411 -1.9375645
2.5018163 -13.18287 -1.9397542
