# .PCD v0.7 - Point Cloud Data file format
VERSION 0.7
FIELDS x y z
SIZE 4 4 4
TYPE F F F
COUNT 1 1 1
WIDTH 1491
HEIGHT 1
VIEWPOINT 0 0 0 1 0 0 0
POINTS 1491
DATA ascii
-0.31634766 6.2481866 -0.47642276
-0.46779296 6.2487469 -0.47718886
-0.61978513 6.2493095 -0.47823465
-0.77255857 6.2498736 -0.47956485
-0.92626953 6.2504435 -0.48118305
-1.0811132 6.2510147 -0.4830963
-1.5486718 6.2297626 -0.488857
-1.6914452 6.1646476 -0.48680362
-1.852705 6.1652436 -0.49023929
-2.736748 6.2522845 -0.51974088
-2.9188182 6.2529535 -0.52550077
-3.2958887 6.2543402 -0.53836882
-3.4916699 6.2550592 -0.54552716
-3.8999121 6.2565579 -0.56143492
-4.1133008 6.2573404 -0.57024688
-4.5615821 6.258986 -0.58979052
-5.0428419 6.2607498 -0.6121974
-5.5633788 6.2626567 -0.6379202
-5.8407226 6.2636709 -0.6521945
-6.4353027 6.2658477 -0.68399352
-6.7552633 6.2670159 -0.70171708
-6.9951172 6.1822114 -0.71092099
-7.3486915 6.1853995 -0.73147559
-7.8237596 6.2690287 -0.7634747
-8.2247362 6.2704926 -0.78760177
-9.1091213 6.2737222 -0.84229058
-9.599658 6.2755117 -0.87338829
-10.128125 6.2774405 -0.90741909
-11.320976 6.2817912 -0.98595417
-14.473866 6.2915521 -1.2018552
-20.349356 6.5972552 -1.6290661
-20.616171 5.6001554 -1.6268736
-20.838974 4.5938163 -1.6250501
-22.901621 3.3341424 -1.7624121
-23.021318 2.2238379 -1.7613021
-23.062714 1.6672289 -1.7608789
-23.091885 1.1099793 -1.7605429
-23.113163 -0.0055108643 -1.7601358
-23.10535 -0.56326109 -1.7600642
-22.95125 -2.7885792 -1.7606579
-22.88205 -3.3423347 -1.7610264
-22.800625 -3.8945665 -1.7614828
-22.707001 -4.4450312 -1.7620267
-22.60124 -4.9934001 -1.7626578
-22.3533 -6.0833764 -1.7641821
-20.689072 -6.1704125 -1.6441125
-20.158329 -7.0880151 -1.6272492
-19.819618 -8.0632906 -1.6294491
-19.633924 -8.5455246 -1.6306672
-19.437441 -9.0240316 -1.6319631
-19.230225 -9.4984741 -1.633337
-20.398291 -11.331183 -1.7769672
-19.867598 -12.326905 -1.7805356
-18.987265 -13.777761 -1.7865012
-18.671719 -14.249082 -1.7886505
-18.007978 -15.171789 -1.7931873
-17.660069 -15.622705 -1.7955728
-16.932714 -16.502447 -1.8005743
-7.8484082 -8.0271969 -0.85492867
-15.764932 -17.763269 -1.8086395
-15.355702 -18.166977 -1.8114743
-14.936728 -18.561993 -1.8143809
-14.070391 -19.32502 -1.8204035
-13.623105 -19.692575 -1.823519
-11.865674 -20.12236 -1.7789547
-11.223984 -20.129171 -1.7550945
-8.9641018 -20.505629 -1.7042547
-8.4835443 -20.75704 -1.7076346
-7.996201 -20.997812 -1.7110656
-7.5023727 -21.227722 -1.7145454
8.7967577 -17.828764 -1.9651551
9.2416601 -17.644045 -1.9688128
10.552285 -17.023672 -1.9797876
11.403252 -16.555492 -1.9870849
11.821045 -16.305281 -1.9907211
12.2333 -16.044449 -1.9943455
13.434121 -15.199177 -2.005127
14.201855 -14.584632 -2.0122147
9.0399904 -8.0298872 -1.1951877
15.990009 -12.87834 -2.029444
17.267792 -11.350076 -2.0425661
17.563856 -10.94702 -2.0457349
16.699179 -9.3208046 -1.8903778
17.37664 -8.1102962 -1.8955002
17.581816 -7.6949506 -1.8970627
17.959999 -6.8481321 -1.8999612
18.132744 -6.4172297 -1.9012954
20.030264 -6.0183177 -2.0673633
20.319815 -5.050446 -2.0696554
20.747089 -3.0735631 -2.0731635
20.821747 -2.5728128 -2.073812
20.931913 -1.5659491 -2.0748301
20.967314 -1.060559 -2.0751987
20.989609 -0.55434632 -2.0754738
20.90329 1.9763348 -2.0754344
20.598349 3.9786272 -2.0737109
19.317255 4.2171307 -1.9544171
18.632841 5.0207415 -1.9074862
16.435322 6.1815033 -1.7356848
15.314414 6.1857486 -1.6326007
13.425957 6.1923432 -1.4614636
11.893456 6.198144 -1.3256924
10.61877 6.2029667 -1.2155908
10.057041 6.205091 -1.1680921
8.4885931 6.1272321 -1.0348132
8.1827831 6.212265 -1.0155269
7.787158 6.2137589 -0.98475361
7.0627246 6.2164907 -0.93003327
6.4131346 6.2189407 -0.88302314
6.112031 6.2200761 -0.86198449
5.2869139 6.2231841 -0.80715424
4.791162 6.2250481 -0.77647197
4.5569139 6.2259293 -0.76263887
4.3307128 6.226779 -0.74971968
3.899951 6.2283964 -0.72638416
3.6469824 6.1494999 -0.70670843
3.4473729 6.1463089 -0.69657695
3.0680664 6.1477313 -0.67915249
2.7450097 6.2366643 -0.67354053
2.3933885 6.2379789 -0.66042691
2.0544043 6.2392459 -0.64929694
1.8889745 6.2398639 -0.64442867
1.5649804 6.2410712 -0.63600373
1.2486132 6.2422504 -0.62924409
1.0927539 6.2428303 -0.62645984
0.93819332 6.2434049 -0.62406337
0.63212889 6.2445426 -0.62040216
0.32893553 6.2456684 -0.61821431
0.17795898 6.2462287 -0.61766469
0.027167968 6.2467875 -0.61747521
-0.42587888 6.2484651 -0.61906856
-0.57771486 6.2490277 -0.62032485
-0.73025388 6.2495904 -0.62194961
-1.1939648 6.2513041 -0.62908578
-1.3512304 6.251884 -0.63224226
-1.5101563 6.25247 -0.63580269
-1.9708399 6.1655488 -0.63981938
-2.1380565 6.1709976 -0.64555144
-3.2426171 6.2540021 -0.69633621
-3.4369922 6.254715 -0.70544767
-3.8420019 6.256197 -0.72570175
-4.0535936 6.2569709 -0.7369259
-4.2719822 6.2577701 -0.7489484
-4.4977245 6.2585969 -0.76181835
-4.7315235 6.25945 -0.77559966
-5.4887109 6.2622147 -0.82310784
-5.7627048 6.2632146 -0.84127843
-6.0492282 6.2642584 -0.86078113
-6.3495407 6.2653522 -0.88173634
-6.665 6.2665009 -0.90427649
-7.717031 6.2684369 -0.98274297
-8.1111717 6.2698698 -1.0133687
-8.5309277 6.2713957 -1.0465935
-8.979414 6.2730265 -1.0827229
-9.9777346 6.2766533 -1.1651798
-10.536856 6.2786846 -1.2124212
-11.805117 6.2832866 -1.3218869
-13.325302 6.2870669 -1.4564067
-14.210986 6.2902799 -1.5361649
-15.54703 6.4375467 -1.6633055
-15.687695 6.0565863 -1.6622308
-15.942451 5.2862458 -1.6602325
-17.836006 3.6063194 -1.7987082
-17.911474 3.1737285 -1.7980695
-17.977148 2.7396953 -1.7975006
-18.079062 1.8681475 -1.7965722
-18.14163 0.99330688 -1.7959249
-18.158075 0.55517393 -1.7957072
-18.161465 -0.32155639 -1.7954828
-18.12537 -1.1975018 -1.7955407
-18.092577 -1.6346835 -1.7956753
-17.935175 -2.940552 -1.7965026
-17.863153 -3.3732958 -1.7969191
-17.781338 -3.8044019 -1.797406
-17.689823 -4.2336841 -1.7979623
-17.588623 -4.6609726 -1.7985885
-17.477783 -5.0860329 -1.7992843
-17.357344 -5.5086584 -1.8000493
-17.227343 -5.9286518 -1.8008832
-15.452216 -6.6033182 -1.6610223
-15.134727 -7.3504729 -1.6631225
-14.594971 -8.4443407 -1.6667335
-14.398388 -8.801095 -1.6680582
-14.193574 -9.153573 -1.6694427
-13.980644 -9.5016308 -1.6708862
-14.942333 -10.691298 -1.8161393
-14.693682 -11.059079 -1.8178338
-14.436474 -11.421488 -1.819591
-14.1708 -11.778307 -1.8214097
-13.614472 -12.474423 -1.82523
-12.719326 -13.472013 -1.831405
-12.405195 -13.791377 -1.8335791
-11.073721 -14.998147 -1.8428271
-10.722763 -15.281252 -1.8452728
-10.364902 -15.556584 -1.8477696
-9.628974 -16.083218 -1.8529133
-9.2512207 -16.334202 -1.8555582
-8.867178 -16.576691 -1.8582494
-8.4770603 -16.81056 -1.8609866
-8.080986 -17.035669 -1.8637682
-7.6791406 -17.251812 -1.8665932
-6.858994 -17.656681 -1.8723673
-6.4410253 -17.845097 -1.8753136
-5.5903611 -18.193184 -1.8813193
-5.1580954 -18.352539 -1.8843746
-4.7213964 -18.501972 -1.887464
-4.2805076 -18.641277 -1.8905859
-3.8359277 -18.770372 -1.8937365
-2.9356639 -18.997446 -1.9001242
-2.4805369 -19.095201 -1.9033571
-2.0224707 -19.18227 -1.9066137
-1.0983398 -19.323948 -1.9131917
-0.6328125 -19.378382 -1.916509
-0.1652832 -19.421721 -1.9198434
1.2447851 -19.455969 -1.9270904
1.7146192 -19.428129 -1.9278706
2.1810546 -19.36425 -1.9261944
4.0409083 -19.080666 -1.9278911
4.5084181 -19.01226 -1.9314151
5.4404492 -18.841736 -1.9385284
7.2850389 -18.365377 -1.952966
8.1930275 -18.059599 -1.9602438
9.5311127 -17.517006 -1.9712102
10.403671 -17.099976 -1.9785274
10.833232 -16.875048 -1.9821813
11.257988 -16.639284 -1.9858291
12.500312 -15.867785 -1.9967132
12.902793 -15.58957 -2.0003138
13.299033 -15.301019 -2.0038965
14.071504 -14.693426 -2.0109994
14.815497 -14.046132 -2.0180037
16.20915 -12.637521 -2.0316384
16.85454 -11.879157 -2.0382309
17.163465 -11.487152 -2.0414624
17.462891 -11.086881 -2.0446479
17.752548 -10.678606 -2.047785
16.615538 -9.4562855 -1.8897485
17.084326 -8.6597433 -1.8932836
17.303505 -8.2521706 -1.8949447
17.512266 -7.8387704 -1.8965323
17.710459 -7.4198251 -1.8980458
17.897881 -6.9955511 -1.8994833
18.074453 -6.5663104 -1.9008443
20.521454 -4.238246 -2.0712833
20.626328 -3.7433345 -2.0721467
20.863613 -2.2436621 -2.0741866
20.956581 -1.2348981 -2.0750821
20.958857 1.2971643 -2.0756769
20.919813 1.8024023 -2.0755131
20.724081 3.3093321 -2.0744574
18.796074 4.4158759 -1.9085156
18.545702 5.3131928 -1.9069296
16.855371 6.1799102 -1.7745521
14.649199 6.1882682 -1.5719219
12.89037 6.1943707 -1.4136527
12.13706 6.1972222 -1.3470492
11.451103 6.1998172 -1.2871542
10.823213 6.2021928 -1.2330439
10.245673 6.2043781 -1.1839652
9.7120705 6.2063956 -1.1392832
9.2169724 6.2082658 -1.0984638
8.6383495 6.1266665 -1.0468245
7.9208298 6.2132549 -0.9950856
7.1818161 6.216043 -0.93887299
6.8423924 6.2173233 -0.9138543
6.5204196 6.2185369 -0.89063871
5.9223046 6.2207913 -0.8489967
5.6434274 6.2218413 -0.83030689
5.3764157 6.222846 -0.81288534
4.8739257 6.2247367 -0.7814647
3.9722753 6.2281256 -0.73018157
2.9897754 6.2357488 -0.68356514
2.4530272 6.2377558 -0.66254127
2.1120312 6.2390313 -0.65108138
1.9457226 6.2396502 -0.64605606
1.781875 6.240263 -0.64147896
1.6202344 6.2408648 -0.63733518
1.3026757 6.2420487 -0.63029438
1.1463281 6.24263 -0.62737644
0.68463868 6.2443476 -0.62092763
0.079140626 6.2465959 -0.6175006
-0.22250976 6.2477131 -0.61795259
-0.37366211 6.2482719 -0.6187194
-0.67757809 6.2493963 -0.62134743
-0.83068359 6.2499628 -0.62321633
-1.2968359 6.2516828 -0.6311087
-1.455166 6.2522659 -0.63452953
-1.7522656 6.1647439 -0.63349932
-2.6255662 6.2517385 -0.67024475
-2.8051953 6.252398 -0.67737758
-3.3694043 6.254467 -0.70223331
-3.7705176 6.2559366 -0.72200698
-4.1958885 6.2574921 -0.74471092
-4.4190331 6.2583084 -0.75728202
-4.649961 6.2591519 -0.77074128
-6.2443552 6.2649698 -0.87434018
-7.9725485 6.2693667 -1.0025315
-8.8213472 6.2724519 -1.0699173
-9.7949219 6.2759891 -1.1498874
-10.339043 6.2779655 -1.1956291
-11.570361 6.2824345 -1.3014091
-15.901054 5.419765 -1.6605591
-16.126612 4.641221 -1.6587679
-16.448944 4.3070197 -1.6807365
-17.955626 2.8894811 -1.7976887
-18.064297 2.0186627 -1.7967124
-18.133642 1.1442865 -1.7960165
-18.163525 0.26794004 -1.7956027
-18.1637 -0.1704541 -1.7955011
-18.065722 -1.9207181 -1.795802
-18.01663 -2.356437 -1.7960538
-17.957745 -2.7910421 -1.7963754
-17.889042 -3.2242665 -1.796768
-17.722441 -4.0859075 -1.7977628
-17.624619 -4.5139289 -1.7983646
-17.51708 -4.9397526 -1.7990366
-17.273222 -5.7841687 -1.800588
-17.018711 -6.1595488 -1.789035
-15.503476 -6.4732199 -1.6606854
-15.191895 -7.2226582 -1.6627429
-14.66083 -8.3204107 -1.6662909
-14.46709 -8.678586 -1.6675949
-14.265068 -9.0325327 -1.668959
-15.026054 -10.563297 -1.8155698
-14.780361 -10.932898 -1.8172427
-14.26332 -11.655929 -1.8207759
-13.992167 -12.008987 -1.8226347
-7.9894528 -7.9301877 -1.1127133
-12.195244 -13.996938 -1.8350337
-11.868554 -14.304788 -1.8373001
-11.193067 -14.89876 -1.8419961
-10.84457 -15.184536 -1.8444235
-10.489062 -15.462568 -1.8469031
-10.126728 -15.732695 -1.8494329
-8.612236 -16.730934 -1.8600379
-8.2181835 -16.959074 -1.8628045
-7.8183007 -17.17832 -1.8656145
-7.0018845 -17.58956 -1.8713604
-6.585742 -17.781233 -1.8742933
-5.7383103 -18.135954 -1.8802738
-3.5425487 -18.849365 -1.8958169
-3.0921581 -18.961313 -1.899013
-2.6378808 -19.062704 -1.9022392
-2.1806934 -19.153481 -1.9054887
-1.2583398 -19.302643 -1.9120522
0.61148435 -19.443808 -1.922904
2.4840722 -19.304482 -1.9239156
5.280117 -18.874384 -1.9372963
5.7446775 -18.776043 -1.9408764
6.6686034 -18.545664 -1.9480869
7.1274414 -18.413548 -1.9517132
7.5837889 -18.27014 -1.9553463
9.3790131 -17.584442 -1.9699489
9.8188276 -17.385221 -1.973608
10.254482 -17.174982 -1.9772668
11.533554 -16.47893 -1.9882151
11.949658 -16.225403 -1.9918478
12.360126 -15.961293 -1.9954681
14.689364 -14.160471 -2.0168045
9.0444918 -8.3072081 -1.2138928
15.75541 -13.127551 -2.027117
17.058008 -11.623225 -2.0403533
17.360771 -11.225796 -2.0435553
17.653818 -10.820239 -2.0467093
16.530693 -9.5909653 -1.8891109
16.773563 -9.198143 -1.8909378
17.006376 -8.798872 -1.8926944
17.834501 -7.1423941 -1.8989964
18.014824 -6.7148261 -1.9003838
18.184101 -6.2824998 -1.9016933
19.614004 -6.2509141 -2.0348566
20.225634 -5.3859382 -2.0689051
20.771669 -2.9183095 -2.0733747
20.899815 -1.9137816 -2.0745208
20.993828 -0.39705443 -2.0755401
20.990644 0.61643368 -2.0757487
20.969257 1.1227435 -2.0757115
20.934736 1.6283489 -2.0755801
20.826338 2.6358349 -2.0750349
20.75252 3.1370256 -2.0746214
20.566006 4.1324897 -2.0735147
18.83452 4.2598858 -1.9087548
18.592197 5.1595268 -1.9072272
18.453623 5.6040301 -1.9063374
18.30372 6.0446491 -1.9053658
18.142929 6.4811835 -1.9043607
16.072401 6.1828766 -1.7022014
14.99287 6.1869659 -1.6032224
13.841924 6.1069794 -1.4954779
13.167734 6.1933208 -1.4383668
12.388603 6.19627 -1.3691984
11.680625 6.1989493 -1.3071092
11.033671 6.2013984 -1.2510989
10.439541 6.2036457 -1.2003605
9.8914061 6.205718 -1.1542243
9.383584 6.2076359 -1.1121272
8.791748 6.1261783 -1.0592009
8.3566208 6.1277299 -1.0242958
8.0573139 6.2127385 -1.0057045
6.9573536 6.2168903 -0.92226809
6.0213962 6.220418 -0.855753
5.7381735 6.2214847 -0.8366015
5.4671874 6.2225056 -0.81875378
4.9577832 6.2244229 -0.78657764
4.4858398 6.2261968 -0.75853282
4.262002 6.2270365 -0.74588418
4.0453906 6.2278509 -0.73407131
3.387207 6.1465349 -0.69370711
2.8696094 6.2361979 -0.67855412
2.5130565 6.2375312 -0.66471487
2.3399901 6.2381778 -0.65857303
2.1699805 6.2388139 -0.65291917
1.8381054 6.2400532 -0.64300728
1.5154101 6.2412553 -0.6348483
1.2000586 6.2424297 -0.62833786
0.89042968 6.2435832 -0.62339771
0.73725587 6.2441521 -0.62149644
0.58490235 6.2447171 -0.61996669
0.13113281 6.2464032 -0.61756694
-0.019658202 6.2469611 -0.61748952
-0.17045899 6.247519 -0.61777151
-0.62499022 6.2492023 -0.62079048
-0.77779293 6.2497659 -0.62252951
-0.93153316 6.2503347 -0.62464368
-1.5497656 6.2121735 -0.63286787
-1.6968848 6.1645389 -0.63200444
-2.0235643 6.1705756 -0.64189559
-2.7428515 6.2521672 -0.67485785
-2.9250488 6.2528372 -0.68235183
-3.1114452 6.253521 -0.69042122
-3.3024218 6.2542205 -0.69909638
-4.1206737 6.2572174 -0.74057174
-4.5694237 6.2588568 -0.76599735
-4.8058395 6.2597222 -0.78007251
-5.0512695 6.2606168 -0.7951479
-5.8502831 6.2635331 -0.84718603
-6.1409473 6.2645917 -0.8671273
-6.4457908 6.2657037 -0.8885588
-6.7662888 6.2668705 -0.91161954
-7.0065527 6.182066 -0.92361194
-7.3608494 6.1852484 -0.95036483
-7.8368359 6.2688737 -0.99198943
-9.6167965 6.2753425 -1.1350689
-10.14663 6.2772675 -1.1793783
-10.719814 6.2793489 -1.2280225
-11.342734 6.2816095 -1.2816408
-12.022949 6.2840762 -1.3409696
-12.598212 6.2023773 -1.388034
-13.590332 6.2880292 -1.4801822
-16.090263 4.7760882 -1.6590588
-16.192812 4.3842239 -1.6582358
-17.507227 4.2894511 -1.7817165
-17.77829 3.903631 -1.7991889
-17.860477 3.4721661 -1.7985024
-17.995527 2.604696 -1.7973382
-18.158438 -0.4576489 -1.7954731
-18.142275 -0.89569151 -1.7954887
-18.080351 -1.7702572 -1.7957318
-17.838749 -3.5073202 -1.797063
-17.659452 -4.3665781 -1.7981492
-17.317997 -5.6393609 -1.8003008
-16.251024 -6.1740775 -1.718387
-15.5537 -6.3427348 -1.660356
-15.248056 -7.0943952 -1.6623706
-15.082402 -7.4652452 -1.6634707
-14.725683 -8.196002 -1.6658554
-14.534795 -8.5555687 -1.6671386
-14.335644 -8.9110155 -1.6684821
-14.354873 -11.532876 -1.8201488
-13.525166 -12.580351 -1.8258444
-12.306142 -13.889167 -1.8342651
-11.982031 -14.199472 -1.8365126
-10.965478 -15.086882 -1.8435811
-10.612383 -15.367599 -1.8460426
-10.252412 -15.640487 -1.8485551
-9.8856936 -15.905336 -1.8511176
-9.5123634 -16.162025 -1.8537295
-8.3547068 -16.88143 -1.8618456
-7.9568262 -17.103743 -1.8646407
-7.5532126 -17.317087 -1.8674792
-7.1441598 -17.52132 -1.8703586
-5.8857713 -18.077557 -1.8792324
-5.4566016 -18.243721 -1.8822643
-4.585 -18.546307 -1.8884295
-1.8796777 -19.207111 -1.9076296
-0.9540332 -19.342014 -1.91422
-0.019736327 -19.432079 -1.920799
0.44949219 -19.438505 -1.9219475
1.391162 -19.455025 -1.9279743
0.77494138 -8.0881186 -0.80314445
2.3249707 -19.337585 -1.9252295
3.2498045 -19.170702 -1.9219949
4.1861424 -19.060621 -1.9289829
5.1196876 -18.905609 -1.9360669
5.5847068 -18.811226 -1.93964
6.969502 -18.460415 -1.9504614
7.4267869 -18.320869 -1.9540936
7.8813477 -18.170095 -1.957731
8.3329687 -18.008099 -1.9613769
9.6676655 -17.455156 -1.9723467
10.104775 -17.248699 -1.9760058
10.537549 -17.031288 -1.9796624
11.388828 -16.563881 -1.9869601
12.219267 -16.053545 -1.9942216
12.625957 -15.782529 -1.997833
13.026513 -15.501096 -2.0014281
13.420752 -15.209352 -2.0050051
14.188965 -14.595494 -2.0120943
14.562353 -14.273705 -2.0156014
14.928271 -13.942161 -2.0190811
9.04 -8.0432844 -1.1960696
15.978427 -12.890825 -2.0293286
16.636152 -12.144525 -2.0359771
16.951485 -11.758319 -2.0392394
17.257431 -11.363748 -2.0424564
17.840448 -10.550233 -2.0487485
17.769775 -7.2886467 -1.8985
20.024843 -6.0347533 -2.0673206
20.176308 -5.5529599 -2.0685141
20.441698 -4.5776811 -2.0706353
20.555332 -4.0849562 -2.0715609
20.656307 -3.5891049 -2.0723963
20.744326 -3.0906901 -2.0731399
20.819414 -2.5899925 -2.0737913
20.930458 -1.5832639 -2.0748155
20.966328 -1.0778906 -2.0751877
20.989023 -0.57168764 -2.0754657
20.904989 1.9590362 -2.0754428
20.779423 2.9644823 -2.0747745
20.601835 3.9616117 -2.0737319
19.388056 4.2157917 -1.9612253
18.760244 4.5560527 -1.9082912
18.502705 5.4512248 -1.9066535
18.356689 5.8932219 -1.9057102
18.199013 6.3309817 -1.904651
16.4762 6.1813469 -1.7394618
14.15708 6.1057854 -1.5239846
13.454951 6.1922345 -1.4640622
11.250332 6.2005777 -1.2697738
10.075546 6.20502 -1.169646
9.5544434 6.2069902 -1.1262167
9.0703611 6.2088213 -1.0865067
8.5033197 6.1271758 -1.035996
8.1967678 6.2122111 -1.0166239
7.8003321 6.2137089 -0.98576933
7.0744629 6.2164469 -0.93090057
6.7406344 6.2177081 -0.90646023
5.5592966 6.2221589 -0.8247664
5.295752 6.2231498 -0.80771732
5.0427341 6.224102 -0.79181051
4.7993455 6.2250175 -0.77696317
4.564795 6.2259002 -0.76309752
4.3383398 6.2267509 -0.75014901
3.9070897 6.2283697 -0.72675705
3.6538379 6.1494741 -0.7070567
3.4540429 6.1462836 -0.6968987
3.0743945 6.147707 -0.67942822
2.5734961 6.2373052 -0.66694963
2.3992968 6.237957 -0.66063398
2.2282519 6.2385955 -0.6548143
2.060127 6.239224 -0.6494717
1.8945996 6.2398429 -0.64458722
1.7314551 6.2404499 -0.64014661
1.5704492 6.2410502 -0.63613331
1.411377 6.2416434 -0.63253766
1.2539746 6.2422309 -0.62934625
1.0980663 6.2428107 -0.62654996
-0.26941407 6.2478876 -0.61815214
-0.42068359 6.2484465 -0.61903214
-0.72501951 6.2495708 -0.62188804
-0.87841797 6.2501383 -0.62387258
-1.0328711 6.2507086 -0.62623525
-1.1886133 6.2512836 -0.62898433
-1.6417968 6.1643362 -0.63056165
-1.8023633 6.164927 -0.63488644
-2.5038476 6.2512918 -0.66563737
-2.6809473 6.2519412 -0.67240113
-3.0466797 6.253284 -0.68757355
-3.2360547 6.2539787 -0.69603562
-3.430244 6.2546906 -0.7051248
-3.6297069 6.2554193 -0.71487725
-4.0462403 6.2569451 -0.73652881
-4.2643847 6.2577434 -0.7485224
-5.2173729 6.2612247 -0.80560577
-5.4795508 6.2621808 -0.8225072
-6.653945 6.2664618 -0.90347606
-6.889668 6.1816387 -0.91495436
-7.2349801 6.1828971 -0.94072104
-7.7039452 6.2683902 -0.98173636
-8.0972853 6.2698197 -1.0122787
-8.5160837 6.2713418 -1.0454063
-9.443222 6.2747126 -1.1207054
-9.9593649 6.2765861 -1.1636401
-10.516933 6.2786112 -1.2107248
-11.121943 6.2808084 -1.2625537
-11.781465 6.2832022 -1.3198192
-12.332715 6.1996794 -1.3644083
-15.683027 6.0696673 -1.6622671
-15.938388 5.2995243 -1.6602645
-16.158466 4.5195513 -1.6585121
-17.747656 4.0520072 -1.7994419
-17.975079 2.7546031 -1.7975188
-18.140869 1.0083307 -1.7959338
-18.164658 0.1318109 -1.7955633
-18.148964 -0.74471557 -1.7954755
-18.126318 -1.1825104 -1.7955374
-18.051542 -2.0561359 -1.7958724
-17.999374 -2.4914942 -1.7961462
-17.865761 -3.3584909 -1.796904
-17.784277 -3.7896757 -1.7973883
-17.592245 -4.6463685 -1.798566
-17.481728 -5.0715108 -1.7992593
-17.361591 -5.4942284 -1.8000219
-15.602949 -6.2119074 -1.6600338
-15.303212 -6.9657593 -1.6620054
-15.140469 -7.3377914 -1.6630844
-14.969238 -7.7063084 -1.6642251
-14.78959 -8.0711365 -1.6654267
-14.405244 -8.7889414 -1.6680119
-14.200703 -9.1415653 -1.6693945
-13.988027 -9.4897938 -1.6708361
-14.44543 -11.409176 -1.8195297
-14.180019 -11.766189 -1.8213464
-13.906279 -12.117421 -1.8232243
-13.334141 -12.801859 -1.8271602
-7.9130273 -7.9729395 -1.1103603
-11.765595 -14.398957 -1.8380151
-11.429228 -14.697314 -1.840353
-11.085625 -14.988317 -1.8427441
-10.377275 -15.547305 -1.8476832
-9.264267 -16.325727 -1.8554666
-8.8804493 -16.568527 -1.8581566
-8.4905272 -16.802679 -1.8608922
-8.0946484 -17.028105 -1.8636723
-7.693193 -17.244566 -1.8664944
-7.2857809 -17.451956 -1.8693613
-6.45541 -17.838804 -1.8752123
-6.0326462 -18.018023 -1.8781954
-5.6050878 -18.187555 -1.8812149
-5.172998 -18.347254 -1.8842692
-4.7364454 -18.496994 -1.8873576
-4.2956738 -18.636652 -1.8904785
-3.8510938 -18.766104 -1.8936288
-1.5775098 -19.256111 -1.9097798
-1.1142774 -19.321899 -1.9130781
-0.18131836 -19.420437 -1.9197292
0.28765625 -19.439079 -1.9216996
0.75749022 -19.447407 -1.9237667
1.2286426 -19.455885 -1.9269797
3.5567284 -19.139572 -1.9242728
4.4924121 -19.014805 -1.9312938
4.9590721 -18.935543 -1.9348396
5.4245114 -18.845041 -1.9384058
6.8112888 -18.505852 -1.9492112
8.6272554 -17.895866 -1.9637703
9.0734768 -17.715366 -1.9674261
9.5159864 -17.523754 -1.9710848
9.9545603 -17.321127 -1.9747446
10.388886 -17.107487 -1.9784024
10.818594 -16.882936 -1.9820563
12.889121 -15.599277 -2.0001905
13.675468 -15.012652 -2.0073376
14.434453 -14.385753 -2.0143955
14.803007 -14.057551 -2.0178847
9.0420504 -8.1809006 -1.205305
15.516807 -13.372429 -2.0247729
16.197783 -12.650195 -2.0315244
16.843769 -11.892436 -2.0381191
17.153046 -11.500733 -2.0413525
16.607147 -9.4697094 -1.8896853
16.846924 -9.0748444 -1.8914907
17.076651 -8.6735897 -1.8932257
17.505302 -7.8530526 -1.8964791
17.703857 -7.4342661 -1.8979952
17.891649 -7.0101757 -1.8994354
20.861504 -2.2608752 -2.0741675
20.915039 -1.7572006 -2.0746655
20.955448 -1.2522076 -2.0750701
20.982695 -0.7462976 -2.0753806
20.997675 0.26704466 -2.0757194
20.985409 0.77369809 -2.0757473
20.804804 2.791693 -2.0749166
20.636181 3.7904608 -2.0739386
18.680977 4.8508549 -1.9077917
18.408281 5.7413015 -1.9060444
18.254843 6.180634 -1.9050473
11.473603 6.1997333 -1.2891051
10.264727 6.2043061 -1.1855737
9.7296772 6.2063284 -1.1407454
9.2333298 6.2082047 -1.0998039
8.6534176 6.1266108 -1.0480385
7.9342675 6.2132034 -0.99612725
7.193779 6.2159977 -0.93976468
6.2244334 6.2196527 -0.86977971
5.9320703 6.2207551 -0.84966016
5.3853807 6.2228131 -0.81346118
5.128818 6.2237787 -0.79717052
4.6447167 6.2255998 -0.7677713
3.979502 6.2280984 -0.73056358
3.7714942 6.2288785 -0.71976757
3.1384861 6.1474676 -0.68226284
2.6343262 6.2370782 -0.6692462
2.4589746 6.2377338 -0.66275448
2.2868848 6.2383771 -0.65676594
2.1177733 6.2390094 -0.65126103
1.7874511 6.240242 -0.64162856
1.6257422 6.2408452 -0.63747066
1.4660156 6.2414408 -0.63373101
1.3080566 6.2420292 -0.63040143
0.68986326 6.244328 -0.62098235
-0.066464841 6.2471342 -0.61753905
-0.36847654 6.2482538 -0.61868745
-0.52009767 6.2488151 -0.61980569
-0.82541013 6.2499433 -0.62314582
-0.97949219 6.2505107 -0.62537754
-1.1347656 6.2510843 -0.6279934
-1.9088086 6.165318 -0.6379562
-2.0749609 6.1707644 -0.64351606
-2.6194921 6.2517166 -0.67001039
-2.7989843 6.2523761 -0.67712414
-3.1702538 6.253737 -0.69304979
-3.5603125 6.2551665 -0.71143782
-3.7634473 6.2559099 -0.72164488
-3.9726269 6.2566752 -0.73258185
-4.1883883 6.2574649 -0.74429578
-4.6419139 6.2591228 -0.77026504
-5.3879099 6.2618461 -0.81654656
-5.9390817 6.2638578 -0.85322487
-6.2340136 6.2649322 -0.8736158
-6.5435448 6.2660599 -0.89553696
-7.5737696 6.2679157 -0.9717598
-7.9589157 6.2693167 -1.0014691
-8.8058596 6.2723956 -1.0686679
-9.7769918 6.2759247 -1.1483936
-10.319677 6.2778959 -1.1939888
-11.547451 6.2823515 -1.2994161
-13.013105 6.2859354 -1.4285078
-13.864131 6.2890201 -1.5048269
-15.492148 6.5814347 -1.6638037
-15.635459 6.2013383 -1.6626376
-15.770576 5.8185358 -1.6615835
-17.804834 3.7698381 -1.7989684
-17.953398 2.9043584 -1.797708
-18.154472 -0.59369564 -1.7954704
-18.135263 -1.0316479 -1.7955078
-18.106142 -1.46909 -1.7956161
-18.067236 -1.9057611 -1.7957946
-18.018486 -2.341532 -1.7960439
-17.891571 -3.2094727 -1.7967532
-17.813486 -3.6412063 -1.7972131
-17.628143 -4.499301 -1.7983428
-17.404112 -5.3487616 -1.7997513
-17.277735 -5.7697911 -1.800559
-15.357295 -6.8367181 -1.6616479
-15.197519 -7.2099352 -1.6627057
-14.667304 -8.3080721 -1.6662474
-14.272167 -9.0204945 -1.6689107
-14.062284 -9.3702326 -1.6703323
-15.034335 -10.550569 -1.8155136
-14.788936 -10.920345 -1.8171841
-14.534941 -11.284797 -1.8189178
-13.722431 -12.34436 -1.8244876
-13.435068 -12.685648 -1.826465
-7.7520118 -8.0617466 -1.1055182
-12.525186 -13.671171 -1.8327482
-12.206299 -13.986291 -1.8349572
-11.879883 -14.294373 -1.8372214
-11.204902 -14.888862 -1.8419137
-10.856591 -15.174866 -1.8443397
-10.501367 -15.453166 -1.8468171
-10.139238 -15.723578 -1.8493456
-9.7704487 -15.985934 -1.8519236
-9.3951263 -16.240072 -1.8545501
-6.6000094 -17.774822 -1.8741926
-5.3223829 -18.293312 -1.8832132
-4.4480176 -18.589672 -1.8893995
-4.0049314 -18.722666 -1.8925385
-3.5577831 -18.845375 -1.8957089
-3.1073339 -18.957663 -1.8989053
-2.6533496 -19.059425 -1.9021293
-1.274248 -19.300442 -1.9119388
-0.80952144 -19.359026 -1.9152496
-0.34270507 -19.406616 -1.9185778
0.83726561 -8.0987701 -0.80481446
2.4683397 -19.307905 -1.924053
2.9266992 -19.19829 -1.9196109
3.3952637 -19.15654 -1.9230731
4.3313279 -19.039515 -1.9300768
4.7982421 -18.964148 -1.9336143
5.2641892 -18.877502 -1.9371742
6.6528611 -18.54994 -1.9479631
8.4726362 -17.955517 -1.9625109
8.9200783 -17.778843 -1.9661658
10.239638 -17.182386 -1.9771414
11.935439 -16.234304 -1.9917229
12.346123 -15.970542 -1.995344
12.750957 -15.696261 -1.9989507
13.14959 -15.411611 -2.0025406
13.541787 -15.116693 -2.0061111
14.676797 -14.171781 -2.0166852
9.0447655 -8.3212423 -1.2148516
9.2471876 -8.1042681 -1.2154101
16.08287 -12.777228 -2.0303714
16.73502 -12.025517 -2.0369947
17.047499 -11.636705 -2.0402431
17.350536 -11.239529 -2.0434463
17.643877 -10.834321 -2.0466013
16.522186 -9.6043453 -1.889047
17.221649 -8.407362 -1.8943237
17.434374 -7.99613 -1.8959392
17.63661 -7.5792336 -1.8974811
18.008837 -6.7295542 -1.9003378
18.178623 -6.2973528 -1.9016509
19.560272 -6.2515588 -2.0298154
20.220819 -5.4025517 -2.068867
20.588085 -3.9312253 -2.07183
20.840088 -2.434175 -2.0739748
20.898066 -1.9310436 -2.0745044
20.974813 -0.92079651 -2.0752842
20.998857 0.092340693 -2.0756879
20.970224 1.1054535 -2.0757146
20.936152 1.611093 -2.0755861
20.888964 2.1156335 -2.0753641
20.828613 2.6186285 -2.0750473
20.755253 3.1198931 -2.0746372
20.569628 4.1155291 -2.0735369
18.83827 4.2442827 -1.9087781
18.723339 4.6958942 -1.9080592
18.309023 6.0296245 -1.9054004
18.148573 6.4662771 -1.9043899
15.027782 6.1868339 -1.6064048
11.054912 6.2013164 -1.2529266
10.459091 6.2035699 -1.2020185
9.9094915 6.2056489 -1.1557355
9.4003611 6.2075725 -1.1135095
8.8072653 6.1261187 -1.0604575
8.0710745 6.2126861 -1.0067787
7.6820602 6.2141547 -0.97668159
6.9688964 6.216845 -0.92311448
6.6405077 6.2180839 -0.89923453
6.0313182 6.2203803 -0.85643423
4.2695508 6.2270083 -0.74630219
3.2031348 6.1472244 -0.68517017
3.0587401 6.2326822 -0.6862663
2.6956055 6.2368488 -0.67160445
2.3458495 6.2381558 -0.65877515
2.1757421 6.2387919 -0.65310544
1.6812598 6.2406378 -0.63885558
1.3623242 6.2418265 -0.63150388
1.2054297 6.2424111 -0.62843663
0.89570308 6.2435637 -0.62346959
0.74249023 6.2441325 -0.62155586
0.59010738 6.244699 -0.62001324
0.4384082 6.2452631 -0.61883849
-0.014492187 6.2469425 -0.61748624
-0.16530272 6.2475004 -0.61775613
-0.31633788 6.2480607 -0.61838692
-0.46778318 6.24862 -0.61937928
-0.61977535 6.2491827 -0.62073648
-1.237246 6.2514629 -0.6299178
-1.5496973 6.2338982 -0.63495046
-1.691416 6.1645193 -0.63185936
-1.852666 6.165113 -0.63631845
-2.3837597 6.2508502 -0.66127473
-2.5584569 6.251492 -0.66768169
-2.7366893 6.2521453 -0.67461067
-2.91875 6.2528129 -0.68208563
-3.1050196 6.2534966 -0.69013649
-3.2958202 6.2541971 -0.69878823
-3.4915917 6.2549138 -0.70808041
-3.8998144 6.2564092 -0.72872633
-4.5614548 6.2588286 -0.76552993
-4.7975974 6.2596917 -0.77957463
-5.8405566 6.2634978 -0.84652692
-6.4351268 6.2656646 -0.88779938
-6.7550683 6.2668304 -0.91080409
-6.9948926 6.182023 -0.92274618
-7.8235154 6.2688236 -0.99095851
-8.224453 6.2702823 -1.0222734
-8.6518164 6.2718363 -1.0562702
-9.1087885 6.2734966 -1.0932549
-10.127753 6.2771988 -1.1777874
-11.320508 6.2815275 -1.2797145
-12.571777 6.2022805 -1.3856776
-13.560664 6.2879205 -1.4775139
-15.586864 6.3326139 -1.6630151
-15.974893 5.1790519 -1.6599761
-16.086592 4.7894754 -1.6590881
-16.189501 4.3976836 -1.6582623
-17.775282 3.9184501 -1.7992139
-17.857822 3.4870136 -1.7985247
-17.930605 3.0539935 -1.7979052
-17.993565 2.6195941 -1.7973557
-18.090057 1.7474823 -1.7964662
-18.123535 1.310166 -1.7961268
-18.160908 0.43406004 -1.7956593
-18.142988 -0.88076657 -1.795487
-18.117294 -1.3183306 -1.7955706
-18.081747 -1.755307 -1.7957253
-18.036386 -2.191426 -1.7959499
-17.662861 -4.3519239 -1.7981281
-17.558985 -4.7786088 -1.7987738
-17.445478 -5.2030253 -1.7994887
-16.289658 -6.1733475 -1.7219323
-15.558652 -6.3297863 -1.6603235
-15.410429 -6.7072754 -1.6612976
-15.088202 -7.4525962 -1.663432
-14.541465 -8.5433235 -1.6670938
-14.135547 -9.2502031 -1.6698356
-13.920439 -9.5969458 -1.6712952
-14.874521 -10.793414 -1.816601
-13.535069 -12.568706 -1.8257763
-13.242412 -12.90592 -1.8277926
-7.8369532 -8.0154896 -1.1080796
-12.633349 -13.560922 -1.8319994
-11.993252 -14.18896 -1.8364346
-11.661923 -14.492377 -1.8387353
-11.323281 -14.788497 -1.8410901
-10.977441 -15.077137 -1.8434978
-10.62457 -15.35811 -1.8459576
-10.264893 -15.631245 -1.8484679
-9.8983498 -15.896379 -1.8510292
-8.7600098 -16.642162 -1.8590013
-8.3682127 -16.873638 -1.8617507
-7.1582713 -17.514448 -1.870259
-6.7440329 -17.709681 -1.8731774
-6.3246579 -17.8955 -1.8761346
7.1368551 -14.464487 -1.962002
7.4951463 -14.309655 -1.9649676
7.8501172 -14.145915 -1.9679326
8.2015133 -13.973364 -1.9708947
8.5491304 -13.792038 -1.9738525
8.8927536 -13.602026 -1.9768041
9.2321291 -13.403403 -1.9797475
9.5670404 -13.196233 -1.9826813
9.8972845 -12.980639 -1.9856035
10.857607 -12.284114 -1.9942808
11.767754 -11.515407 -2.0027859
12.621923 -10.677949 -2.0110681
11.882216 -9.5699282 -1.8558655
13.208847 -7.7965336 -1.86576
13.590566 -7.1611533 -1.8686355
13.93997 -6.5062785 -1.8712845
15.639071 -5.9631662 -2.0359659
15.787343 -5.5871806 -2.0371125
16.05496 -4.8238935 -2.039201
16.17416 -4.4370985 -2.0401421
16.382822 -3.6545305 -2.0418134
16.472109 -3.259279 -2.0425425
16.551298 -2.8617473 -2.0431998
16.620312 -2.4622045 -2.0437849
16.679062 -2.0609341 -2.0442965
16.727509 -1.6581914 -2.0447352
16.765654 -1.2542676 -2.0451005
16.793438 -0.84943664 -2.0453916
16.817831 -0.03817993 -2.0457513
16.741747 1.5828766 -2.0455778
16.696796 1.9861999 -2.0453484
16.576015 2.7885766 -2.0446677
16.500263 3.1870677 -2.0442169
16.3183 3.977304 -2.0430961
15.653291 4.2178788 -1.972005
14.822236 4.3802276 -1.8800826
14.447783 5.4339166 -1.877645
14.305293 5.7780914 -1.8767046
12.621806 6.1951008 -1.7103044
11.228037 6.2004023 -1.560208
9.0540428 6.2086601 -1.3354161
8.4883003 6.1270208 -1.2734141
8.182519 6.2120562 -1.2496737
6.7293067 6.2175627 -1.1144755
6.1118455 6.2199006 -1.060735
5.8245993 6.2209868 -1.0366417
5.5499411 6.2220244 -1.0141943
5.2867675 6.2230182 -0.99326521
5.0341015 6.2239714 -0.97373807
4.7910447 6.2248893 -0.95551038
3.6469042 6.1493559 -0.8696658
3.447295 6.1461663 -0.8571949
3.0679979 6.1475906 -0.83575082
2.9262695 6.2358465 -0.83790112
2.744951 6.2365265 -0.82884777
2.5674219 6.2371917 -0.82046032
2.3933301 6.2378435 -0.81270993
2.2224023 6.2384844 -0.80556935
1.7258691 6.2403412 -0.78757674
1.5649512 6.2409415 -0.78265631
1.4059179 6.2415338 -0.77824879
1.0927246 6.242703 -0.77091378
0.63210934 6.2444158 -0.7634573
0.027158203 6.2466607 -0.75985563
-0.12361328 6.2472196 -0.76006508
-0.42587888 6.2483392 -0.76181579
-1.8078516 6.1648173 -0.78147274
-1.9708105 6.1654153 -0.7873497
-2.3360252 6.2505388 -0.81168514
-2.509795 6.2511759 -0.81939667
-3.0530369 6.2531657 -0.84645933
-4.0535059 6.2568207 -0.90684819
-4.2718749 6.2576151 -0.92164123
-4.4976072 6.2584391 -0.93747824
-4.7313962 6.2592888 -0.95443577
-6.0490527 6.2640815 -1.0592561
-6.6648045 6.266315 -1.1127762
-6.9009957 6.1814923 -1.1269675
-7.7167869 6.2682328 -1.2093338
-8.110898 6.26966 -1.2470198
-8.5306349 6.2711811 -1.2879041
-8.9790916 6.2728033 -1.33236
-11.143115 6.2806253 -1.5559437
-12.242538 6.5160651 -1.6870041
-12.38788 6.21456 -1.6858702
-12.526367 5.9100919 -1.6848102
-12.657754 5.6027374 -1.6838
-12.781972 5.2926116 -1.6828406
-12.899004 4.9799409 -1.6819322
-13.008779 4.6648345 -1.6810747
-13.111279 4.3474665 -1.6802691
-14.048271 4.2847648 -1.7865756
-14.436953 4.0251899 -1.823117
-14.524267 3.6741998 -1.8224124
-14.603525 3.3214641 -1.8217648
-14.674667 2.9671147 -1.8211749
-14.737695 2.6113634 -1.8206427
-14.839267 1.896311 -1.8197528
-14.908095 1.1776935 -1.8190963
-14.930185 0.81746823 -1.818856
-14.949746 0.096124873 -1.8185513
-14.947177 -0.26464844 -1.8184872
-14.936386 -0.62527406 -1.818482
-14.917402 -0.98555297 -1.8185354
-14.854795 -1.7044332 -1.8188189
-14.811191 -2.0626788 -1.819049
-14.759433 -2.4198718 -1.8193376
-14.555469 -3.4835393 -1.8205535
-14.379121 -4.1843262 -1.8216548
-14.278926 -4.5316648 -1.8222921
-14.170859 -4.8767829 -1.8229861
-13.799248 -5.8969378 -1.8254113
-12.300634 -6.3453531 -1.6836243
-12.151133 -6.644289 -1.6846255
-11.994736 -6.9399023 -1.6856766
-11.831484 -7.2320623 -1.6867776
-10.915088 -8.6355333 -1.6930118
-10.503202 -9.1673756 -1.6958364
-10.28792 -9.4263964 -1.6973171
-10.431279 -11.048566 -1.8483249
-10.171514 -11.308084 -1.8501238
-9.9055176 -11.561769 -1.8519683
-9.3554201 -12.051053 -1.8557913
-9.0715237 -12.286384 -1.8577682
-8.7818947 -12.515309 -1.8597876
-8.1861324 -12.953374 -1.8639489
-7.5690818 -13.364167 -1.8682688
-7.2529883 -13.558999 -1.8704853
-6.9320116 -13.746609 -1.8727382
-6.2760644 -14.099707 -1.8773496
-4.9128513 -14.713925 -1.8869603
-3.8508594 -15.090608 -1.8944705
-2.3914063 -15.4756 -1.9048219
-2.0200293 -15.550317 -1.9074612
-0.89331055 -15.716518 -1.9148685
1.0118262 -15.814479 -1.9276339
1.3950487 -15.807046 -1.930269
3.2901561 -15.535599 -1.9316926
3.6695311 -15.474666 -1.934566
4.800869 -15.237014 -1.9432801
5.5471678 -15.0329 -1.9491508
5.9172459 -14.917194 -1.9520996
6.2849903 -14.792426 -1.955055
7.7281151 -14.203362 -1.9669104
10.110986 -12.834826 -1.9875107
11.060849 -12.122251 -1.9961548
11.366347 -11.868705 -1.9989978
11.959287 -11.338233 -2.0046158
9.018877 -8.1463842 -1.4783522
11.798223 -9.6652327 -1.8552428
12.934619 -8.2119722 -1.8637034
13.139863 -7.9039574 -1.865242
13.337382 -7.5906076 -1.8667266
13.527012 -7.2721176 -1.8681555
13.882109 -6.6204772 -1.8708445
14.047265 -6.2877789 -1.8721019
16.0116 -4.9564829 -2.0388608
16.44248 -3.3958216 -2.042299
16.711983 -1.7971939 -2.0445921
16.753653 -1.3936371 -2.0449827
16.785 -0.98907894 -2.0452993
16.806015 -0.58381897 -2.0455422
16.816563 -0.17810974 -2.0457103
16.785879 1.0388904 -2.045769
16.754873 1.4435626 -2.0456395
16.661747 2.2497833 -2.0451577
16.599775 2.6507432 -2.0448062
16.527529 3.0499077 -2.0443804
16.445107 3.4470263 -2.0438819
14.860087 4.2572956 -1.8803254
14.355391 5.6598611 -1.8770357
14.050156 6.3389606 -1.8749752
10.822763 6.2019415 -1.5173358
10.245274 6.2041349 -1.456942
9.2166309 6.2080426 -1.3517314
8.2982025 6.1917276 -1.259429
7.9205661 6.2130499 -1.2245225
7.5403419 6.2144914 -1.1885846
6.8421969 6.2171354 -1.1245635
5.9221287 6.2206182 -1.0447549
5.6432714 6.2216716 -1.0217568
5.3762794 6.2226801 -1.0003171
4.6366014 6.2254715 -0.94422489
4.4077148 6.2263336 -0.92794973
4.1864452 6.2271686 -0.91274571
3.9721875 6.2279754 -0.89854789
3.5146875 6.1459136 -0.86120969
2.9897168 6.2356086 -0.84118313
2.4529686 6.2376199 -0.81531149
2.1119921 6.2388968 -0.80120945
1.9456836 6.2395182 -0.79502571
1.7818261 6.2401309 -0.78939426
1.6201953 6.2407355 -0.78429425
0.99131835 6.2430792 -0.76892728
0.68461913 6.2442203 -0.76410431
0.53251952 6.2447858 -0.76237762
0.38104492 6.2453485 -0.76110202
0.22997069 6.2459087 -0.7602725
-0.071630858 6.2470255 -0.75994301
-0.2225 6.2475848 -0.76044333
-0.52529293 6.2487063 -0.76277828
-0.6775586 6.2492681 -0.76462108
-0.98476559 6.2504034 -0.76968247
-1.1400976 6.2509756 -0.77291739
-1.5923437 6.1640253 -0.77441198
-1.7522265 6.1646137 -0.77957261
-1.9143554 6.1652079 -0.78526264
-2.0806153 6.1706533 -0.79212248
-2.2768555 6.2503214 -0.80916828
-2.4495118 6.2509551 -0.81666738
-3.1766796 6.2536173 -0.85321432
-3.7704296 6.2557864 -0.88848794
-4.1957812 6.257338 -0.9164257
-4.4189157 6.2581525 -0.93189591
-4.6498437 6.2589936 -0.94845724
-5.1379786 6.2607694 -0.9851886
-5.3968163 6.2617106 -1.0055461
-5.6667285 6.262692 -1.0273687
-6.5542479 6.2659149 -1.1029837
-7.5863376 6.2677603 -1.1970222
-8.3828516 6.2706451 -1.273425
-9.2902536 6.2739286 -1.3636367
-10.338633 6.2777176 -1.4712939
-12.338496 6.3188214 -1.6862472
-12.613242 5.7089972 -1.6841427
-12.859443 5.0880117 -1.6822397
-12.971747 4.7737384 -1.6813647
-13.099502 4.4650812 -1.6835443
-14.405009 4.1457429 -1.8233731
-14.577099 3.4432526 -1.8219814
-14.651064 3.0894487 -1.8213717
-14.716894 2.7341547 -1.8208195
-14.77457 2.3775787 -1.8203256
-14.865419 1.6611956 -1.819512
-14.898583 1.3017486 -1.8191928
-14.940225 0.5812372 -1.8187302
-14.941025 -0.50097412 -1.8184772
-14.721142 -2.6532943 -1.8195583
-14.655908 -3.0084119 -1.8199437
-14.411787 -4.0640731 -1.8214487
-14.209013 -4.7580829 -1.8227404
-13.974531 -5.442647 -1.8242613
-13.845547 -5.780972 -1.8251066
-12.350586 -6.2415466 -1.6832908
-12.203466 -6.5416021 -1.6842746
-12.049423 -6.8383756 -1.6853085
-11.720849 -7.4215422 -1.6875256
-11.546406 -7.7076225 -1.6887078
-11.365341 -7.9898362 -1.6899387
-11.177695 -8.2680292 -1.6912173
-10.362783 -9.3376484 -1.696802
-10.143701 -9.5935097 -1.6983105
-7.9777145 -7.9185362 -1.3673055
-7.7327437 -8.0550213 -1.358247
-10.261767 -11.219275 -1.8494984
-7.0432129 -13.682753 -1.8719577
-6.3904004 -14.04097 -1.8765452
-5.0328612 -14.665947 -1.8861126
-4.6835938 -14.802462 -1.88858
-3.6149414 -15.162956 -1.8961413
-2.8869629 -15.361428 -1.9013034
-2.5188768 -15.44782 -1.9039166
-2.1483104 -15.525541 -1.9065493
0.49720702 -15.80997 -1.9241039
0.87977535 -15.814892 -1.9267273
0.84596676 -8.1174212 -0.99276423
2.0298243 -15.774406 -1.9346455
2.4114549 -15.731212 -1.9359167
2.7883105 -15.656577 -1.9344604
3.1591504 -15.554502 -1.9307058
3.9176073 -15.429774 -1.9364581
4.2952342 -15.353713 -1.9393584
4.6715236 -15.268517 -1.9422725
5.0461621 -15.174201 -1.9451987
5.4190626 -15.070677 -1.948136
5.7899218 -14.958117 -1.9510821
6.8879881 -14.566058 -1.9599575
7.2484274 -14.417356 -1.9629226
7.6057224 -14.25975 -1.9658884
9.6700974 -13.130188 -1.98359
10.322558 -12.685447 -1.9894118
10.641084 -12.45072 -1.9922998
11.26168 -11.957027 -1.9980199
11.858867 -11.431861 -2.0036545
9.0214062 -8.2859964 -1.490016
9.227519 -8.0735874 -1.4914367
12.706904 -10.58749 -2.0119107
11.957177 -9.4834852 -1.8564215
12.194092 -9.200881 -1.8581806
12.423994 -8.9121304 -1.8598911
13.823222 -6.7341599 -1.8703973
15.531386 -6.2200351 -2.0351369
16.497784 -3.1360703 -2.0427544
16.573809 -2.7378752 -2.0433888
16.639629 -2.3377919 -2.043951
16.695204 -1.9360223 -2.0444405
16.740459 -1.5329134 -2.0448565
16.775381 -1.1286706 -2.0451987
16.799921 -0.72361022 -2.0454667
16.8141 -0.3180072 -2.045661
16.817871 0.087859496 -2.0457802
16.79418 0.899198 -2.0457964
16.766727 1.3041497 -2.0456927
16.622305 2.5126872 -2.0449357
16.385595 3.7059991 -2.0435152
15.233349 4.2274175 -1.9230404
14.668554 4.844173 -1.8790895
14.540956 5.1944461 -1.8782568
14.1054 6.2231693 -1.8753766
13.167119 6.193028 -1.7699852
12.388046 6.1959906 -1.6848739
11.680127 6.1986833 -1.6084728
9.3832321 6.2074089 -1.3685457
8.0570507 6.2125335 -1.2375876
7.6688962 6.2140045 -1.2006571
7.3030176 6.2153912 -1.1665218
6.9571481 6.216702 -1.1349163
6.6293554 6.2179413 -1.1056079
6.0212207 6.220242 -1.0530683
4.717412 6.2251678 -0.9501
4.2619042 6.2268829 -0.91787064
4.0452929 6.2276993 -0.9033339
3.8353319 6.2284894 -0.88976055
3.5850096 6.1495881 -0.86587304
3.3871386 6.1463919 -0.85366333
3.1966112 6.1471086 -0.84279889
3.0536621 6.2353678 -0.84454864
2.8695507 6.2360587 -0.83501631
2.3399315 6.2380424 -0.81042922
2.1699317 6.2386799 -0.8034721
1.200039 6.2423005 -0.77322263
0.89040035 6.2434549 -0.76714271
0.73723632 6.2440238 -0.76480383
0.43321288 6.2451544 -0.76149154
-0.019648436 6.2468338 -0.75987387
-0.17045899 6.2473931 -0.76022047
-0.32150391 6.247952 -0.76101136
-0.47294921 6.2485123 -0.76224792
-0.62498045 6.249074 -0.76393414
-0.77777344 6.249639 -0.76607609
-1.2426269 6.2513542 -0.77529716
-1.4003515 6.2519341 -0.77933395
-2.0235155 6.1704435 -0.78990561
-2.5644433 6.2513762 -0.82191944
-2.7427831 6.2520294 -0.83046782
-2.9249804 6.2526956 -0.83968997
-3.111377 6.2533784 -0.84961975
-3.3023534 6.2540765 -0.8602953
-3.6996679 6.2555289 -0.88404769
-4.1205664 6.2570648 -0.91133243
-4.3411427 6.2578692 -0.92644215
-4.8057127 6.2595611 -0.95993954
-5.3063769 6.2613811 -0.99836665
-6.1407809 6.2644134 -1.0670654
-7.0063376 6.1818743 -1.1365756
-8.238369 6.2701225 -1.2593564
-9.6164455 6.2751079 -1.3967755
-10.719375 6.2790933 -1.5111564
-11.342265 6.2813458 -1.5771338
-12.431641 6.1203384 -1.6855357
-12.56792 5.8149419 -1.684491
-12.6971 5.5066986 -1.6834967
-12.933867 4.8823552 -1.6816604
-13.041406 4.5665436 -1.680819
-13.300673 4.2999334 -1.7003657
-14.549746 3.5648444 -1.8222052
-14.807929 2.1433179 -1.8200334
-14.85209 1.7849542 -1.8196357
-14.946699 0.34487242 -1.8186297
-14.949814 -0.015894165 -1.8185251
-14.931396 -0.73716915 -1.8184921
-14.842129 -1.8157763 -1.8188841
-14.679317 -2.8861392 -1.8198042
-14.608798 -3.2402999 -1.8202276
-14.135664 -4.9834776 -1.8232136
-14.017178 -5.325398 -1.823983
-13.756777 -6.0011115 -1.8256912
-11.944765 -7.0310197 -1.6860131
-11.779414 -7.322062 -1.6871294
-11.428515 -7.8929849 -1.6895089
-11.243134 -8.1725636 -1.6907711
-10.852774 -8.7192593 -1.6934384
-10.648017 -8.9860678 -1.694842
-10.436992 -9.2483263 -1.6962914
-8.0628023 -7.870892 -1.3706142
-7.8171091 -8.0084562 -1.3613133
-9.5477438 -11.885159 -1.8544537
-9.2678709 -12.124819 -1.8564007
-8.9821777 -12.358177 -1.8583909
-8.0917282 -13.018955 -1.8646094
-7.7841601 -13.225683 -1.866762
-6.8313475 -13.803387 -1.8734454
-6.5042477 -13.981349 -1.8757445
-5.8366795 -14.314667 -1.8804433
-5.4965429 -14.469789 -1.8828409
-3.7392383 -15.125339 -1.8952609
-3.3776953 -15.231722 -1.8978229
-2.2763574 -15.499743 -1.9056393
-1.9042871 -15.571731 -1.9082843
-1.5300781 -15.634938 -1.9109466
-0.77580076 -15.728453 -1.9155606
-0.39651367 -15.762587 -1.9179968
0.36548826 -15.806158 -1.923202
0.74779296 -15.814255 -1.9258215
1.1307715 -15.813159 -1.9284512
2.2805469 -15.750996 -1.9359524
3.4080174 -15.517673 -1.9325826
4.165205 -15.380993 -1.9383569
4.5419626 -15.298885 -1.9412665
4.9172068 -15.207729 -1.9441886
5.6623144 -14.997952 -1.9500656
6.0317187 -14.879422 -1.9530168
6.3986816 -14.75185 -1.9559737
6.7630367 -14.615206 -1.9589359
7.1245313 -14.469601 -1.9619006
7.8379879 -14.151679 -1.9678308
8.1895409 -13.979411 -1.9707931
8.881074 -13.608679 -1.9767032
9.5556545 -13.203491 -1.9825811
10.531895 -12.532573 -1.9913061
11.156357 -12.044385 -1.99704
12.049082 -11.253148 -2.0054786
11.873906 -9.5794439 -1.855804
12.788681 -8.4211416 -1.862612
12.999189 -8.1169338 -1.864187
13.763378 -6.8472614 -1.8699434
13.934277 -6.5176415 -1.8712411
14.259667 -6.2550025 -1.8941091
15.215029 -6.2407603 -2.0004201
15.633818 -5.9759836 -2.0359256
16.050703 -4.8370938 -2.0391676
16.37958 -3.6680183 -2.0417874
16.469219 -3.2728758 -2.0425186
16.677206 -2.0746911 -2.0442801
16.80122 0.75945187 -2.0458148
16.643593 2.3744469 -2.0450563
16.578438 2.7748992 -2.0446815
16.503027 3.173435 -2.0442333
16.417431 3.5698552 -2.0437119
16.321777 3.9638555 -2.0431175
15.700898 4.2167974 -1.9775625
14.826055 4.3680191 -1.8801073
14.710507 4.7226567 -1.8793619
14.159443 6.106751 -1.8757364
14.000156 6.4430914 -1.8746945
11.916826 6.1977825 -1.6339098
11.249873 6.2003193 -1.5625314
9.554101 6.2067609 -1.3858833
8.503027 6.1269646 -1.2748696
7.0742383 6.2162576 -1.1455408
5.8342185 6.2209501 -1.0374378
5.5591407 6.2219901 -1.0149368
4.1192088 6.2274213 -0.90823281
3.907002 6.2282205 -0.89433438
3.6537499 6.1493301 -0.87008792
3.2617383 6.1468635 -0.8464579
3.074326 6.1475687 -0.83609307
2.932539 6.2358232 -0.83822316
2.7511132 6.2365031 -0.82914722
2.5734375 6.2371697 -0.82073796
2.3992381 6.2378216 -0.81296569
2.0600781 6.2390909 -0.79923004
1.8945605 6.2397099 -0.79321939
1.7314258 6.2403193 -0.78775412
1.5704199 6.240921 -0.78281569
1.4113379 6.2415142 -0.77839112
1.253955 6.2421012 -0.77446318
0.7899316 6.2438288 -0.7655589
0.63731444 6.2443962 -0.76351935
0.33410156 6.2455215 -0.76079673
0.18313476 6.2460833 -0.76010543
-0.11844727 6.2472014 -0.76005125
-0.26939452 6.2477593 -0.76068813
-0.87839842 6.25001 -0.76772797
-1.0328516 6.2505817 -0.77063626
-1.188584 6.2511539 -0.77401906
-1.5046582 6.2523198 -0.78225029
-1.641748 6.164207 -0.77595836
-1.8023242 6.1647968 -0.78128296
-2.330127 6.2505178 -0.81143212
-2.5037889 6.2511539 -0.8191216
-3.0466113 6.2531424 -0.84611416
-3.2359862 6.2538347 -0.85652775
-3.8347654 6.256022 -0.8925761
-4.2642674 6.2575884 -0.92111593
-4.9654684 6.2601433 -0.97195202
-6.3388281 6.2651324 -1.0841267
-6.6537304 6.2662749 -1.1117936
-7.2347555 6.182703 -1.157627
-8.0970116 6.2696109 -1.2456796
-8.963213 6.2727456 -1.3307739
-10.516514 6.2783623 -1.48987
-11.121484 6.2805471 -1.5536456
-12.23749 6.5263605 -1.6870477
-12.521738 5.920579 -1.6848456
-12.777812 5.3032818 -1.6828729
-12.895117 4.9906802 -1.6819624
-13.107881 4.3583817 -1.6802959
-14.009384 4.2855558 -1.7820807
-14.433818 4.0371614 -1.8231422
-14.521425 3.6862724 -1.8224353
-14.600937 3.3335712 -1.8217862
-14.672363 2.9792755 -1.8211941
-14.876592 1.549657 -1.8194065
-14.907216 1.1900073 -1.8191054
-14.92958 0.82983154 -1.8188632
-14.94374 0.46926269 -1.8186795
-14.949687 0.10848571 -1.8185545
-14.936904 -0.61291015 -1.8184811
-14.918183 -0.97322446 -1.8185327
-14.701728 -2.7637062 -1.8196719
-14.634033 -3.1183853 -1.820075
-14.558223 -3.4714801 -1.8205365
-14.474306 -3.8228829 -1.8210565
-14.174667 -4.8649888 -1.8229617
-14.058916 -5.2077818 -1.8237112
-13.935292 -5.5479879 -1.8245177
-12.156367 -6.6341166 -1.6845905
-11.837207 -7.2221141 -1.6867388
-10.719336 -8.8946142 -1.6943526
-10.510489 -9.1584225 -1.6957862
-10.295371 -9.417594 -1.6972659
-7.9014258 -7.9612498 -1.3644178
-10.440087 -11.039583 -1.848264
-10.180498 -11.299286 -1.8500614
-9.9147263 -11.553185 -1.8519045
-7.8907518 -13.15521 -1.8660158
-6.9430466 -13.740289 -1.8726608
-6.6175585 -13.920856 -1.8749478
-6.2874217 -14.093901 -1.8772695
-5.2714844 -14.567144 -1.8844284
-4.9247947 -14.709211 -1.8868759
-3.1391895 -15.296855 -1.8995138
-2.7729199 -15.389152 -1.9021127
-1.6593066 -15.614147 -1.9100268
-1.2837402 -15.670478 -1.9125705
-0.90626949 -15.715137 -1.9147923
0.23382811 -15.80124 -1.9223009
0.99869138 -15.814577 -1.9275436
1.3818945 -15.807449 -1.9301783
1.7653906 -15.791088 -1.9328206
2.1488769 -15.765449 -1.9354681
3.2771289 -15.537539 -1.9315943
4.0350099 -15.407141 -1.9373572
4.7880273 -15.240195 -1.9431798
5.1621876 -15.14302 -1.9461099
5.5344629 -15.036689 -1.9490501
6.2724414 -14.796838 -1.9549537
6.6377439 -14.66331 -1.9579144
7.0002732 -14.520798 -1.9608786
8.068779 -14.039797 -1.9697725
8.4178705 -13.861792 -1.9727322
8.7629976 -13.675071 -1.9756863
9.4406538 -13.275761 -1.9815707
10.738915 -12.376157 -1.993193
11.050312 -12.130803 -1.996057
11.655732 -11.616399 -2.0017226
9.0191307 -8.1601629 -1.4794995
11.789824 -9.6746397 -1.8551806
12.031474 -9.3963814 -1.8569728
12.266231 -9.1118488 -1.858717
12.714404 -8.5247202 -1.8620569
13.132969 -7.914598 -1.8651903
13.702549 -6.9598093 -1.8694826
