# .PCD v0.7 - Point Cloud Data file format
VERSION 0.7
FIELDS x y z
SIZE 4 4 4
TYPE F F F
COUNT 1 1 1
WIDTH 1477
HEIGHT 1
VIEWPOINT 0 0 0 1 0 0 0
POINTS 1477
DATA ascii
-8.6900482 6.1835194 -0.090074457
-9.276679 6.2694983 -0.094557874
-9.7799025 6.2713757 -0.098115839
-10.910869 6.2755942 -0.10629951
-11.551035 6.2779822 -0.11102882
-13.021074 6.2834644 -0.12210121
-13.682636 6.2004075 -0.12686539
-15.881348 6.2923985 -0.14426628
-17.084707 6.2968845 -0.15377334
-20.071093 6.3161216 -0.17770188
-21.926348 6.3230405 -0.19272064
-24.031397 6.3064036 -0.2098265
-26.768711 6.3387718 -0.23232001
-9.403945 -8.0531664 -0.10456123
-18.990917 -21.74469 -0.24381484
-15.579551 -21.757404 -0.22599807
-12.606425 -21.767647 -0.21243477
-11.915576 -21.769131 -0.20958412
-10.586328 -21.771976 -0.20444748
-9.9461031 -21.775776 -0.20217605
-7.5306735 -21.782846 -0.71391523
-6.9479294 -21.784941 -0.70828384
-5.7950487 -21.741045 -0.69694859
-5.230742 -21.715546 -0.69188535
-4.6761427 -21.699266 -0.68757123
-4.1316013 -21.701504 -0.6842851
-3.6027148 -21.768946 -0.68347317
-3.0803516 -21.875893 -0.68429494
-2.5656152 -22.062109 -0.68798661
-1.5315331 -22.645092 -0.70304281
-0.4609668 -23.894829 -0.74028975
27.564951 6.1333127 -0.8747167
22.44623 6.1440516 -0.72085595
20.516142 6.1513147 -0.66344684
18.86993 6.1575084 -0.61483616
15.132783 6.1811814 -0.50633752
14.156455 6.1848536 -0.47852203
13.281308 6.1881456 -0.45385551
12.322637 6.1074047 -0.42602003
10.517802 6.1979818 -0.37815139
9.4509077 6.201992 -0.35015014
8.974062 6.2037854 -0.33792979
8.5291309 6.2054586 -0.3267189
7.7212205 6.2084947 -0.30689394
6.6742086 6.2125192 -0.28243721
6.3607125 6.213696 -0.27543333
6.0622168 6.214818 -0.26892197
5.7773533 6.2158875 -0.26286179
5.2437205 6.2178893 -0.25194588
4.751543 6.2197385 -0.24244316
4.5188575 6.2206116 -0.23815872
3.8659863 6.2230616 -0.2269284
2.8956151 6.2266989 -0.21270806
2.5385742 6.2280383 -0.20832366
2.3653123 6.2286863 -0.20637611
2.1670702 6.14958 -0.20196326
1.5413574 6.2357125 -0.19896537
1.3828125 6.2363048 -0.19786209
1.0704784 6.2374744 -0.19603088
0.91628903 6.2380514 -0.19529739
0.76316404 6.2386231 -0.19468246
0.4593457 6.2397604 -0.19380012
0.30829102 6.2403235 -0.19353035
-0.14357422 6.242013 -0.19339789
-0.44548827 6.2431407 -0.19387321
-0.59718746 6.2437072 -0.19428192
-0.90295899 6.2448487 -0.19544609
-1.3703711 6.246593 -0.19809036
-1.690166 6.2477856 -0.20048186
-1.8531641 6.2483945 -0.20187736
-2.0185449 6.2490101 -0.20341125
-2.1865625 6.2496362 -0.20508903
-2.357461 6.2502732 -0.20691635
-2.531543 6.2509217 -0.20889831
-2.890449 6.2522583 -0.21335883
-3.0569336 6.2143884 -0.21451767
-3.219502 6.1648607 -0.21542953
-3.4116113 6.165576 -0.21826667
-3.6118066 6.1711569 -0.22148414
-4.0760059 6.2518373 -0.2311734
-4.9990525 6.2552733 -0.24803162
-5.2520018 6.2562132 -0.25302017
-5.7904978 6.2582154 -0.26409933
-7.0304589 6.2628245 -0.29164448
-7.7563477 6.265521 -0.30884841
-8.1528225 6.2669945 -0.31852475
-8.4574318 6.1824403 -0.32450244
-8.9054193 6.1859994 -0.33587089
-9.5080471 6.270133 -0.35278827
-10.029199 6.272069 -0.36640388
-11.204111 6.2764306 -0.39779407
-13.409443 6.2846155 -0.45871642
-14.112333 6.2034349 -0.47750536
-17.705664 6.2988257 -0.58210701
-18.940371 6.2277145 -0.61758351
-20.903593 6.31879 -0.67643189
-22.909227 6.3262305 -0.73618126
-20.452051 -21.743042 -0.9246279
-19.486454 -21.744287 -0.90442389
-16.821348 -21.74892 -0.85168052
-15.210068 -21.758041 -0.82230884
-13.699551 -21.761562 -0.79650396
-11.597207 -21.769316 -0.7640298
-10.932236 -21.770752 -0.75460583
-8.4198437 -21.780195 -0.72330725
-7.8221188 -21.781977 -0.71689087
-6.6562204 -21.785366 -0.7056036
-6.0751953 -21.747614 -0.6994313
-5.5087204 -21.729164 -0.69436318
-4.9479489 -21.701694 -0.68946636
-3.8625586 -21.728825 -0.68361104
-2.8205469 -21.969885 -0.68611068
-2.3055859 -22.182964 -0.690826
-0.72985351 -23.382837 -0.72464263
-0.20448242 -28.87079 -0.8943069
16.300165 -8.2460251 -0.565835
24.657061 -8.2704258 -0.80557674
23.560888 6.1483812 -0.75424832
17.909393 6.0869431 -0.58591467
15.65831 6.1792054 -0.52142304
14.624941 6.1830907 -0.4918367
12.871787 6.1896863 -0.44241196
11.434814 6.1945324 -0.40283164
9.699482 6.2010584 -0.35659659
9.2053804 6.2029161 -0.34383339
8.7451563 6.2046447 -0.33213806
8.3149805 6.2062631 -0.32139221
7.9115233 6.2077794 -0.31149673
7.5319724 6.2092052 -0.30236155
7.0774608 6.1271229 -0.28996474
6.207871 6.2142711 -0.27208045
4.8696289 6.2192941 -0.24467063
3.560117 6.2242088 -0.22210564
2.8038378 6.2270432 -0.21153457
2.6253905 6.2277122 -0.2093454
2.0831444 6.1498947 -0.20112686
1.7567188 6.1471777 -0.19803214
1.5975683 6.1477733 -0.19675216
1.1470898 6.2371874 -0.19643767
0.99230468 6.2377658 -0.19564475
0.38285154 6.240046 -0.19364952
0.23199219 6.2406092 -0.19343689
-0.21983398 6.2422986 -0.19347511
-0.37077147 6.2428613 -0.19371407
-0.67422849 6.2439952 -0.19453301
-1.1360449 6.245719 -0.19663581
-1.2925098 6.2463021 -0.19757865
-1.4505762 6.246892 -0.19864708
-1.6104492 6.2474875 -0.19984245
-1.772373 6.2480917 -0.2011711
-1.9365429 6.2487049 -0.20263626
-2.1032226 6.2493262 -0.20424239
-2.2726562 6.2499571 -0.20599478
-2.6209373 6.2512546 -0.20996368
-2.9837596 6.2526073 -0.21459617
-3.3160839 6.1652207 -0.2168396
-3.5107908 6.165947 -0.21978134
-4.6388965 6.2539344 -0.24119094
-4.8777342 6.2548203 -0.24569114
-5.3839645 6.2567039 -0.25567871
-5.6531544 6.2577038 -0.2612175
-6.2289743 6.2598462 -0.27354088
-7.2063961 6.2634788 -0.29574931
-7.5692086 6.2648263 -0.3043479
-7.9539351 6.2662549 -0.31364676
-8.3013964 6.2214746 -0.32133877
-8.6789646 6.1832643 -0.33008683
-9.7668257 6.2710938 -0.35952276
-10.895576 6.2752843 -0.38946697
-11.534286 6.2776561 -0.4067643
-12.232822 6.2802491 -0.42593274
-13.000859 6.2831006 -0.44726864
-14.792285 6.2880139 -0.49787411
-15.853076 6.2919507 -0.52831674
-17.052715 6.2964025 -0.56306767
-18.422188 6.3014841 -0.60309219
-21.876181 6.3223972 -0.70535457
-19.01375 -21.74511 -0.89473462
-18.108477 -21.746681 -0.87657046
-17.238779 -21.748196 -0.8596198
-16.405809 -21.755251 -0.84400451
-13.333906 -21.765575 -0.79065269
-12.623115 -21.767109 -0.77941769
-11.258594 -21.770046 -0.75917512
-10.601835 -21.77146 -0.75009686
-7.5235348 -21.782867 -0.71383786
-6.3573828 -21.754236 -0.70202696
-5.7882128 -21.740883 -0.69689065
-5.2239161 -21.715214 -0.69182569
-4.6695018 -21.699291 -0.68753076
-4.1250196 -21.701532 -0.68424881
-3.0741308 -21.878147 -0.6843403
-2.5593457 -22.064379 -0.68803418
-0.74148434 -8.0936413 -0.251753
-1.5252148 -22.64979 -0.70317256
-0.45423827 -23.90959 -0.74074143
27.527666 6.1334543 -0.87358648
24.746748 6.1439185 -0.78981346
22.42079 6.1441464 -0.72009671
20.494638 6.1513939 -0.66280836
17.279999 6.1092868 -0.56772196
14.145303 6.184896 -0.47820821
13.27123 6.1881833 -0.45357272
12.313643 6.1074376 -0.42575979
10.5108 6.198009 -0.37796456
9.9573927 6.2000875 -0.36333701
9.4448824 6.2020154 -0.34999576
8.9685154 6.2038059 -0.33778933
8.5239162 6.2054772 -0.32658738
7.7166405 6.2085118 -0.30678248
7.2494626 6.1264782 -0.29400069
6.9060154 6.1277685 -0.28598884
6.6703124 6.212534 -0.28234741
6.3569822 6.2137094 -0.27535009
5.7739744 6.2158995 -0.2627902
4.7486715 6.2197485 -0.24238998
4.2914352 6.2214646 -0.23410971
4.0740919 6.22228 -0.23037513
3.6589744 6.2238388 -0.22363135
3.4601855 6.2245836 -0.22059585
2.7130761 6.2273841 -0.2104058
2.1650391 6.1495895 -0.20194526
1.9986328 6.1462731 -0.20019394
1.5394238 6.2357202 -0.19895087
1.2240235 6.2369003 -0.19687408
1.0686035 6.2374816 -0.19602066
0.60906249 6.2392001 -0.19417861
0.45749998 6.2397666 -0.19379584
0.30646485 6.2403307 -0.19352676
0.15575194 6.2408957 -0.19337226
-0.14540039 6.2420201 -0.19339965
-0.29619139 6.2425828 -0.19358185
-0.44733396 6.2431469 -0.19387786
-0.59903318 6.2437143 -0.1942874
-0.75148433 6.2442832 -0.19481239
-0.90481442 6.2448559 -0.1954544
-1.2150292 6.2460132 -0.19709693
-1.3722851 6.2466002 -0.19810241
-2.0205762 6.2490172 -0.20343108
-2.1886034 6.2496448 -0.20510948
-2.3595507 6.2502818 -0.20693953
-3.4139745 6.165586 -0.21830215
-3.6142383 6.1711645 -0.22152229
-4.297617 6.2526636 -0.23501465
-4.5241013 6.2535057 -0.23907889
-4.7586522 6.2543783 -0.24342987
-5.0020704 6.2552829 -0.24809028
-5.7939157 6.2582288 -0.26416999
-6.081748 6.2592978 -0.27033186
-6.7005858 6.2615991 -0.28407127
-7.0346189 6.2628393 -0.29174069
-7.3873925 6.2641492 -0.30001765
-7.7610154 6.2655382 -0.30896187
-8.462656 6.1824608 -0.32463619
-13.419736 6.2846546 -0.45900336
-15.313378 6.2899485 -0.51279062
-16.441044 6.2941318 -0.54530907
-17.722315 6.2988868 -0.58259559
-18.95582 6.2266541 -0.61802703
-20.925976 6.318872 -0.67709744
-20.440098 -21.743095 -0.92437255
-19.475039 -21.744307 -0.90418696
-18.551016 -21.745913 -0.88538885
-17.664082 -21.747456 -0.867845
-16.811192 -21.74894 -0.85146588
-15.993779 -21.756212 -0.83641034
-15.200576 -21.75806 -0.82214123
-13.690702 -21.761583 -0.79636067
-12.270957 -21.767866 -0.77402264
-10.924277 -21.770765 -0.75449955
-10.276513 -21.774651 -0.74581754
-9.6422358 -21.776545 -0.73770171
-9.0212889 -21.778399 -0.73018003
-7.8149509 -21.782 -0.71681947
-6.6492381 -21.785376 -0.7055397
-4.3933005 -21.70043 -0.68581331
-3.8562109 -21.729809 -0.68360752
-3.3301756 -21.81102 -0.68343925
-2.8142869 -21.972143 -0.68615311
-0.2034082 -29.956818 -0.92794293
24.657001 -8.2623405 -0.8054992
29.111473 6.1232362 -0.92146575
23.533056 6.1484861 -0.75341457
21.406191 6.1479635 -0.68986744
17.892372 6.087008 -0.58540559
14.613066 6.183136 -0.49149585
13.691386 6.186604 -0.46537998
12.862266 6.1897225 -0.44214416
12.037656 6.1547523 -0.41878307
11.426855 6.1945629 -0.40261358
10.225293 6.1990805 -0.37039191
9.6932812 6.2010813 -0.35643542
9.1995802 6.2029381 -0.34368423
8.3099318 6.2062817 -0.32126755
7.4264646 6.1259031 -0.29820156
7.0732813 6.1271396 -0.2898674
6.794961 6.1790991 -0.28448966
5.9129782 6.2153783 -0.26572663
5.6346874 6.216423 -0.25988409
5.1125097 6.2183847 -0.24935767
4.6299314 6.2201953 -0.24018645
4.1805758 6.2218809 -0.23218803
3.9666991 6.222683 -0.22858055
3.759248 6.2234607 -0.22521164
3.5576854 6.2242174 -0.22206886
3.361582 6.2249522 -0.21913749
3.1704783 6.2256699 -0.21640746
2.8016503 6.2270517 -0.21150719
2.6232421 6.2277207 -0.20931892
2.2767773 6.2290182 -0.20542991
2.0811424 6.1499023 -0.20110686
1.7547754 6.1471839 -0.19801627
1.5956542 6.1477804 -0.19673759
1.4589746 6.2360206 -0.19837776
1.3013183 6.2366114 -0.19733985
0.99042964 6.2377734 -0.1956356
0.83682615 6.2383485 -0.19496444
0.68416011 6.2389183 -0.19440918
0.38101563 6.2400522 -0.19364707
0.079541013 6.2411804 -0.19333649
-0.37260741 6.2428684 -0.19371735
-0.67607421 6.2440014 -0.19453834
-0.82895505 6.2445741 -0.19512245
-0.98284179 6.2451463 -0.19582428
-1.1379297 6.2457261 -0.19664672
-1.4525098 6.2469006 -0.19866051
-2.2747362 6.2499642 -0.20601647
-2.4472558 6.2506089 -0.20792358
-2.6231055 6.2512646 -0.20999077
-2.9860058 6.2526145 -0.21462783
-3.1286914 6.1645226 -0.21413139
-3.3184276 6.1652308 -0.21687561
-3.5131934 6.1659555 -0.21981941
-4.4112697 6.2530856 -0.23703735
-5.6564841 6.2577171 -0.26128539
-5.9379001 6.2587647 -0.26723397
-6.5419531 6.2610083 -0.28048798
-7.57374 6.2648425 -0.3044554
-7.9587598 6.266273 -0.31376567
-8.3014154 6.2176976 -0.32126728
-8.6843843 6.1832833 -0.33021742
-9.2704687 6.269249 -0.34665379
-9.7731638 6.2711167 -0.35968825
-10.315469 6.2731309 -0.3739692
-10.903028 6.2753124 -0.38966754
-11.542393 6.2776866 -0.40698725
-12.24167 6.280282 -0.42617777
-13.010634 6.2831359 -0.44754109
-13.671201 6.2000632 -0.46497902
-18.440029 6.3015504 -0.60361707
-20.048897 6.3156176 -0.65110528
-21.900419 6.3224878 -0.70607442
-19.947685 -21.745131 -0.91404819
-19.002489 -21.745129 -0.8945049
-14.809326 -21.758974 -0.81528592
-14.054785 -21.760736 -0.80239731
-13.325205 -21.765594 -0.79051054
-12.614619 -21.767126 -0.77928573
-11.250556 -21.770063 -0.75906193
-10.593994 -21.771479 -0.74997693
-8.1088085 -21.781122 -0.7199139
-7.5164061 -21.78289 -0.71376157
-6.9338865 -21.78496 -0.708152
-5.7813668 -21.740723 -0.69682777
-5.2171092 -21.71488 -0.69176573
-4.1184473 -21.701557 -0.68421197
-3.5899217 -21.770918 -0.68347347
-3.06792 -21.880396 -0.68438268
-2.5530565 -22.066654 -0.6880818
-1.5188378 -22.654535 -0.70330727
7.6020603 -8.1090069 -0.34429693
27.490225 6.133595 -0.87245774
24.716337 6.144033 -0.78889829
20.473036 6.1514759 -0.66216964
18.832939 6.1576486 -0.61374491
17.28002 6.1150122 -0.56777793
16.202099 6.1771579 -0.53710485
14.134082 6.1849375 -0.47788966
13.261181 6.1882215 -0.45329249
11.756748 6.1933227 -0.41160768
11.103447 6.1957788 -0.39385527
9.9509668 6.2001123 -0.36316857
8.9629002 6.2038279 -0.33764654
8.5187111 6.2054977 -0.32645723
8.1027737 6.2070594 -0.31616241
7.2451854 6.1264939 -0.29390055
6.9019723 6.1277833 -0.28589058
6.353291 6.2137241 -0.27526984
6.0551562 6.2148438 -0.26876968
5.7706056 6.2159119 -0.26271933
4.7458005 6.2197604 -0.24233581
4.2887597 6.2214756 -0.23406303
4.0715036 6.22229 -0.23033126
3.656533 6.2238474 -0.22359374
3.457793 6.2245922 -0.22055893
2.7109179 6.2273927 -0.21037887
2.3611522 6.2287021 -0.20633163
2.1630273 6.1495957 -0.20192367
1.9966406 6.1462793 -0.20017546
1.6739843 6.1474862 -0.1973507
1.0667285 6.2374887 -0.19601196
0.30462891 6.2403369 -0.19352546
0.15392578 6.2409034 -0.19337165
0.0033593748 6.2414637 -0.19332962
-0.60086912 6.2437205 -0.1942929
-1.3742089 6.2466063 -0.19811592
-1.5331836 6.2471995 -0.19925033
-1.6940918 6.2478004 -0.20051399
-1.8571582 6.2484078 -0.20191237
-2.0225976 6.2490244 -0.20345092
-2.1906641 6.2496519 -0.20513146
-3.4163377 6.1655931 -0.21833999
-4.0812402 6.2518578 -0.23126251
-4.3003321 6.2526731 -0.23506287
-4.7615428 6.2543883 -0.24348426
-5.0050974 6.2552938 -0.2481491
-5.2582712 6.2562351 -0.25314438
-5.7973533 6.2582421 -0.26424325
-6.0853319 6.2593112 -0.27040938
-6.7045212 6.2616138 -0.28415969
-7.0387988 6.2628551 -0.29183894
-7.3918262 6.2641664 -0.30012202
-11.219628 6.2764878 -0.39821541
-11.888212 6.2789698 -0.41644844
-12.621387 6.2816916 -0.43669513
-17.738886 6.2989488 -0.58308017
-18.955849 6.2204967 -0.61796844
-20.948359 6.3189549 -0.6777603
-25.359522 6.3329916 -0.80964339
-26.625586 -7.8274131 -0.85963589
-20.428192 -21.743145 -0.92412221
-19.463535 -21.744326 -0.90395206
-18.539989 -21.745932 -0.88516414
-17.653574 -21.747475 -0.86764044
-16.801085 -21.748959 -0.85129535
-15.191123 -21.758085 -0.82197404
-13.681855 -21.761606 -0.79621738
-11.580878 -21.76935 -0.76379097
-10.916327 -21.770786 -0.7543937
-10.268711 -21.774675 -0.74571913
-8.4052143 -21.780239 -0.72314519
-7.2206836 -21.78454 -0.71088445
-6.6422362 -21.785387 -0.70547527
-6.0614257 -21.747295 -0.69930708
-4.3867087 -21.700453 -0.68577611
-3.3237305 -21.812016 -0.68343306
-2.8080761 -21.974394 -0.68620098
-1.7753124 -22.46686 -0.69808716
-1.2521679 -22.85281 -0.70893562
7.6037107 -8.30688 -0.34882799
16.313437 -8.2407923 -0.56612849
29.069775 6.1233945 -0.92020637
26.01704 6.1391392 -0.82801771
23.505419 6.148591 -0.7525872
21.382803 6.1480527 -0.68917358
19.612108 6.1547155 -0.63670439
17.875458 6.0870714 -0.58491337
16.794569 6.1749277 -0.5542652
14.601289 6.1831799 -0.49116087
12.852734 6.1897569 -0.44187868
12.037665 6.1592283 -0.41884565
8.3049021 6.2062998 -0.32114157
7.902041 6.2078147 -0.31126446
7.4220996 6.1259189 -0.29809588
7.0691309 6.1271544 -0.28977156
5.9095116 6.2153907 -0.26565474
5.6313963 6.2164354 -0.25981674
3.7567382 6.2234702 -0.2251718
3.5552831 6.224227 -0.22203201
2.9817188 6.226377 -0.21383804
2.2747266 6.2290258 -0.20540793
2.0791407 6.1499109 -0.20108443
1.9141113 6.1465878 -0.1994088
1.7528417 6.1471925 -0.19799979
1.457041 6.2360277 -0.19836333
1.2994043 6.2366185 -0.19732894
0.98855466 6.2377806 -0.19562729
0.83497071 6.2383556 -0.19495659
0.68234372 6.2389255 -0.19440407
0.53042966 6.2394943 -0.19396599
0.37918943 6.2400599 -0.19364281
-0.072832033 6.2417479 -0.19335182
-0.22348632 6.242312 -0.19347976
-0.37444335 6.2428761 -0.19372146
-0.52587891 6.2434411 -0.19407524
-0.83082032 6.2445798 -0.19513077
-0.98472655 6.2451539 -0.19583465
-1.7763281 6.2481079 -0.20120513
-1.9405761 6.2487192 -0.20267303
-2.1072948 6.2493405 -0.20428284
-2.276787 6.2499719 -0.20603874
-2.8047557 6.2519398 -0.21224883
-3.1309764 6.1645312 -0.21416625
-3.3207421 6.1652379 -0.21690924
-3.5155761 6.1659641 -0.21985602
-4.4140329 6.2530966 -0.23708564
-4.6445704 6.2539549 -0.24129577
-5.1319723 6.2557664 -0.25063461
-5.3903613 6.2567258 -0.25580832
-5.9414353 6.2587767 -0.26730919
-6.8715038 6.2622323 -0.28797546
-7.5782909 6.2648597 -0.30456558
-7.9635544 6.2662902 -0.31388256
-8.3014259 6.213901 -0.32119688
-8.6897268 6.1833029 -0.33035469
-10.910429 6.2753391 -0.3898682
-11.550547 6.2777171 -0.40720966
-12.250537 6.2803149 -0.42642212
-13.681973 6.2001038 -0.46529946
-14.816562 6.2881041 -0.49856758
-15.880468 6.2920532 -0.52910459
-24.03536 6.307445 -0.76971418
-26.766357 6.3382101 -0.85202628
-9.3905077 -8.0416374 -0.38295454
-19.936035 -21.74518 -0.91381764
-18.086905 -21.746721 -0.87614071
-17.218105 -21.748232 -0.85922176
-16.385849 -21.755297 -0.84363776
-12.606142 -21.767143 -0.77915365
-11.915302 -21.768633 -0.76869178
-11.242519 -21.770081 -0.75894636
-10.586094 -21.771494 -0.74989289
-9.9460449 -21.775637 -0.74153519
-6.3643746 -21.754429 -1.2134827
-5.7950683 -21.741074 -1.2045898
-5.2307129 -21.715485 -1.1958307
-4.6761718 -21.699394 -1.1883876
-3.6028223 -21.769585 -1.181334
-3.0805469 -21.877216 -1.1827945
-2.5657713 -22.063452 -1.1891705
-1.5317187 -22.647768 -1.2152619
2.2321973 -28.859806 -1.5496805
4.2867088 -28.449387 -1.5402853
4.9379783 -28.146097 -1.5298703
6.3424997 -28.110155 -1.5427623
7.0519724 -28.081911 -1.5500979
7.7668066 -28.046677 -1.5580419
8.4873629 -28.004309 -1.566609
9.2141018 -27.954691 -1.5758117
10.641211 -27.711718 -1.589223
20.514736 6.1508899 -1.1466018
18.868731 6.157114 -1.0625929
17.27705 6.1025901 -0.98096031
13.280674 6.1878538 -0.78439444
12.32208 6.107131 -0.7362709
11.118203 6.1954675 -0.68140793
10.517392 6.1977367 -0.65356106
9.9634762 6.1998301 -0.62825078
9.4505663 6.2017674 -0.60516685
8.5288477 6.2052464 -0.56467026
7.7209668 6.2082958 -0.53040987
7.2535253 6.1262732 -0.50830263
6.909863 6.1275668 -0.49443516
6.360527 6.2135181 -0.47603807
5.7771873 6.2157178 -0.45430869
5.2435837 6.2177281 -0.43544596
4.5187497 6.220459 -0.41161707
4.2940235 6.2213035 -0.40469995
3.8658788 6.2229137 -0.39220703
3.4624705 6.224431 -0.38132298
3.2688282 6.2251587 -0.37642699
3.0799804 6.2258692 -0.37186804
2.8955662 6.2265625 -0.36763054
2.7151756 6.2272387 -0.36369628
2.3652637 6.2285533 -0.35668984
2.1670313 6.1494493 -0.34906426
2.000576 6.1461353 -0.34603521
1.6778125 6.147346 -0.34114546
0.4593457 6.239635 -0.334952
0.15756835 6.2407627 -0.33421537
0.0070117186 6.2413254 -0.33413839
-0.29434571 6.2424498 -0.33457038
-1.0573828 6.2452979 -0.339109
-1.2131054 6.2458777 -0.3406308
-2.018496 6.248878 -0.35156348
-2.1865039 6.2495031 -0.35446239
-2.7090235 6.2514477 -0.3647539
-3.2194238 6.1647215 -0.37233153
-3.6117187 6.1710119 -0.38279963
-3.8638279 6.2509007 -0.39342266
-4.0759082 6.251688 -0.39954394
-4.5211816 6.2533398 -0.41311774
-4.7556348 6.254209 -0.42063308
-4.9989352 6.2551107 -0.42868003
-5.2518554 6.2560487 -0.43730044
-5.7903419 6.2580442 -0.45644802
-6.37958 6.2602258 -0.47851539
-7.3827734 6.2639389 -0.518345
-7.7560935 6.2653198 -0.53378886
-8.4571486 6.182229 -0.5608409
-8.905097 6.18578 -0.58048308
-9.5076857 6.2699022 -0.60972649
-10.028818 6.2718287 -0.63325799
-11.203652 6.2761707 -0.68750852
-11.870762 6.2786365 -0.71894222
-15.299697 6.2895641 -0.88560957
-17.704571 6.2984433 -1.0060405
-29.007822 4.3492885 -1.5703491
-28.63538 -6.1926413 -1.5684893
-20.452734 -21.743784 -1.5981518
-19.486855 -21.744751 -1.5632128
-17.674999 -21.747881 -1.500348
-15.209911 -21.757816 -1.421243
-13.699424 -21.761347 -1.3766562
-12.279111 -21.767347 -1.3379875
-10.284208 -21.774487 -1.2892201
-9.6498241 -21.776384 -1.2751766
-8.419795 -21.780058 -1.2501357
-7.8220701 -21.781845 -1.2390355
-7.234736 -21.784149 -1.2288896
-6.6561031 -21.785 -1.2195234
-6.0752048 -21.747646 -1.2088797
-5.5087008 -21.729101 -1.2001107
-4.9479294 -21.701635 -1.1916547
-4.3999414 -21.700529 -1.1854169
-3.3366504 -21.810678 -1.1812619
-2.3057811 -22.184883 -1.1941072
1.8868164 -28.863211 -1.5485481
3.2741601 -28.718376 -1.5474511
3.9561131 -28.561089 -1.5436691
4.6195798 -28.308771 -1.53561
5.9938965 -28.121561 -1.5393597
6.7008886 -28.096718 -1.5464001
7.4130173 -28.06496 -1.5540414
9.5843744 -27.926786 -1.5807147
10.979902 -27.582859 -1.5893997
11.735332 -27.529161 -1.602151
7.5827341 -8.2937307 -0.60162812
16.297598 -8.24473 -0.97782028
29.150146 6.1224937 -1.5946591
26.081844 6.1383557 -1.4344921
21.427919 6.1474352 -1.1934609
15.65746 6.1788697 -0.90116042
14.624189 6.1827745 -0.85002881
12.871201 6.1894007 -0.7646147
12.035459 6.1492066 -0.72357267
10.80789 6.1966405 -0.66697621
9.699111 6.2008286 -0.6163094
8.744853 6.2044311 -0.57403672
8.3146973 6.2060556 -0.55546594
7.9112692 6.2075782 -0.53836292
5.9162793 6.2151928 -0.45939043
5.3712206 6.2172484 -0.43986201
4.8695116 6.2191367 -0.42287117
4.6326365 6.2200279 -0.41521174
3.9691601 6.2225256 -0.39513534
3.7616308 6.2233067 -0.38930884
3.5600293 6.2240648 -0.38387194
3.3638475 6.224802 -0.37880179
2.8037791 6.2269068 -0.36560261
2.0830956 6.1497641 -0.34761253
1.9180175 6.1464438 -0.34470838
0.99228513 6.2376413 -0.33813992
0.83866209 6.238215 -0.33697593
0.68600583 6.2387853 -0.3360157
0.38285154 6.2399206 -0.33469194
0.23198241 6.2404847 -0.33432513
-0.069179684 6.2416086 -0.33417407
-0.37078124 6.2427354 -0.33480334
-0.5221777 6.2433019 -0.33541045
-0.67421871 6.2438693 -0.33621749
-1.1360253 6.2455921 -0.33985341
-1.2924902 6.2461743 -0.34148222
-1.4505566 6.2467637 -0.34332699
-2.4450879 6.2504649 -0.35932022
-2.6208789 6.2511182 -0.36288673
-2.8003125 6.2517858 -0.36674106
-3.3160057 6.1650805 -0.37477246
-4.1858106 6.2520957 -0.402805
-4.4084082 6.2529211 -0.40959227
-5.3838282 6.2565379 -0.44189617
-5.934248 6.2585764 -0.46173701
-6.53792 6.2608118 -0.484624
-7.2061815 6.2632861 -0.51114982
-7.5689645 6.2646275 -0.52600962
-7.9536815 6.2660499 -0.54208171
-8.3030567 6.2227087 -0.55549955
-10.308242 6.2728624 -0.64601874
-11.533798 6.27739 -0.70301372
-12.232285 6.2799706 -0.73613936
-13.000263 6.2828088 -0.77300888
-17.051727 6.2960339 -0.9731375
-18.421024 6.3010888 -1.0423013
-20.026836 6.3151135 -1.1242161
-21.874569 6.3219333 -1.2190266
-26.692978 6.3373861 -1.4687792
-28.702412 6.0871253 -1.5708133
-28.927246 4.6902356 -1.5689008
-28.565311 -6.5434742 -1.5689061
-28.415487 -7.2346354 -1.5698109
-19.960009 -21.745815 -1.5802994
-17.23912 -21.748634 -1.4857723
-16.405624 -21.755022 -1.4587418
-14.063671 -21.760494 -1.3871018
-13.333593 -21.765062 -1.3665062
-12.622851 -21.766602 -1.3470906
-11.93163 -21.768101 -1.3289824
-10.601611 -21.770977 -1.2964065
-9.3338966 -21.777328 -1.2684689
-8.719101 -21.779165 -1.255958
-7.5234962 -21.782736 -1.233761
-5.223906 -21.715151 -1.1957272
-4.6695313 -21.699419 -1.1883138
-3.0743163 -21.879469 -1.1828659
-1.5254102 -22.652466 -1.2154878
-0.45440429 -23.917763 -1.2807138
0.14116211 -27.549257 -1.4749212
0.80648434 -27.570129 -1.4766508
1.4733789 -27.583977 -1.4788666
3.6202831 -28.643135 -1.5456651
4.294785 -28.44655 -1.5402004
5.6464744 -28.13131 -1.5361007
7.0606151 -28.08152 -1.5501912
7.7755175 -28.046204 -1.5581423
8.4961615 -28.003757 -1.5667164
7.5805564 -8.0908079 -0.59357494
27.525166 6.1328964 -1.509747
24.744717 6.143414 -1.3649734
20.493212 6.1509705 -1.1454982
18.850145 6.1571836 -1.0616485
17.277069 6.1082492 -0.98106384
13.270586 6.1878915 -0.78390592
12.313076 6.1071644 -0.73584151
11.110566 6.1954966 -0.68105191
9.4445505 6.2017908 -0.60489774
8.1073828 6.2068381 -0.54663748
6.6701169 6.2123508 -0.48798862
6.3568063 6.2135315 -0.47589657
6.0585251 6.2146568 -0.46465293
5.773818 6.2157297 -0.45418677
5.2404881 6.2177405 -0.43533871
4.9897852 6.2186837 -0.42685199
4.291328 6.2213135 -0.40461847
3.8633592 6.2229233 -0.39213669
3.4600976 6.2244406 -0.38126132
3.2665038 6.2251673 -0.37636963
3.0777245 6.2258778 -0.37181512
2.8933594 6.2265697 -0.36758009
2.7130077 6.2272472 -0.36365148
2.5363965 6.2279115 -0.36001131
2.3631835 6.2285619 -0.35664994
1.9985937 6.1461425 -0.34600243
1.6758984 6.1473522 -0.34111914
1.3808594 6.2361851 -0.3419508
1.2239941 6.2367735 -0.34026465
1.068584 6.2373548 -0.33879101
0.9143945 6.2379322 -0.33752632
0.60906249 6.2390747 -0.33560514
0.30646485 6.2402062 -0.33448127
0.15574218 6.2407703 -0.33421209
0.0051855468 6.2413316 -0.33413908
-0.44732422 6.2430224 -0.33508548
-0.59901369 6.2435875 -0.33579463
-0.90480465 6.244729 -0.33781195
-1.2150097 6.2458849 -0.34065101
-1.6920898 6.2476635 -0.34652776
-1.8551172 6.2482691 -0.34894252
-2.0205274 6.2488852 -0.35159698
-2.3595018 6.2501464 -0.35766074
-2.5336034 6.2507944 -0.36108977
-2.7112012 6.2514548 -0.36480105
-3.0580468 6.2120667 -0.37068552
-3.2217283 6.1647286 -0.37238905
-3.4139061 6.1654429 -0.37729961
-3.6141503 6.1710205 -0.38286632
-3.8663476 6.2509103 -0.39349353
-4.7585349 6.25422 -0.42072713
-5.5186229 6.2570362 -0.44665575
-5.7937498 6.2580566 -0.45657322
-6.0816016 6.2591224 -0.4672195
-6.3833008 6.2602406 -0.47865868
-6.7003903 6.2614136 -0.4909645
-7.3871579 6.2639537 -0.51852399
-9.5137987 6.2699256 -0.60999918
-10.599267 6.2739377 -0.65940917
-11.879238 6.278667 -0.71934468
-12.611524 6.2813721 -0.75429106
-13.419111 6.2843552 -0.79329467
-14.122988 6.2031651 -0.82581371
-16.440107 6.2937741 -0.94244361
-18.958027 6.2273788 -1.0683106
-20.924501 6.3184276 -1.1701928
-28.76495 5.7343922 -1.5702896
-28.491318 -6.8936157 -1.5693508
-28.334032 -7.5833554 -1.5703088
-20.440781 -21.743832 -1.5977126
-19.475449 -21.74477 -1.5628076
-18.551416 -21.746367 -1.5303118
-17.664442 -21.7479 -1.4999896
-15.993603 -21.755985 -1.44561
-15.20041 -21.757837 -1.4209496
-14.433476 -21.75963 -1.3979232
-13.690547 -21.761366 -1.3764
-12.971396 -21.76585 -1.3565114
-10.276455 -21.774511 -1.2890453
-9.0212402 -21.778261 -1.2620115
-8.4124994 -21.780081 -1.2499958
-7.8149023 -21.781864 -1.238912
-6.6491208 -21.785009 -1.2194164
-6.0683203 -21.747484 -1.2087682
-5.5018554 -21.728764 -1.2000026
-3.856328 -21.73045 -1.181553
-3.3302734 -21.811663 -1.1812621
-2.8144727 -21.973476 -1.1860005
-2.2995899 -22.188198 -1.19425
-1.781875 -22.465385 -1.2065045
-1.2587402 -22.850761 -1.2252132
-0.72333986 -23.394068 -1.253045
1.1437891 -27.577761 -1.4776989
2.5830371 -28.722036 -1.5438957
3.9643848 -28.559011 -1.5436249
5.3001661 -28.139395 -1.5329854
6.0024414 -28.121323 -1.5394397
6.7095313 -28.096369 -1.54649
7.421699 -28.064531 -1.5541379
8.1394529 -28.025639 -1.5624014
8.8631439 -27.979548 -1.5712947
10.313818 -27.821035 -1.5885094
11.745195 -27.529825 -1.6023922
7.5826268 -8.2887564 -0.6014263
16.304237 -8.2421131 -0.97807258
23.53124 6.148005 -1.3020806
19.630615 6.1542335 -1.101401
17.89127 6.0866342 -1.0117537
16.808701 6.1745176 -0.9586798
12.86167 6.1894369 -0.7641567
10.800605 6.1966672 -0.66663808
10.224893 6.198844 -0.64014894
9.1992483 6.2027159 -0.59399372
8.3096581 6.2060742 -0.55525076
7.9065428 6.2075949 -0.53816533
6.7934961 6.1777596 -0.49159554
6.204072 6.2141089 -0.47010449
5.9128122 6.2152076 -0.45926279
5.634531 6.2162547 -0.44916475
4.4013376 6.2208996 -0.40797362
3.9666014 6.2225351 -0.39506203
3.75916 6.2233167 -0.38924047
3.3614941 6.224812 -0.37874249
3.1704004 6.2255297 -0.37402317
2.9838965 6.2262301 -0.36963388
2.2767382 6.2288852 -0.35505083
2.0810938 6.1497717 -0.34757736
1.9160448 6.1464515 -0.34467795
1.7547461 6.1470556 -0.34223762
1.5956151 6.1476536 -0.3400299
1.4589355 6.2358909 -0.34286287
1.3012793 6.2364831 -0.34106991
1.1451855 6.2370677 -0.33949295
0.68416011 6.2387924 -0.33600509
0.23015624 6.2404919 -0.33432147
-0.070996091 6.2416162 -0.33417568
-0.22166991 6.2421799 -0.33439472
-0.37260741 6.242743 -0.33480915
-0.67606443 6.2438755 -0.33622816
-0.98281246 6.2450194 -0.33845055
-1.2943847 6.2461801 -0.34150404
-1.4524804 6.2467713 -0.3433511
-1.612373 6.2473645 -0.34542182
-2.2746875 6.2498312 -0.35606655
-2.4471972 6.2504749 -0.35936132
-2.6230371 6.2511268 -0.36293173
-2.9859471 6.2524767 -0.37094769
-3.128623 6.1643834 -0.37009224
-3.3183496 6.1650891 -0.37483105
-3.5131054 6.1658115 -0.37991878
-3.7639062 6.2505307 -0.39061984
-5.1287694 6.2555933 -0.43307224
-5.6563377 6.2575464 -0.45158756
-7.5734959 6.2646446 -0.52619648
-8.3030663 6.2189393 -0.55538398
-8.684082 6.1830673 -0.57072324
-10.315068 6.2728868 -0.64633268
-11.541914 6.2774205 -0.70339674
-12.241133 6.2800035 -0.73656201
-13.670537 6.1997595 -0.80362296
-20.047529 6.3151917 -1.1252741
-21.898808 6.3220239 -1.220274
-24.039297 6.316041 -1.3306648
-28.928436 4.6816955 -1.5688903
-28.413631 -7.2430353 -1.5698221
-28.248827 -7.9312811 -1.5708337
-9.3803806 -8.0282373 -0.66101032
-19.948359 -21.745863 -1.579851
-19.00289 -21.745586 -1.5460745
-17.228788 -21.748652 -1.485429
-16.395693 -21.755043 -1.4584271
-15.588769 -21.756931 -1.4329236
-14.054648 -21.760517 -1.3868371
-13.324883 -21.765083 -1.3662621
-12.614316 -21.766621 -1.3468618
-11.923359 -21.768118 -1.3287708
-10.59374 -21.77099 -1.2962124
-9.9537106 -21.775478 -1.2818121
-9.3263474 -21.777351 -1.2683102
-8.7117376 -21.779188 -1.255812
-8.1087494 -21.780987 -1.244283
-7.516367 -21.782757 -1.2336524
-6.9337692 -21.784594 -1.2239312
-4.6629004 -21.699448 -1.1882403
-3.0681055 -21.881718 -1.1829414
-0.7389062 -8.0916042 -0.43500111
-0.99007809 -23.105209 -1.2381196
-0.44767576 -23.932516 -1.2814977
0.14921875 -27.549547 -1.4749402
0.81460935 -27.570349 -1.4766738
2.2490821 -28.858791 -1.5496958
2.9414744 -28.767277 -1.5481405
5.6549606 -28.131063 -1.536181
6.3596582 -28.109541 -1.5429342
8.5049801 -28.003201 -1.5668244
9.2318649 -27.953413 -1.5760422
9.9653416 -27.896236 -1.5859097
10.657499 -27.705708 -1.5892313
11.34788 -27.50181 -1.5927792
27.487724 6.133038 -1.5077918
24.714325 6.1435289 -1.363399
22.393808 6.1437817 -1.2431979
17.27709 6.1139698 -0.98116881
16.201191 6.1768136 -0.92826325
13.260576 6.1879296 -0.78342134
11.756249 6.1930566 -0.71138149
10.503428 6.1977892 -0.65291744
9.9505758 6.1998792 -0.62766719
7.7117672 6.2083302 -0.53002805
6.9017577 6.1275988 -0.49411148
6.6662011 6.2123642 -0.48783711
6.3531055 6.2135458 -0.4757545
5.7704492 6.2157421 -0.45406395
5.4982615 6.2167673 -0.44431919
5.2373729 6.2177525 -0.43523276
4.9868064 6.2186952 -0.42675272
4.7456932 6.2196031 -0.41883659
4.0714064 6.2221408 -0.39808899
3.2641895 6.2251768 -0.37631232
2.7108495 6.2272558 -0.36360472
2.3611035 6.2285681 -0.35661015
1.8341405 6.1467576 -0.34341374
1.6739551 6.1473594 -0.34109068
1.5374511 6.2355981 -0.34382933
1.0666991 6.2373605 -0.33877429
0.91253906 6.2379394 -0.33751136
0.15391602 6.2407761 -0.33421043
0.0033691404 6.2413392 -0.33413917
-0.29799804 6.2424631 -0.33457977
-0.60085934 6.2435946 -0.3358047
-0.75332028 6.2441649 -0.33671468
-1.533164 6.2470713 -0.34437087
-1.6940527 6.2476707 -0.34655598
-2.0225487 6.2488937 -0.35163137
-2.190625 6.2495189 -0.35453618
-2.8948243 6.2521372 -0.36885509
-3.0580664 6.2075267 -0.37046596
-3.8688769 6.2509189 -0.39356503
-4.0811424 6.2517076 -0.39969802
-4.3002343 6.2525206 -0.40626487
-5.2581348 6.2560716 -0.43751749
-5.5218749 6.2570481 -0.44677204
-5.7971873 6.2580686 -0.45669833
-6.085156 6.2591357 -0.46735418
-6.3870702 6.2602539 -0.47880301
-7.0385838 6.2626657 -0.50438923
-7.3915915 6.2639709 -0.51870632
-7.7654295 6.2653537 -0.53417856
-8.467617 6.1822681 -0.5612964
-9.5198631 6.2699475 -0.61027187
-11.21916 6.276228 -0.6882351
-11.887705 6.2786984 -0.71974522
-12.62082 6.2814059 -0.75473785
-13.429472 6.2843933 -0.79379654
-15.32541 6.2896595 -0.88688576
-16.454638 6.2938294 -0.94317162
-20.946865 6.3185096 -1.1713394
-22.960644 6.325942 -1.2750393
-25.357391 6.3324594 -1.3992492
-28.638418 6.4222069 -1.5712944
-28.766367 5.7259483 -1.5702777
-29.09201 4.3444724 -1.5747687
-28.63204 -6.2094879 -1.5685092
-28.48954 -6.9019752 -1.5693616
-28.332088 -7.5917015 -1.5703207
-27.972744 -8.9618349 -1.5725561
-20.428886 -21.743881 -1.597283
-19.463945 -21.744789 -1.5623968
-16.801395 -21.749393 -1.471354
-15.983749 -21.756008 -1.445298
-13.681728 -21.761387 -1.3761641
-12.962744 -21.765869 -1.3562745
-10.916083 -21.770294 -1.3038338
-10.268633 -21.774536 -1.2888669
-7.807744 -21.781887 -1.2387893
-7.2205563 -21.784172 -1.2286536
-5.4949903 -21.728432 -1.1998947
-3.8499119 -21.73144 -1.1815511
-2.8082519 -21.975729 -1.1860807
-2.2934277 -22.191498 -1.1943921
-1.2523144 -22.855541 -1.2254533
-0.7167871 -23.401167 -1.2534136
0.485791 -27.56101 -1.4757625
3.2908494 -28.715891 -1.5474191
4.6354394 -28.30143 -1.5353578
6.718164 -28.096045 -1.5465777
9.6021776 -27.925425 -1.5809522
11.75501 -27.530514 -1.6026295
7.5825195 -8.2837429 -0.60122472
16.310879 -8.2394943 -0.9783271
24.608408 -8.2380686 -1.3893212
26.014793 6.1386094 -1.431004
21.38126 6.1476111 -1.1910614
17.874346 6.0866981 -1.0108999
14.600536 6.1828637 -0.84886539
12.852139 6.1894736 -0.76369643
12.035488 6.1581178 -0.72378844
10.793349 6.1966953 -0.66630179
9.6866302 6.2008753 -0.61574668
9.1934958 6.2027378 -0.59373707
8.7341213 6.2044725 -0.57356858
7.9017773 6.2076135 -0.53796494
7.421875 6.1257272 -0.51520497
6.200459 6.2141223 -0.4699696
5.6312304 6.2162671 -0.44904736
5.1093259 6.2182345 -0.43086776
4.8636618 6.2191586 -0.42267948
4.6269822 6.2200499 -0.41503191
4.3986034 6.2209105 -0.40788952
4.1778417 6.2217407 -0.4012197
2.4462206 6.2282495 -0.35823539
2.2746778 6.2288928 -0.35501239
2.0790918 6.1497803 -0.34754413
1.9140625 6.1464586 -0.34464639
1.7528027 6.1470642 -0.34221092
1.5936913 6.1476612 -0.34000373
1.4570019 6.2358994 -0.34283999
1.2993847 6.2364902 -0.34105036
1.143291 6.2370749 -0.33947417
0.53042966 6.2393689 -0.33523861
0.37917969 6.2399354 -0.33468014
-0.072832033 6.241622 -0.33417705
-0.22347656 6.2421861 -0.33439928
-0.37443358 6.2427502 -0.33481494
-0.98469722 6.2450266 -0.33846724
-1.1397949 6.2456055 -0.33989069
-1.2963085 6.2461877 -0.34152481
-1.4544238 6.2467771 -0.34337467
-2.4493358 6.2504821 -0.35940367
-2.6251953 6.2511353 -0.36297745
-3.7664158 6.2505393 -0.39068905
-3.9754589 6.2513146 -0.396617
-4.4139256 6.2529416 -0.40976265
-5.1318455 6.2556043 -0.43317875
-5.3902149 6.2565613 -0.4421204
-5.9412789 6.2586021 -0.4619965
-6.2361231 6.2596946 -0.47304374
-6.5455761 6.2608409 -0.48492178
-7.2147555 6.2633176 -0.51149762
-7.5780563 6.2646604 -0.52638668
-8.3030853 6.2151413 -0.5552572
-9.77915 6.2709069 -0.62194073
-12.25 6.2800364 -0.73698562
-13.019863 6.2828808 -0.7739563
-14.815801 6.2877784 -0.86166853
-17.082714 6.2961473 -0.97469455
-28.573534 6.766108 -1.5720419
-28.825048 5.3726597 -1.5697812
-28.929638 4.673296 -1.56888
-28.561758 -6.5603046 -1.5689274
-28.24667 -7.9396348 -1.570847
-28.067039 -8.6246471 -1.5719644
-9.3770409 -8.0301094 -0.6609391
-17.218466 -21.748671 -1.4850848
-16.385664 -21.755068 -1.4581039
-14.045595 -21.760536 -1.386571
-11.915039 -21.768135 -1.3285576
-11.242275 -21.769588 -1.3117138
-7.3621287 -21.295319 -1.7158782
-6.8603907 -21.510597 -1.7193866
-6.352695 -21.714563 -1.7229397
-5.7950683 -21.741108 -1.7134559
-5.2306933 -21.715424 -1.7009923
-4.1316404 -21.701763 -1.6823366
-3.6029296 -21.770229 -1.6804193
-3.0807323 -21.878548 -1.6825529
-0.74375975 -8.0924883 -0.61886233
-0.99647456 -22.941172 -1.7486844
-0.4412207 -22.871626 -1.7420639
0.65807617 -22.723721 -1.7312025
1.8471972 -23.882368 -1.8241426
2.4269433 -23.873909 -1.8274395
3.0094237 -23.86639 -1.8318866
3.593662 -23.849848 -1.8367373
5.3577538 -23.745687 -1.8537614
5.9497948 -23.692802 -1.8602972
7.1400876 -23.558947 -1.8746694
7.7383785 -23.47748 -1.8824929
8.3384371 -23.384962 -1.8906568
8.9405365 -23.282858 -1.8992865
10.153056 -23.052124 -1.9182135
10.76165 -22.918886 -1.928171
11.372617 -22.775507 -1.9386264
11.985829 -22.621443 -1.9495604
12.600137 -22.454426 -1.9607943
13.838564 -22.092558 -1.9852197
14.987206 -21.542456 -1.9984775
15.539102 -21.224857 -2.0032117
16.084335 -20.893093 -2.0079362
16.62248 -20.547184 -2.0126479
17.153135 -20.187311 -2.0173433
18.914883 -19.24758 -2.0550585
19.407383 -18.818586 -2.0586481
20.821142 -17.45347 -2.0689831
21.706581 -16.480703 -2.0754828
22.542763 -15.460567 -2.0816441
23.326914 -14.395554 -2.0874469
23.698643 -13.847051 -2.0902076
24.399658 -12.719864 -2.0954344
24.728329 -12.141924 -2.0978968
25.042099 -11.554969 -2.1002555
25.340693 -10.959416 -2.1025083
23.595419 -9.5359011 -1.9380544
23.841553 -8.9727087 -1.9399279
24.072998 -8.4027653 -1.941699
24.490889 -7.2441769 -1.9449258
27.151396 -5.9357438 -2.1164916
27.436064 -4.6245861 -2.1188087
27.552294 -3.9633746 -2.1197836
27.650967 -3.2990389 -2.1206348
27.840752 -1.292406 -2.122438
27.878193 0.051663816 -2.1230097
27.870087 0.72404355 -2.1231055
27.844072 1.3959777 -2.1230743
27.800283 2.0669615 -2.1229167
27.738642 2.7364819 -2.1226323
27.65917 3.4040196 -2.122221
25.152958 4.96313 -1.9524032
25.015184 5.5659323 -1.9515637
22.442862 6.1431284 -1.7719604
16.228516 6.1763597 -1.3223267
14.155048 6.184238 -1.1763346
13.280058 6.187562 -1.1156996
9.4502239 6.2015405 -0.86078221
8.1120014 6.2066159 -0.77782738
7.2533102 6.1260815 -0.72300565
6.909658 6.1273837 -0.7032814
6.3603516 6.2133408 -0.67711514
5.50457 6.216578 -0.63232523
5.2434473 6.2175646 -0.61937755
4.7513084 6.2194238 -0.59601849
4.5186329 6.2203026 -0.58548564
4.0764942 6.2219739 -0.56645864
3.8658006 6.2227674 -0.55787712
3.6612597 6.2235389 -0.54986799
3.4623828 6.224288 -0.54239571
2.8954883 6.2264242 -0.52291936
2.715127 6.2271032 -0.51732522
2.3652148 6.2284203 -0.507357
2.1669824 6.1493187 -0.49651256
1.8380176 6.146616 -0.4885585
1.6777734 6.1472168 -0.48524866
1.3827538 6.2360497 -0.48642403
1.2258691 6.2366366 -0.48402262
1.0704297 6.2372203 -0.48192409
0.91625977 6.2377977 -0.48012099
0.45932615 6.2395082 -0.47643897
-0.14356445 6.2417626 -0.47544977
-0.7495898 6.2440248 -0.4789108
-0.90291989 6.2445946 -0.4804858
-1.0573535 6.2451706 -0.48235175
-1.2130859 6.2457495 -0.48451632
-1.5292382 6.2469263 -0.48976424
-1.6900878 6.2475243 -0.49286515
-1.8530859 6.2481322 -0.49629471
-2.3573534 6.2500048 -0.50868267
-2.5314355 6.2506518 -0.51355654
-2.8903124 6.2519813 -0.52451909
-3.0591404 6.2188768 -0.52777785
-3.6116405 6.1708689 -0.5444954
-3.8637207 6.2507529 -0.55960518
-4.0758104 6.2515368 -0.5683139
-4.2947264 6.2523475 -0.57763702
-4.5210643 6.2531848 -0.58762079
-5.2517381 6.2558846 -0.62201679
-5.5151954 6.2568555 -0.63515705
-6.0778418 6.2589331 -0.66438186
-7.7558398 6.2651181 -0.75925636
-8.1522846 6.2665782 -0.78304154
-8.9047852 6.1855612 -0.82567227
-9.5073528 6.2696714 -0.86726636
-10.028427 6.2715902 -0.90073574
-11.203203 6.2759104 -0.97789973
-12.60168 6.2810521 -1.0722507
-14.110898 6.2028098 -1.1738328
-15.298886 6.2892294 -1.2596577
-16.424667 6.293364 -1.3394589
-18.93791 6.2269044 -1.5181381
-20.478018 6.1901073 -1.6291496
-21.589169 4.3104615 -1.6765279
-22.82375 3.9871092 -1.7644193
-22.904276 3.434149 -1.7637225
-23.122421 0.65278256 -1.7615417
-23.12915 0.094896846 -1.7613668
-23.123564 -0.46291319 -1.7612792
-23.105654 -1.020454 -1.7612791
-22.911211 -3.2431123 -1.7621511
-22.740557 -4.3465533 -1.7631096
-22.636953 -4.8954291 -1.763719
-22.521172 -5.4420934 -1.7644153
-22.393339 -5.9863529 -1.7651974
-21.028105 -6.1684813 -1.6688292
-20.200947 -7.0002093 -1.628107
-20.038965 -7.4901414 -1.629144
-19.682323 -8.4597082 -1.6314515
-19.282373 -9.4140844 -1.6340698
-19.93247 -12.238897 -1.7812202
-19.652147 -12.729426 -1.7830958
-19.360674 -13.214182 -1.7850518
-19.058075 -13.692902 -1.7870884
-9.5103216 -7.9356594 -0.94325286
-17.38204 -15.987271 -1.7984488
-15.852744 -17.689596 -1.8089038
-14.601436 -18.878809 -1.8175049
-14.165332 -19.257229 -1.8205105
-13.719951 -19.626337 -1.8235842
-12.664296 -20.117165 -1.8102689
-12.001143 -20.124449 -1.784353
-11.356211 -20.131348 -1.7601619
-10.728066 -20.137886 -1.7375982
-10.115361 -20.144077 -1.7165745
-9.0653028 -20.457365 -1.7039934
-6.0752048 -21.747681 -1.7195541
-4.9479198 -21.701576 -1.695052
-4.3999705 -21.700659 -1.6861954
-3.3367381 -21.811327 -1.6803198
-2.8208983 -21.972553 -1.6870075
-1.2653711 -22.84868 -1.7426614
-0.71529293 -22.915972 -1.745967
0.38793945 -22.767704 -1.7340783
1.5622754 -23.898413 -1.8238186
2.1400487 -23.874311 -1.8253877
2.7215331 -23.871225 -1.8296412
3.3048339 -23.859131 -1.8342913
4.4769921 -23.807613 -1.8447964
5.6570802 -23.720078 -1.8570154
7.4426465 -23.519054 -1.8785855
9.2465525 -23.228441 -1.9039123
13.531562 -22.185688 -1.9789617
14.148926 -21.986872 -1.9910951
14.712226 -21.694038 -1.9961361
15.267344 -21.383554 -2.0008743
16.357578 -20.71979 -2.0103226
17.418692 -19.999872 -2.0197122
18.657314 -19.443523 -2.052099
20.595284 -17.686104 -2.0673287
21.049696 -17.211897 -2.0706587
21.492382 -16.725433 -2.0739083
21.922958 -16.226982 -2.0770748
23.516748 -14.119247 -2.0888555
24.231884 -13.001863 -2.0941811
16.295029 -8.243434 -1.3906677
23.721846 -9.251749 -1.9390157
24.393311 -7.5324926 -1.9441683
27.070517 -6.2568994 -2.115845
27.372215 -4.9498887 -2.1182821
27.497061 -4.2904029 -2.1193175
27.604424 -3.6275291 -2.1202297
27.694149 -2.9617951 -2.1210179
27.820478 -1.6238269 -2.1222186
27.85704 -0.95256591 -2.1226308
27.875633 -0.28045592 -2.1229157
27.876318 0.39195067 -2.1230741
26.18284 4.1926365 -2.0192983
24.939344 5.8694215 -1.9510951
21.426376 6.1469932 -1.6975012
19.64917 6.1537476 -1.5680081
17.907177 6.0861912 -1.4402914
15.656621 6.1785326 -1.2817767
12.870605 6.189116 -1.0875672
12.033291 6.1480956 -1.0290514
11.433857 6.1940136 -0.99027652
10.231201 6.1985779 -0.91097242
8.7445507 6.2042174 -0.81650358
8.314414 6.2058473 -0.7900908
6.7920017 6.1727881 -0.69892716
6.5132227 6.2127624 -0.68546158
6.2075095 6.2139196 -0.66887051
5.9161034 6.2150216 -0.65343702
5.6376657 6.216074 -0.63906115
5.115283 6.218049 -0.61315995
3.7615428 6.2231603 -0.55375427
3.5599413 6.2239194 -0.54602158
3.1726074 6.2253809 -0.53209156
2.9860547 6.2260838 -0.52584219
2.8037207 6.2267699 -0.52003497
2.6252735 6.2274399 -0.51465279
2.4503808 6.2280979 -0.50967324
2.2787499 6.228745 -0.5050807
1.1470312 6.2369323 -0.48292324
0.83864254 6.2380881 -0.47931868
0.53411132 6.2392282 -0.47686946
0.23199219 6.2403598 -0.47554535
-0.069179684 6.2414856 -0.47533241
-0.37076172 6.2426095 -0.47622645
-0.67419922 6.2437415 -0.47823921
-0.82706052 6.2443113 -0.47967181
-0.98092771 6.244885 -0.48139313
-1.2924511 6.2460461 -0.48572719
-1.7722949 6.2478309 -0.49455938
-2.2725585 6.2496886 -0.50641668
-2.445039 6.2503295 -0.51110005
-2.983623 6.2523279 -0.52756494
-3.1262889 6.1642356 -0.52634019
-3.3159277 6.1649389 -0.53307676
-3.7613182 6.2503734 -0.55551994
-3.9702344 6.2511473 -0.56393832
-4.4083009 6.2527671 -0.5826056
-4.6386619 6.2536192 -0.59293878
-5.1255469 6.2554173 -0.61585468
-5.3836813 6.2563705 -0.62855256
-6.5377145 6.2606297 -0.68932748
-6.8629489 6.2618275 -0.70748365
-7.5687304 6.2644296 -0.74819154
-7.9534082 6.2658458 -0.77105355
-10.307841 6.2726169 -0.91888791
-12.231729 6.2796912 -1.0470657
-14.790751 6.2873621 -1.2238995
-15.851347 6.2912598 -1.2987249
-20.669844 5.4371777 -1.6276177
-20.783241 4.934288 -1.6266992
-20.885361 4.4293199 -1.62586
-23.05205 2.0426385 -1.7623575
-23.11455 0.9282788 -1.7616602
-23.127382 0.37048706 -1.7614422
-23.116024 -0.74512511 -1.7612683
-23.091913 -1.3024433 -1.7613122
-22.945858 -2.969645 -1.7619678
-22.872684 -3.5229633 -1.7623605
-22.787207 -4.0746927 -1.7628409
-22.689638 -4.6245627 -1.7634071
-22.579882 -5.1723862 -1.7640604
-20.422441 -6.262507 -1.6267048
-20.120321 -7.2485528 -1.6286221
-19.952862 -7.736824 -1.6296982
-19.585196 -8.7027159 -1.6320846
-19.385166 -9.1798897 -1.6333942
-20.822598 -10.482712 -1.7753094
-20.330175 -11.495723 -1.7785697
-20.066767 -11.994521 -1.7803236
-18.581553 -14.401882 -1.7903055
-18.251562 -14.86438 -1.7925396
-17.559483 -15.768489 -1.7972406
-17.197626 -16.209553 -1.7997056
-15.647812 -17.895685 -1.8103098
-15.23543 -18.296476 -1.8131423
-14.813408 -18.688475 -1.8160452
-13.490947 -19.809526 -1.8251662
-12.999111 -20.113413 -1.823742
-11.672559 -20.127987 -1.7719015
-9.2994337 -20.328447 -1.7023627
-8.8236036 -20.586809 -1.7056776
-7.3560739 -21.298021 -1.7159206
-5.2238965 -21.715092 -1.7008435
-4.1250587 -21.701786 -1.6822425
-3.5965428 -21.771215 -1.6804079
-3.0745118 -21.880795 -1.6826551
-2.5596483 -22.06707 -1.6917388
-0.43450195 -22.871191 -1.7420226
0.11682617 -22.79751 -1.7361196
0.66469723 -22.722891 -1.7311521
1.8541992 -23.881914 -1.8241534
2.4341407 -23.873896 -1.8274912
4.1867967 -23.823755 -1.8420535
4.7748632 -23.788858 -1.8477252
5.9569921 -23.692104 -1.8603791
6.5511913 -23.629789 -1.8673519
7.1473436 -23.55802 -1.8747619
10.160439 -23.050537 -1.9183326
11.9933 -22.619524 -1.9496967
13.224882 -22.275547 -1.9727833
14.435771 -21.842066 -1.9937936
14.993906 -21.538696 -1.9985347
16.090899 -20.888985 -2.0079935
16.628954 -20.542925 -2.0127048
17.682207 -19.808926 -2.0220757
19.41328 -18.813337 -2.058691
20.366631 -17.915691 -2.0656552
20.826679 -17.447716 -2.0690236
21.275263 -16.967245 -2.0723138
22.136065 -15.970233 -2.0786443
22.547724 -15.454225 -2.0816808
23.703094 -13.840307 -2.0902405
24.060516 -13.281545 -2.0929022
24.40374 -12.712913 -2.0954654
25.344189 -10.952106 -2.1025345
23.844482 -8.9658613 -1.9399502
24.075712 -8.3957806 -1.9417198
27.65206 -3.2910068 -2.1206443
27.732841 -2.6239803 -2.1213691
27.795889 -1.9549361 -2.1219687
27.841181 -1.2842853 -2.122443
27.868622 -0.6125018 -2.1227906
27.878252 0.059816893 -2.1230121
27.869892 0.73217648 -2.123106
27.843681 1.4041492 -2.1230736
27.799677 2.0751042 -2.1229143
27.737783 2.7445874 -2.1226282
25.273329 4.3640451 -1.9531199
25.151396 4.9704676 -1.9523937
25.013369 5.5731969 -1.9515525
24.859501 6.1718626 -1.9505978
22.417421 6.1432252 -1.7700952
14.143906 6.1842794 -1.175557
13.26997 6.1876001 -1.1150053
11.110117 6.1952429 -0.96871489
10.50998 6.1975193 -0.9291538
9.9566402 6.1996188 -0.89319783
8.9678802 6.2033715 -0.83039564
8.5233393 6.2050562 -0.80286068
7.7161422 6.2081151 -0.75417912
7.2490134 6.1260972 -0.72275788
6.9056053 6.1273999 -0.70305294
6.0583591 6.2144837 -0.66092271
5.7736425 6.21556 -0.64603329
5.5013475 6.2165895 -0.63216341
4.9896579 6.218524 -0.60715562
4.7484274 6.2194357 -0.59588569
4.5158691 6.2203135 -0.58536214
4.2912302 6.2211609 -0.57553041
4.0738964 6.2219834 -0.56635076
3.0776563 6.2257385 -0.52887243
2.893291 6.2264328 -0.52284956
2.7129588 6.2271104 -0.51725984
1.6758496 6.1472239 -0.48520967
0.91438472 6.2378049 -0.48010048
0.60905272 6.2389488 -0.47736907
0.30646485 6.2400794 -0.47577035
0.0051855468 6.2412057 -0.47528276
-0.29617187 6.2423315 -0.47590315
-0.59900391 6.2434616 -0.47763744
-1.0592383 6.2451768 -0.48237678
-1.3722363 6.2463427 -0.48701686
-1.5311913 6.2469335 -0.48980093
-1.6920507 6.2475314 -0.49290496
-1.8550781 6.2481384 -0.49633858
-2.0204785 6.2487521 -0.50011444
-2.359453 6.2500119 -0.5087384
-2.5335643 6.250659 -0.51361746
-3.2216504 6.1645885 -0.52968878
-3.4138184 6.1653013 -0.53667283
-3.6140721 6.1708789 -0.54458874
-3.8662694 6.2507615 -0.55970806
-5.0017967 6.2549596 -0.60989827
-5.2548633 6.2558961 -0.62217057
-5.5184665 6.2568688 -0.63532323
-5.7935839 6.2578831 -0.64942962
-6.0814257 6.2589464 -0.66457319
-6.3831248 6.2600584 -0.68084288
-6.7001953 6.261229 -0.69834745
-7.0341892 6.2624583 -0.71720314
-7.3869238 6.2637596 -0.73754644
-7.7605076 6.2651367 -0.75953406
-8.1572657 6.2665963 -0.78334141
-8.46208 6.1820359 -0.79805356
-9.5134468 6.2696948 -0.86765653
-10.03499 6.2716136 -0.90116072
-12.610947 6.2810864 -1.0728841
-14.122275 6.2028527 -1.1746168
-16.439199 6.2934179 -1.3404928
-18.956778 6.2269735 -1.5195007
-20.479677 6.1840711 -1.6291363
-20.609735 5.6847348 -1.6281004
-20.836367 4.6789746 -1.6262643
-21.620214 4.3100672 -1.6788421
-22.905176 3.4274035 -1.7637146
-22.973232 2.8730457 -1.7631058
-23.072489 1.7608563 -1.7621483
-23.103701 1.2037164 -1.7617999
-23.123417 -0.46965879 -1.7612787
-23.075029 -1.5842657 -1.7613676
