# .PCD v0.7 - Point Cloud Data file format
VERSION 0.7
FIELDS x y z
SIZE 4 4 4
TYPE F F F
COUNT 1 1 1
WIDTH 1498
HEIGHT 1
VIEWPOINT 0 0 0 1 0 0 0
POINTS 1498
DATA ascii
-1.0491112 -6.2206049 -1.8050762
-0.74294919 -6.2236547 -1.7934566
-0.59116209 -6.2249179 -1.7891878
-0.13878906 -6.2276945 -1.7824103
0.16188475 -6.2287149 -1.7828625
0.46334961 -6.2290778 -1.7872884
0.61482418 -6.2290106 -1.7910055
0.91999996 -6.2283764 -1.8015006
1.0740527 -6.2278051 -1.8083074
1.2293555 -6.2270617 -1.8161774
1.5443847 -6.2250433 -1.8352069
1.7044921 -6.2237611 -1.846419
1.8666112 -6.22229 -1.8588085
2.1977832 -6.218761 -1.8872671
2.3673143 -6.2166901 -1.9034252
2.5397754 -6.2144041 -1.9209366
2.7154882 -6.2118964 -1.9398562
3.1684864 -6.0196409 -1.9464679
3.3145995 -5.9446411 -1.9475193
3.7419238 -5.6983032 -1.9506005
3.8802342 -5.6092286 -1.9516
4.0164843 -5.5167437 -1.9525856
4.1505079 -5.4209142 -1.9535562
4.4114943 -5.219398 -1.9554495
4.538291 -5.1138463 -1.9563711
4.662529 -5.0051537 -1.9572755
4.7840915 -4.8934002 -1.9581616
4.9029589 -4.7786541 -1.9590292
5.019043 -4.660955 -1.9598776
5.1321874 -4.5404224 -1.9607061
5.3496485 -4.2910013 -1.9623023
5.5547166 -4.0309987 -1.9638133
5.8379688 -3.6225109 -1.9659116
5.9256539 -3.4817379 -1.9665644
6.0098729 -3.3387918 -1.9671932
6.3109374 -2.747174 -1.9694593
6.3770213 -2.5947394 -1.9699618
6.6032419 -1.9697884 -1.9717059
6.6501169 -1.8102008 -1.9720739
6.693027 -1.6495047 -1.9724144
6.7319431 -1.4877423 -1.9727267
6.7977438 -1.1615368 -1.9732668
6.8245602 -0.99726743 -1.9734942
6.8473239 -0.83239746 -1.9736929
6.8660254 -0.66697079 -1.9738629
6.8910937 -0.33497801 -1.9741162
6.8974509 -0.16858886 -1.9741992
6.8918552 0.33078977 -1.9742733
6.8817282 0.49698606 -1.9742395
6.8491993 0.82836056 -1.9740847
6.69665 1.6460454 -1.9731914
6.5571289 2.1251965 -1.9723127
6.5027828 2.2824101 -1.9719638
6.4445896 2.4381804 -1.9715875
6.3825684 2.5924616 -1.9711838
6.2472262 2.8960698 -1.9702947
6.1740136 3.0452404 -1.9698105
5.5625291 4.0314946 -1.9657067
5.2796288 4.229538 -1.9356693
5.0377831 4.2394023 -1.88398
4.6295314 4.2939911 -1.8067578
4.4133201 4.508647 -1.8052764
4.3013964 4.6118693 -1.8045076
4.070322 4.8097858 -1.8029169
3.9512694 4.9043684 -1.8020957
3.8299999 4.9959636 -1.8012578
3.7065527 5.0845208 -1.8004043
3.5810742 5.1699772 -1.7995356
3.4535742 5.2523112 -1.7986517
3.3241503 5.3314505 -1.7977537
3.0599315 5.4800215 -1.795917
2.9252832 5.5493598 -1.7949798
2.3716698 5.7929764 -1.7911162
2.2299902 5.8452826 -1.7901253
2.0870996 5.8940983 -1.7891247
1.6524512 6.0193548 -1.7860764
1.5058692 6.0539823 -1.7850469
1.3585449 6.0850272 -1.7840109
1.2106249 6.112464 -1.7829701
1.0621485 6.1362944 -1.7819244
0.91320312 6.156518 -1.7808746
0.31485352 6.2011175 -1.7766491
-0.13429688 6.1965375 -1.7734685
-0.28361326 6.1877947 -1.7724094
-0.87661129 6.1170697 -1.7681956
-1.0233496 6.0905352 -1.7671505
-1.1693164 6.0604949 -1.7661107
-1.458662 5.990015 -1.7640463
-1.7439452 5.9058294 -1.7620076
-2.1628907 5.7543936 -1.7590073
-2.2998438 5.6973405 -1.7580248
-2.435293 5.6370635 -1.7570523
-2.5691991 5.5736041 -1.7560897
-2.7014842 5.5069928 -1.7551382
-2.8320704 5.4372969 -1.754198
-2.9608886 5.364522 -1.7532693
-3.0878711 5.2887506 -1.7523532
-3.2129393 5.2100101 -1.7514498
-3.457041 5.0438457 -1.749684
-3.5759861 4.9565091 -1.748822
-3.6927636 4.8664155 -1.7479749
-3.8073046 4.7736173 -1.7471429
-3.9195604 4.6781635 -1.7463264
-4.1369333 4.4795427 -1.7447424
-4.2419724 4.3764887 -1.7439753
-4.774209 4.2605572 -1.8309444
-5.0025587 4.2519832 -1.8786074
-5.1346679 4.155097 -1.8900093
-5.2314649 4.0284638 -1.8892953
-5.3251953 3.899616 -1.8886023
-5.5875387 3.5005913 -1.8866541
-5.7463279 3.2248943 -1.8854673
-5.8207321 3.0843921 -1.8849086
-5.8918066 2.9421904 -1.8843729
-5.9594626 2.7984009 -1.8838613
-6.0236912 2.6530962 -1.8833735
-6.0844626 2.5063391 -1.8829098
-6.1417284 2.358258 -1.8824706
-6.2457128 2.0582983 -1.8816662
-6.2923145 1.9066241 -1.8813019
-6.3353515 1.7539032 -1.8809621
-6.3747754 1.6002655 -1.8806481
-6.4426756 1.2904491 -1.8800968
-6.4711132 1.1344689 -1.8798599
-6.5342965 0.66320312 -1.8793054
-6.5640235 0.18876526 -1.8789867
-6.5652342 -0.12813842 -1.8789059
-6.5514746 -0.44474486 -1.878931
-6.5228515 -0.76036435 -1.8790618
-6.4211621 -1.3859521 -1.8796389
-6.3064747 -1.8474874 -1.8803457
-6.2119727 -2.1502972 -1.8809456
-6.1032519 -2.4484088 -1.8816473
-6.0436325 -2.5955043 -1.8820357
-5.9805665 -2.7411849 -1.882449
-5.9140525 -2.8853841 -1.8828871
-5.6143556 -3.4455957 -1.8848809
-5.5312204 -3.5811381 -1.8854384
-5.4448729 -3.7146959 -1.8860192
-5.3553514 -3.846241 -1.886623
-4.9666505 -4.3505626 -1.8892596
-4.8620605 -4.4708366 -1.8899728
-4.4156542 -4.9265833 -1.8930289
-4.2973142 -5.0338726 -1.8938421
-4.0530467 -5.2399869 -1.8955243
-3.9272265 -5.3387084 -1.8963925
-3.7990136 -5.4344611 -1.8972784
-3.6685252 -5.5271778 -1.8981808
-3.5357811 -5.6168113 -1.8990999
-3.4008887 -5.7033 -1.9000354
-3.1249218 -5.8666635 -1.9019517
-2.6966014 -6.0868583 -1.9049336
-2.5503125 -6.1534524 -1.9059539
-2.3957911 -6.1996031 -1.901783
-2.2265918 -6.2028875 -1.8857543
-2.060039 -6.205946 -1.8710227
-1.7340331 -6.2114201 -1.8452696
-1.5740918 -6.2138505 -1.8341691
-1.2594141 -6.2181273 -1.8153579
-1.1042578 -6.219985 -1.8075933
-0.9503125 -6.221662 -1.8008897
-0.64531249 -6.2244859 -1.7905962
-0.49392578 -6.2256393 -1.786978
0.40936524 -6.2290611 -1.7862042
0.56061524 -6.229054 -1.7895606
0.71250975 -6.2288799 -1.7939301
1.329873 -6.226491 -1.8218073
1.4876171 -6.2254562 -1.8314792
1.6470605 -6.2242408 -1.8422793
1.8084277 -6.2228374 -1.8542438
2.4777832 -6.2152457 -1.91452
2.6522949 -6.2128186 -1.9329296
2.967412 -6.1156454 -1.9450226
3.4075682 -5.8945494 -1.9481889
3.5506835 -5.8136816 -1.9492202
3.6918848 -5.7293077 -1.9502392
4.2354002 -5.3575864 -1.9541715
4.3655567 -5.2563629 -1.9551159
4.4932618 -5.1519227 -1.9560436
4.6184278 -5.0443492 -1.9569544
4.7409568 -4.9336882 -1.957847
5.2033691 -4.4614611 -1.961228
5.3116794 -4.3363619 -1.9620233
5.4168844 -4.2085919 -1.9627972
5.5189843 -4.0782151 -1.9635497
5.7134957 -3.809973 -1.9649878
6.0621285 -3.2458346 -1.9675844
6.2153125 -2.9513071 -1.9687359
6.2864256 -2.8012357 -1.9692737
6.353838 -2.6494172 -1.9697852
6.4773731 -2.3408937 -1.9707302
6.6781344 -1.7070487 -1.9722958
6.787158 -1.2200646 -1.9731786
6.8154492 -1.0560583 -1.9734164
6.8598142 -0.72614074 -1.9738055
6.8758788 -0.5604431 -1.9739568
6.8956637 -0.22807983 -1.9741729
6.8989549 0.10489685 -1.9742721
6.8562207 0.7692883 -1.9741211
6.8102441 1.0990411 -1.9738708
6.7108884 1.5883136 -1.9732789
6.5756054 2.0686913 -1.9724307
6.522656 2.2263744 -1.9720918
6.4658203 2.3826904 -1.9717251
6.2725096 2.8423247 -1.9704614
6.2006149 2.992135 -1.9699867
6.0458593 3.2861023 -1.9689581
5.876904 3.5719151 -1.9678274
5.7872262 3.7115483 -1.9672244
5.1227636 4.2359576 -1.9020171
4.8889551 4.2453704 -1.852713
4.6763282 4.2629681 -1.8106073
4.4527149 4.4710894 -1.8055466
4.3417087 4.5752935 -1.8047845
4.2282128 4.6767168 -1.8040042
4.1123142 4.7752666 -1.8032061
3.9940624 4.8709049 -1.8023911
3.7509081 5.0532184 -1.8007112
3.4993651 5.2232523 -1.7989694
3.3706152 5.3035383 -1.7980762
2.9735839 5.5249686 -1.7953161
2.8378906 5.592165 -1.794371
2.7006934 5.6559978 -1.7934142
2.2807422 5.8269916 -1.7904803
2.1382811 5.8770585 -1.7894833
1.9947265 5.9236102 -1.7884778
1.850166 5.96663 -1.7874641
1.5583301 6.0420184 -1.7854154
1.4112695 6.0743399 -1.7843816
1.2635547 6.1030717 -1.7833426
1.1152539 6.1281962 -1.7822986
0.81732422 6.167592 -1.7801983
0.3684082 6.1994901 -1.7770278
0.21856445 6.2028775 -1.775968
0.068750001 6.2026386 -1.7749072
-0.37941405 6.1802764 -1.7717297
-1.1172558 6.0716314 -1.7664816
-1.5508105 5.9644437 -1.7633882
-1.6933105 5.9218631 -1.7623696
-1.8346386 5.8759065 -1.7613586
-1.9747753 5.8266082 -1.7603555
-2.1136034 5.7739897 -1.7593607
-2.3870702 5.6589713 -1.7573986
-2.7855957 5.462554 -1.7545327
-3.1684473 5.2384906 -1.7517713
-3.2922363 5.1578765 -1.7508765
-3.5337305 4.988039 -1.7491283
-3.651289 4.8989286 -1.748276
-3.7666309 4.8070893 -1.7474384
-3.8796971 4.7125821 -1.7466165
-4.0988183 4.5157757 -1.7450205
-4.4816599 4.2712479 -1.7714761
-4.6953416 4.2634745 -1.8147316
-5.197207 4.0739799 -1.8895479
-5.2920508 3.9459186 -1.8888476
-5.3838086 3.8156903 -1.8881683
-5.4723825 3.6833856 -1.8875109
-5.5578122 3.5490673 -1.8868757
-5.7189159 3.2747021 -1.8856726
-6.0011325 2.7051959 -1.8835452
-6.0631638 2.5589588 -1.8830726
-6.2760839 1.9609528 -1.881429
-6.3611035 1.6552685 -1.8807575
-6.4316015 1.3460314 -1.880188
-6.4613767 1.1902875 -1.8799417
-6.4874411 1.0339056 -1.8797216
-6.5098338 0.87695801 -1.8795272
-6.5622654 0.24538757 -1.879012
-6.5660644 0.086945802 -1.8789489
-6.5550289 -0.38822448 -1.8789189
-6.5290527 -0.70408505 -1.8790307
-6.510488 -0.86146909 -1.8791262
-6.4882226 -1.0183868 -1.879248
-6.3623924 -1.6396512 -1.8799973
-6.2776661 -1.9452487 -1.8805273
-6.2298827 -2.0965002 -1.8808311
-6.1785741 -2.2466271 -1.8811603
-6.1237206 -2.3955135 -1.8815145
-6.065361 -2.5430934 -1.8818939
-5.7220116 -3.2586255 -1.8841614
-5.643291 -3.396697 -1.8846872
-5.5612988 -3.532912 -1.8852365
-5.4760838 -3.6672037 -1.8858092
-5.2961817 -3.9296613 -1.8870229
-5.2016015 -4.0576873 -1.8876632
-4.684072 -4.6630106 -1.8911887
-4.4572849 -4.8875861 -1.892743
-4.3399119 -4.9958487 -1.8935493
-4.2199216 -5.1013398 -1.8943746
-4.0974216 -5.204 -1.8952185
-3.9724705 -5.3037682 -1.8960801
-3.8450975 -5.4005899 -1.8969598
-3.5834765 -5.5851355 -1.8987697
-3.4493554 -5.6727533 -1.8996991
-3.3131151 -5.7572002 -1.9006445
-3.0345702 -5.9163675 -1.9025799
-2.8924217 -5.9909844 -1.9035693
-2.748457 -6.0622215 -1.9045721
-2.4554198 -6.1944146 -1.9066164
-1.7916406 -6.2105026 -1.84952
-1.6310351 -6.2130046 -1.8380042
-1.1595703 -6.2193418 -1.8102449
-1.0052148 -6.2210827 -1.8031644
-0.85192382 -6.2226453 -1.7971328
-0.69956052 -6.2240324 -1.7921352
-0.54795897 -6.2252469 -1.7881559
-0.39692381 -6.2262921 -1.7851843
0.20479491 -6.2288074 -1.7832501
0.3554492 -6.2290235 -1.785248
0.50650388 -6.229075 -1.7882458
0.65814453 -6.228961 -1.7922517
0.81050777 -6.2286801 -1.797276
0.96382809 -6.228231 -1.803334
1.2738965 -6.2268176 -1.8186207
1.5898633 -6.2246966 -1.8382871
1.750537 -6.2233605 -1.8498325
2.0782812 -6.2201147 -1.8765182
2.4161913 -6.2160602 -1.9082806
3.2103417 -5.9986143 -1.9467689
3.4997559 -5.842988 -1.9488531
3.6416309 -5.7598605 -1.9498765
3.781533 -5.6732383 -1.9508865
3.9193358 -5.5831895 -1.9518826
4.0549412 -5.4897509 -1.9528639
4.4479294 -5.1896081 -1.9557143
4.9363575 -4.7453785 -1.959273
5.0516114 -4.6268611 -1.9601159
5.482861 -4.1251006 -1.9632832
5.5829101 -3.9930873 -1.9640216
5.6797166 -3.8586185 -1.9647375
5.8633299 -3.5825775 -1.9661005
5.9500294 -3.4411831 -1.9667462
6.0332322 -3.2976346 -1.9673678
6.1889939 -3.0044949 -1.9685372
6.2619138 -2.8547559 -1.9690878
6.395195 -2.5509627 -1.9701005
6.4564257 -2.3964725 -1.9705691
6.5138278 -2.2404873 -1.9710112
6.6170311 -1.9243933 -1.9718136
6.7045312 -1.603453 -1.9725064
6.8058004 -1.1147546 -1.9733347
6.8314743 -0.95029724 -1.9735538
6.8840036 -0.45376587 -1.974039
6.8933301 -0.28753906 -1.9741427
6.8985157 -0.12110718 -1.9742175
6.896543 0.21187012 -1.9742793
6.8893847 0.37822083 -1.9742664
6.8781152 0.54434079 -1.9742248
6.8626952 0.710141 -1.9741534
6.8432322 0.87548947 -1.9740533
6.8196678 1.0402948 -1.9739239
6.4272656 2.4823554 -1.9714749
6.0745702 3.234154 -1.9691496
5.9930954 3.3788574 -1.9686059
5.7277832 3.8000836 -1.9668237
5.5340915 4.0692902 -1.9655138
5.2093358 4.2324247 -1.9205334
4.9710646 4.242084 -1.8699199
4.5993652 4.3252616 -1.8065515
4.269033 4.6407962 -1.8042849
4.036582 4.8370686 -1.8026843
3.9169042 4.9308038 -1.8018584
3.6709569 5.1092157 -1.800158
3.1551659 5.4284272 -1.7965796
2.749912 5.6335797 -1.7937574
2.6117578 5.6952286 -1.7927935
2.4722266 5.7534585 -1.7918191
2.3313673 5.8082538 -1.7908344
2.0461524 5.9073725 -1.788838
1.9019433 5.9516654 -1.7878273
1.7567675 5.9924088 -1.7868087
1.6107324 6.0295939 -1.7857833
1.3164062 6.0932159 -1.7837144
1.168291 6.1196318 -1.782672
1.0196972 6.1424308 -1.7816253
0.42193359 6.1974063 -1.7774062
0.12228515 6.203135 -1.7752863
-0.62341797 6.154357 -1.7699963
-0.77129883 6.1338749 -1.768945
-0.91854489 6.1098566 -1.767897
-1.0650684 6.0823245 -1.7668536
-1.2108105 6.0512881 -1.7658148
-1.6424901 5.9374685 -1.7627329
-2.0641308 5.7931695 -1.7597152
-2.4736524 5.6192865 -1.7567767
-2.8690135 5.4168439 -1.7539316
-2.9972949 5.3432183 -1.7530068
-3.1237206 5.2665925 -1.7520944
-3.2482226 5.187016 -1.7511948
-3.7256835 4.8402228 -1.7477359
-3.8395605 4.7466593 -1.7469085
-3.9511621 4.6504583 -1.7460965
-4.4084373 4.2746296 -1.7570443
-4.6178126 4.266315 -1.7989215
-5.0636325 4.2442155 -1.8905325
-5.1625876 4.119206 -1.8898034
-5.2585058 3.9919329 -1.8890954
-5.3513575 3.8624699 -1.8884084
-5.6109958 3.4617279 -1.8864793
-5.6911035 3.3242688 -1.8858807
-5.7678905 3.1849866 -1.8853056
-5.8413572 3.0439844 -1.8847533
-5.9781442 2.7571044 -1.8837198
-6.0413866 2.6113806 -1.8832388
-6.101162 2.4642296 -1.882782
-6.1574316 2.3157599 -1.8823498
-6.210166 2.1660352 -1.8819424
-6.2593651 2.0151482 -1.8815597
-6.3469825 1.7101684 -1.88087
-6.4200878 1.4015204 -1.8802819
-6.4511619 1.2460259 -1.8800267
-6.5022559 0.93310118 -1.8795936
-6.5222754 0.77585387 -1.8794161
-6.5385742 0.61819518 -1.8792648
-6.5599804 0.3019751 -1.8790411
-6.5651269 0.14357604 -1.8789685
-6.5665035 -0.014884643 -1.8789227
-6.5483103 -0.48983642 -1.8789431
-6.5348043 -0.64774108 -1.8790029
-6.4436717 -1.2748895 -1.8795049
-6.3760157 -1.5846456 -1.8799133
-6.3367577 -1.7382619 -1.8801562
-6.2473826 -2.0425751 -1.8807195
-6.1973143 -2.1931136 -1.8810395
-6.1437302 -2.3424497 -1.881385
-6.0866208 -2.4905083 -1.8817554
-6.0260153 -2.6372058 -1.8821511
-5.9619532 -2.7824674 -1.8825713
-5.7493553 -3.2088444 -1.8839792
-5.5069237 -3.6194408 -1.8856018
-5.4196482 -3.7524388 -1.8861892
-5.3292575 -3.8833773 -1.8867992
-5.039619 -4.2631354 -1.8887631
-4.9371095 -4.3851233 -1.889461
-4.8316894 -4.5046906 -1.89018
-4.6123924 -4.7363119 -1.8916796
-4.3821483 -4.9574728 -1.893259
-4.1414747 -5.1676407 -1.8949149
-4.0173926 -5.2684484 -1.8957702
-3.8908789 -5.3663316 -1.8966435
-3.7620311 -5.4612241 -1.897534
-3.6308789 -5.5530634 -1.8984416
-3.362041 -5.7273908 -1.9003048
-3.2244725 -5.8097739 -1.90126
-3.0849121 -5.8888941 -1.9022299
-2.6550293 -6.1062059 -1.9052234
-2.0129981 -6.2067785 -1.8670526
-1.5288378 -6.2145066 -1.8312136
-1.2150195 -6.2186761 -1.8130336
-0.45084959 -6.2259378 -1.7861303
-0.30009764 -6.2268748 -1.7838022
-0.14962891 -6.2276459 -1.7824687
0.00070312497 -6.22825 -1.7821276
0.15105468 -6.2286901 -1.7827772
0.45245117 -6.2290764 -1.7870589
0.6038574 -6.2290211 -1.7907039
0.75595701 -6.2287998 -1.7953627
1.0629199 -6.2278528 -1.8077807
1.5328906 -6.2251282 -1.8344425
1.6929003 -6.2238598 -1.8455732
1.8548437 -6.222403 -1.857875
2.3549902 -6.2168469 -1.9022158
2.7026954 -6.2120843 -1.9384445
3.009912 -6.0960264 -1.945328
3.3041406 -5.9501605 -1.947444
3.5911326 -5.7899756 -1.9495121
3.7316504 -5.7045965 -1.9505264
3.870332 -5.6157632 -1.9515283
4.1409082 -5.4279375 -1.9534866
4.2727537 -5.3290491 -1.9544424
4.4022365 -5.2268991 -1.9553823
4.5292282 -5.1215568 -1.9563051
4.7754197 -4.9015598 -1.9580981
5.0107422 -4.669559 -1.9598168
5.1241503 -4.5491962 -1.9606472
5.4463377 -4.1716733 -1.963014
5.5475192 -4.0405645 -1.9637604
5.6454883 -3.9069512 -1.9644842
5.7401953 -3.7709236 -1.9651855
5.919404 -3.4919753 -1.9665179
6.0039062 -3.3491826 -1.9671485
6.0848436 -3.2043078 -1.9677546
6.1622262 -3.0574346 -1.9683359
6.2359667 -2.9086838 -1.9688919
6.5486717 -2.1394951 -1.9712808
6.6468844 -1.8217642 -1.9720483
6.7292676 -1.4994262 -1.972705
6.822783 -1.0091528 -1.9734787
6.8458395 -0.84429443 -1.9736797
6.8648047 -0.67890257 -1.9738516
6.8796873 -0.51310915 -1.9739947
6.8996778 -0.014113159 -1.97425
6.8981152 0.15239929 -1.974277
6.8826075 0.48499328 -1.9742429
6.8686814 0.65092409 -1.9741822
6.8506446 0.81645566 -1.9740924
6.8285446 0.98148072 -1.9739734
6.8023825 1.1458703 -1.9738257
6.7721286 1.3095465 -1.9736488
6.7378712 1.4724371 -1.9734435
6.6995702 1.6344171 -1.9732091
6.6110644 1.9551928 -1.9726559
6.448916 2.4270043 -1.9716156
6.1794138 3.0345294 -1.9698462
6.1028028 3.1819458 -1.9693376
6.0226169 3.3273919 -1.968803
5.8516698 3.6119597 -1.9676577
5.7610154 3.7509575 -1.9670477
5.6669822 3.8876371 -1.9664133
5.2975879 4.2287955 -1.9395534
5.0548239 4.2387114 -1.8875868
4.8244238 4.2479339 -1.8392946
4.6370997 4.2860565 -1.8068098
4.3095703 4.6045108 -1.8045639
4.1953807 4.7051249 -1.8037783
3.9599414 4.8976469 -1.8021554
3.5901659 5.1639252 -1.7995987
3.4628124 5.2464838 -1.7987159
3.3335447 5.3258476 -1.7978189
3.202451 5.4019938 -1.7969083
3.0695801 5.4748893 -1.7959841
2.935039 5.5444756 -1.7950478
2.5222559 5.7330422 -1.7921685
2.3818457 5.7890668 -1.7911874
2.0974219 5.8906989 -1.7891972
1.8087499 5.9782486 -1.7871736
1.6630077 6.0167155 -1.7861508
1.5164648 6.0516043 -1.7851213
0.77472657 6.1720295 -1.779898
0.62515622 6.1852546 -1.7788421
0.4754785 6.1948552 -1.7777847
0.3256543 6.2008295 -1.7767254
-0.71851563 6.141602 -1.7693204
-1.4482909 5.9927921 -1.7641205
-1.7337402 5.9090981 -1.7620803
-1.8747559 5.8621902 -1.7610714
-2.1529589 5.7583795 -1.7590786
-2.2900195 5.7015581 -1.7580954
-2.691992 5.5119085 -1.7552066
-2.8227148 5.4424162 -1.7542653
-2.9516602 5.3698721 -1.7533358
-3.7991111 4.7804093 -1.7472024
-3.9115233 4.685142 -1.7463849
-4.0216212 4.5872784 -1.7455832
-4.344336 4.2858062 -1.7461691
-4.5415821 4.2690873 -1.7835037
-4.985713 4.2526212 -1.8750585
-5.2245798 4.0376835 -1.889346
-5.4970899 3.6452618 -1.8873276
-5.5815916 3.5103924 -1.8866986
-5.6628418 3.3736126 -1.8860922
-5.8154883 3.0945697 -1.8849479
-5.886797 2.9524846 -1.8844109
-6.0191793 2.6636364 -1.8834078
-6.3323827 1.764964 -1.8809856
-6.4404783 1.3016735 -1.880115
-6.4942088 0.98919368 -1.8796633
-6.5331736 0.67456663 -1.8793157
-6.5572557 0.35856077 -1.8790731
-6.5637207 0.20020507 -1.8789914
-6.5654297 -0.11672546 -1.878907
-6.5606933 -0.27510497 -1.8789043
-6.5522461 -0.43335328 -1.8789282
-6.5400486 -0.59133726 -1.8789785
-6.5241504 -0.7490204 -1.8790551
-6.5045309 -0.90629637 -1.8791581
-6.4235349 -1.3747498 -1.8796247
-6.351191 -1.6834844 -1.8800665
-6.3095994 -1.836489 -1.880326
-6.2643943 -1.9885201 -1.8806115
-6.2156248 -2.1394401 -1.8809222
-6.1633005 -2.2892261 -1.8812585
-5.9189844 -2.8750207 -1.8828546
-5.8493066 -3.0177624 -1.8833154
-5.7762499 -3.1588554 -1.8838003
-5.6999021 -3.2981939 -1.8843091
-5.6202245 -3.4357579 -1.8848416
-5.451201 -3.7051387 -1.8859767
-5.3619237 -3.836833 -1.8865787
-5.1740332 -4.0938163 -1.8878502
-4.9740624 -4.3418016 -1.8892093
-4.8696971 -4.4622526 -1.8899206
-4.6523924 -4.6956897 -1.8914056
-4.3059177 -5.0262332 -1.893783
-4.1852245 -5.1309118 -1.8946136
-4.0620213 -5.2327604 -1.8954624
-3.9363866 -5.3316855 -1.8963293
-3.8083496 -5.4276567 -1.8972137
-3.6779981 -5.5206017 -1.8981154
-3.4106836 -5.6971765 -1.8999674
-3.1350195 -5.8609972 -1.9018816
-2.7070606 -6.0819287 -1.9048605
-2.5609081 -6.1487603 -1.9058801
-2.4081249 -6.199358 -1.9029907
-2.2386816 -6.2026587 -1.8868643
-2.0719726 -6.2057328 -1.8720437
-1.7456347 -6.211237 -1.8461157
-1.4273046 -6.2159295 -1.8248895
-0.80838865 -6.2230582 -1.7956023
0.097304687 -6.2285514 -1.7824306
0.24774413 -6.2288852 -1.7837188
1.0077538 -6.2280717 -1.8052535
1.1625098 -6.2274022 -1.8126657
1.4761719 -6.2255368 -1.8307437
1.6355176 -6.2243338 -1.8414633
2.1258104 -6.2195868 -1.8807294
2.6396093 -6.2130017 -1.931554
3.1051855 -6.050745 -1.9460127
3.3971777 -5.9002433 -1.9481139
3.5404394 -5.8196282 -1.9491464
3.8210547 -5.6479025 -1.9511721
3.958252 -5.5568724 -1.9521639
4.0932226 -5.4624791 -1.9531411
4.2259374 -5.3647547 -1.9541029
4.3562498 -5.263772 -1.9550484
4.4841504 -5.1595612 -1.9559774
4.6095018 -5.0522032 -1.9568893
4.7322068 -4.9417701 -1.9577831
4.9695215 -4.7118707 -1.9595155
5.0839453 -4.5925317 -1.9603528
5.5117283 -4.0877051 -1.9634961
5.6108689 -3.9549804 -1.9642282
5.7992578 -3.6822865 -1.9656237
5.9741111 -3.4004555 -1.966926
6.1349998 -3.1101439 -1.9681311
6.2100291 -2.9620624 -1.968696
6.2814059 -2.8121054 -1.9692355
6.4731836 -2.3521111 -1.9706979
6.5819235 -2.0379391 -1.9715393
6.7157226 -1.5573224 -1.972596
6.7523437 -1.3950409 -1.9728922
6.8748341 -0.5724054 -1.9739468
6.8870993 -0.40635863 -1.9740716
6.8952146 -0.24007995 -1.9741669
6.8992381 -0.073615111 -1.9742334
6.8949118 0.25933897 -1.9742786
6.8866014 0.4256494 -1.9742578
6.8741307 0.59166867 -1.9742073
6.8121972 1.0871924 -1.9738818
6.7834177 1.2511615 -1.9737154
6.6728611 1.7379822 -1.9730439
6.6280465 1.8982067 -1.9727632
6.5792675 2.0572815 -1.9724541
6.5265918 2.2150476 -1.9721171
6.3454881 2.6797533 -1.9709411
6.2775488 2.8314612 -1.9704946
6.2058983 2.9813886 -1.9700216
6.1306052 3.1294897 -1.9695224
6.0516891 3.2756524 -1.968997
5.9692283 3.4197564 -1.9684463
5.7937889 3.7015507 -1.9672685
5.7009864 3.8390691 -1.9666429
5.3875294 4.2250724 -1.9590732
5.1400976 4.2352519 -1.9057168
3.8823438 4.9570012 -1.8016199
3.6352148 5.1336551 -1.7999105
2.9832909 5.5199909 -1.7953839
2.8477147 5.5874357 -1.7944393
2.7106347 5.6515069 -1.7934835
2.5720801 5.712193 -1.7925166
2.2909765 5.823245 -1.790552
2.1485937 5.8735623 -1.7895554
1.4218946 6.0721345 -1.7844565
1.2742187 6.1011224 -1.7834176
1.125957 6.1265068 -1.7823739
0.97723633 6.1482759 -1.7813259
0.82807612 6.1664214 -1.7802743
0.6786328 6.1809478 -1.7792196
0.52897459 6.1918387 -1.7781628
0.37918943 6.1991057 -1.777104
0.22936523 6.2027521 -1.7760442
0.079560548 6.202775 -1.7749838
-0.21953124 6.1919866 -1.772864
-0.36867186 6.1811929 -1.7718059
-0.51739258 6.1668205 -1.7707498
-0.81335938 6.1273832 -1.7686456
-0.96039063 6.1023579 -1.7675991
-1.106748 6.0738249 -1.7665566
-1.3968555 6.0063105 -1.7644874
-1.5405078 5.9673772 -1.7634618
-1.6830566 5.9250531 -1.7624429
-1.9646972 5.8302751 -1.7604275
-2.1036522 5.7778921 -1.7594321
-2.2412207 5.7222333 -1.7584454
-2.5118945 5.6012468 -1.7565017
-2.6448631 5.5359893 -1.7555456
-2.9057813 5.3961406 -1.7536666
-3.0335448 5.3216643 -1.7527453
-3.2833788 5.1637883 -1.7509407
-3.4053125 5.0804839 -1.7500585
-3.7584081 4.8137956 -1.7474982
-3.9825585 4.6225419 -1.7458677
-4.091074 4.5230365 -1.745077
-4.1971774 4.4210491 -1.7443026
-4.4666209 4.2717891 -1.7684726
-4.9030857 4.2557416 -1.8577197
-5.0921679 4.2087893 -1.8903223
-5.1902537 4.083117 -1.8895992
-5.2853122 3.9552288 -1.8888973
-5.377285 3.8251543 -1.8882166
-5.4661036 3.6929827 -1.8875576
-5.7133398 3.284724 -1.8857144
-5.8616991 3.0034454 -1.8846002
-5.93082 2.8603485 -1.884078
-6.0587888 2.5695512 -1.883106
-6.117578 2.4220123 -1.8826562
-6.1728415 2.2731605 -1.882231
-6.2245703 2.1231103 -1.8818307
-6.2727342 1.9718884 -1.8814552
-6.3582907 1.6663531 -1.88078
-6.3956347 1.5121875 -1.8804803
-6.4293065 1.3572369 -1.8802067
-6.4593649 1.2015289 -1.8799585
-6.5083399 0.88829285 -1.8795403
-6.5425391 0.57315856 -1.8792264
-6.5618358 0.25680786 -1.8790176
-6.5628123 -0.21851195 -1.8789024
-6.5448241 -0.53490478 -1.8789576
-6.5302539 -0.69271606 -1.8790247
-6.5119433 -0.85014766 -1.8791184
-6.401865 -1.4743152 -1.8797555
-6.3651953 -1.6285714 -1.8799798
-6.3248825 -1.7819132 -1.8802303
-6.2809567 -1.9343109 -1.8805065
-6.1278024 -2.3848271 -1.881488
-6.0696778 -2.5324953 -1.8818659
-6.0080762 -2.6788049 -1.8822687
-5.8745899 -2.9669368 -1.8831478
-5.8027344 -3.1086276 -1.8836242
-5.5673141 -3.5231519 -1.8851961
-5.3028903 -3.9203398 -1.8869776
-5.2085156 -4.0485382 -1.8876164
-5.0106835 -4.2981758 -1.8889599
-4.9073243 -4.4194889 -1.8896639
-4.8011036 -4.5383477 -1.8903887
-4.3484373 -4.9881406 -1.8934907
-4.228662 -5.0938258 -1.8943145
-3.8543553 -5.3937063 -1.8968959
-3.7248437 -5.4877391 -1.8977911
-3.5930567 -5.5786939 -1.8987032
-3.4590721 -5.6665487 -1.8996319
-3.3230078 -5.751214 -1.9005756
-3.0447266 -5.9108634 -1.9025092
-2.7588866 -6.0572095 -1.9044993
-2.6133301 -6.1252723 -1.9055144
-1.6425488 -6.2128305 -1.8387945
-1.4836621 -6.2151489 -1.828348
-1.1707226 -6.2192101 -1.8107955
-1.0162988 -6.2209635 -1.8036407
-0.7105273 -6.223938 -1.7924606
-0.40779296 -6.2262225 -1.7853631
0.19395508 -6.228785 -1.7831445
0.49558592 -6.2290769 -1.7879962
0.6471777 -6.2289753 -1.7919284
0.79950196 -6.2287064 -1.7968799
0.95273435 -6.2282696 -1.8028625
1.2626269 -6.2268806 -1.8179953
1.419668 -6.2259235 -1.827188
1.5783594 -6.2247849 -1.8375002
1.7388672 -6.2234631 -1.8489606
1.9014746 -6.221952 -1.8616049
2.0663085 -6.2202444 -1.8754699
2.2336915 -6.2183371 -1.8906006
2.4038379 -6.2162213 -1.9070436
2.5769532 -6.2138891 -1.924849
2.9031737 -6.1446128 -1.9445612
3.3454981 -5.9281912 -1.9477419
3.6314354 -5.765976 -1.9498028
3.9094725 -5.5897903 -1.9518112
4.1787696 -5.400054 -1.953761
4.4387403 -5.197166 -1.9556476
4.5650096 -5.0909238 -1.9565655
4.688652 -4.9815941 -1.9574658
2.0386717 -5.8974533 -1.9384979
2.4637108 -5.7435465 -1.9415417
3.1451464 -5.4188418 -1.9464396
3.4062109 -5.2658758 -1.9483225
4.2565036 -4.6328464 -1.954486
4.3688965 -4.5306845 -1.955305
5.1725683 -3.6191485 -1.961202
5.3446188 -3.3675613 -1.9624773
5.4259863 -3.2386129 -1.9630827
5.5791993 -2.9747803 -1.9642274
5.6508689 -2.840066 -1.9647655
5.7842965 -2.5654328 -1.9657726
6.0098925 -1.9977462 -1.967499
6.1418943 -1.5586008 -1.9685336
6.2410936 -1.1106945 -1.9693381
6.2887011 -0.80845153 -1.969744
6.3069139 -0.65651917 -1.9699075
6.3213673 -0.50417846 -1.9700445
6.301084 0.7180981 -1.9701794
6.2816014 0.86989379 -1.9700762
6.2583594 1.0211499 -1.9699463
6.2314157 1.1717761 -1.9697897
6.0866895 1.7661169 -1.9689007
6.0414257 1.9121978 -1.9686135
5.9925876 2.0570984 -1.9683011
5.8248534 2.4838054 -1.9672108
5.6957617 2.7607524 -1.9663601
5.6261621 2.8967106 -1.9658984
5.5532618 3.0308869 -1.9654129
5.2295017 3.5480766 -1.963239
5.0490818 3.7938859 -1.9620178
4.9544239 3.9133379 -1.9613751
4.4129686 4.2370462 -1.9005568
3.8813963 4.3081903 -1.8014652
3.5551758 4.5719538 -1.7992159
3.4423144 4.6543903 -1.7984359
3.3275487 4.7340093 -1.7976415
3.2108788 4.8107624 -1.7968332
3.0924511 4.8846064 -1.7960116
2.9722948 4.9555035 -1.7951772
2.8505175 5.0234137 -1.7943306
2.7271581 5.0883012 -1.7934723
2.6023145 5.1501298 -1.7926025
1.9585546 5.4123149 -1.7881051
1.5594629 5.5311356 -1.7853069
1.4248047 5.5642109 -1.7843612
1.2894238 5.5939813 -1.7834097
1.0169336 5.6436052 -1.781492
0.74265623 5.6799283 -1.7795587
0.60502928 5.6930852 -1.7785876
0.32929686 5.709383 -1.7766392
-0.084423825 5.7088227 -1.7737103
-0.35936522 5.6918316 -1.7717602
-0.49632812 5.6783829 -1.7707876
-0.63285154 5.6616521 -1.7698174
-0.76887691 5.6416483 -1.7688497
-1.1730468 5.5621819 -1.7659707
-1.4384961 5.4932084 -1.7640758
-1.5697753 5.4539957 -1.7631375
-1.9570898 5.31778 -1.7603647
-2.0837793 5.2662845 -1.7594558
-2.2091308 5.2118034 -1.7585561
-2.3330762 5.154367 -1.7576656
-2.4555078 5.0940156 -1.7567853
-2.5764551 5.0307832 -1.7559146
-3.0434864 4.7499003 -1.7525445
-3.1557617 4.6729093 -1.7517321
-3.8862011 4.2665911 -1.7928854
-4.0723438 4.2597761 -1.8307928
-4.4231052 4.200789 -1.8950568
-4.5214744 4.0912762 -1.8943354
-4.7101464 3.8655267 -1.8929485
-4.8003712 3.7494256 -1.8922833
-5.2084374 3.1393054 -1.8892555
-5.2811618 3.0118389 -1.8887117
-5.4808106 2.619848 -1.8872088
-5.5981736 2.3512492 -1.8863168
-5.7026758 2.0775292 -1.8855147
-5.7500391 1.9389428 -1.8851479
-5.7941113 1.799292 -1.884804
-5.8348241 1.6586767 -1.8844839
-5.8722262 1.5171587 -1.8841866
-5.9062791 1.3748138 -1.8839133
-5.9369431 1.2317309 -1.8836635
-5.9642186 1.0879754 -1.8834376
-5.9881053 0.94363827 -1.8832357
-6.0255957 0.65351439 -1.8829042
-6.0391793 0.50788999 -1.8827747
-6.0591407 -0.076535642 -1.8825003
-6.0555177 -0.22272032 -1.8824927
-6.0378904 -0.51463985 -1.882551
-6.0239158 -0.66021055 -1.8826165
-5.9614844 -1.0944275 -1.8829596
-5.8684373 -1.5232431 -1.8835205
-5.7896385 -1.8050762 -1.8840139
-5.7452536 -1.944548 -1.8842965
-5.6466503 -2.2202218 -1.8849316
-5.2740431 -3.0156856 -1.887388
-5.0461621 -3.3920183 -1.8889152
-4.8795505 -3.6337011 -1.8900397
-4.7919335 -3.7515666 -1.8906329
-4.7015429 -3.867357 -1.8912466
-4.608408 -3.9810171 -1.89188
-4.5125389 -4.0924749 -1.8925332
-4.3129392 -4.3085337 -1.8938967
-4.1031737 -4.5150213 -1.8953347
-3.9945996 -4.6145387 -1.8960806
-3.8836327 -4.7114868 -1.8968441
-3.6548533 -4.897438 -1.8984213
-3.5371192 -4.9863396 -1.8992343
-3.2953222 -5.1557322 -1.9009075
-3.0455174 -5.3135495 -1.9026397
-2.9177637 -5.3880033 -1.9035271
-2.6569335 -5.5277762 -1.9053417
-2.523994 -5.592998 -1.906268
-2.3894725 -5.6550531 -1.9072062
-1.6956934 -5.9165711 -1.9120578
-1.2652539 -6.0332494 -1.9150784
-0.97375 -6.093781 -1.9171281
-0.82687497 -6.118804 -1.918162
-0.67934567 -6.1402988 -1.9192016
-0.38271484 -6.1726513 -1.9212939
-0.2337793 -6.1834726 -1.9223459
-0.084560543 -6.1907063 -1.9234005
0.36406249 -6.1908135 -1.9265764
0.66305661 -6.1728253 -1.928697
0.81227535 -6.1584105 -1.9297568
0.96118164 -6.1403775 -1.9308147
1.1096679 -6.1187401 -1.9318708
1.2576855 -6.0935059 -1.9329245
1.4051172 -6.0646777 -1.9339747
1.5518945 -6.0322647 -1.9350212
2.1305957 -5.8671165 -1.9391553
2.2727637 -5.8170505 -1.9401733
2.4137108 -5.7635117 -1.9411831
2.5534179 -5.706532 -1.942185
2.6917381 -5.6461425 -1.9431781
2.8286426 -5.5823679 -1.9441617
3.0977733 -5.4448094 -1.9460983
3.2298241 -5.3710966 -1.9470499
3.6150486 -5.1307154 -1.9498318
3.9821289 -4.8624082 -1.9524914
4.2157516 -4.668674 -1.9541894
4.3290234 -4.5675144 -1.9550143
4.6537013 -4.2475557 -1.9573858
4.856914 -4.0211344 -1.9588759
4.9543357 -3.9041929 -1.959592
5.2291894 -3.5392516 -1.961621
5.3147755 -3.413142 -1.9622558
5.397295 -3.2849255 -1.962869
5.4766307 -3.1546819 -1.9634603
5.5527539 -3.0224862 -1.9640296
5.6256542 -2.8884125 -1.9645761
5.6952243 -2.7525535 -1.9650995
5.7614551 -2.6149917 -1.9655997
5.8242869 -2.4758034 -1.9660761
5.8836813 -2.3350813 -1.9665288
5.9396091 -2.1928985 -1.9669571
5.9920311 -2.0493517 -1.9673609
6.0409079 -1.9045355 -1.9677398
6.0862012 -1.7585297 -1.9680939
6.1278906 -1.6114264 -1.9684223
6.2003222 -1.3142749 -1.969003
6.2580175 -1.0138476 -1.9694798
6.2813087 -0.86263245 -1.9696792
6.3369141 -0.25327757 -1.9702116
6.3413963 -0.10029785 -1.9702783
6.3390331 0.20578796 -1.9703314
6.2889843 0.81570435 -1.9701163
6.2670898 0.96716917 -1.9699957
6.2414646 1.1180304 -1.9698486
6.1790819 1.4175867 -1.9694754
6.1019921 1.7136481 -1.9689971
6.0580368 1.86013 -1.9687192
6.0104394 2.0054564 -1.9684155
5.9046483 2.2923102 -1.9677321
5.8464842 2.4336591 -1.9673525
5.2604785 3.5032134 -1.9634478
5.1728125 3.6280413 -1.9628558
4.988574 3.8709233 -1.961607
4.7927537 4.104311 -1.960274
4.6906443 4.2172675 -1.959577
3.7051268 4.4556327 -1.800251
3.5950193 4.5418205 -1.799491
3.2527928 4.7836637 -1.7971237
2.8942285 4.9994903 -1.7946347
2.7714257 5.0654593 -1.7937803
2.6470799 5.1283855 -1.7929144
2.5213475 5.1882343 -1.792038
2.0055273 5.396215 -1.7884338
1.87375 5.4402275 -1.7875111
1.6074121 5.5185246 -1.7856436
0.92895508 5.6567292 -1.7808721
0.65423828 5.6887612 -1.7789347
0.24063475 5.711791 -1.7760122
-0.035195313 5.7104583 -1.7740593
-0.58413082 5.6680069 -1.7701637
-1.2587304 5.5413995 -1.7653593
-1.3913183 5.5064592 -1.7644128
-1.5229688 5.4683709 -1.763472
-2.038662 5.2850308 -1.7597796
-2.1644824 5.2316155 -1.7588769
-2.2889256 5.1752324 -1.7579829
-2.4119334 5.1159163 -1.7570987
-2.6533203 4.9886494 -1.755361
-3.1158593 4.7007256 -1.7520212
-3.2268944 4.6220474 -1.751217
-3.3359766 4.5407867 -1.7504264
-3.6539843 4.2855573 -1.749602
-3.8214746 4.2689166 -1.7799468
-4.1961327 4.2551422 -1.8565508
-4.4866309 4.1306758 -1.8945912
-4.7684374 3.7911589 -1.8925189
-4.8568649 3.6737249 -1.8918661
-5.1049118 3.3095593 -1.8900272
-5.1817188 3.1844401 -1.889455
-5.2555175 3.057586 -1.8889036
-5.3262792 2.9290466 -1.8883734
-5.3939548 2.7989185 -1.8878646
-5.4585156 2.6672559 -1.8873776
-5.5199218 2.5341351 -1.8869125
-5.5781641 2.3996348 -1.8864697
-5.7334962 1.9885962 -1.8852763
-5.8206639 1.709038 -1.8845956
-5.8592381 1.5678271 -1.8842901
-5.9263864 1.2829431 -1.88375
-5.9548535 1.1394196 -1.8835157
-5.9799705 0.99528378 -1.883305
-6.0198922 0.70547485 -1.8829565
-6.046123 0.41415587 -1.8827044
-6.0540428 0.26812744 -1.882615
-6.0585546 0.12195251 -1.8825496
-6.0595994 -0.024276122 -1.8825088
-6.0572071 -0.17048889 -1.8824927
-6.0420508 -0.46254149 -1.8825332
-6.0293064 -0.60823059 -1.8825903
-5.9441209 -1.1868097 -1.8830615
-5.9142966 -1.3300287 -1.8832399
-5.6652145 -2.171303 -1.8848114
-5.6121874 -2.3077927 -1.8851556
-5.5559669 -2.4430273 -1.8855227
-5.4965234 -2.5769155 -1.885913
-5.4339356 -2.7093947 -1.886326
-5.3682323 -2.8403838 -1.8867611
-4.9938865 -3.4705174 -1.8892676
-4.9101758 -3.5910861 -1.8898326
-4.8235841 -3.7096775 -1.8904186
-4.7341599 -3.826215 -1.8910251
-4.4495606 -4.1629052 -1.8929629
-4.3493748 -4.2706141 -1.8936477
-4.2466407 -4.3759437 -1.8943509
-4.1413965 -4.4788523 -1.8950725
-4.0336618 -4.5792718 -1.895812
-3.9235644 -4.6771345 -1.8965691
-3.8111131 -4.7724028 -1.8973435
-3.5794237 -4.9548907 -1.8989422
-3.3391407 -5.126297 -1.9006039
-2.834707 -5.4342566 -1.9041046
-2.7040331 -5.5037055 -1.9050138
-2.3022265 -5.6932473 -1.9078149
-2.1652734 -5.75002 -1.9087716
-2.0268946 -5.803535 -1.909739
-1.7463477 -5.9006333 -1.9117029
-1.4611523 -5.9842715 -1.9137026
-1.1719531 -6.0542178 -1.9157339
-1.0260839 -6.0839896 -1.9167597
-0.8794238 -6.11027 -1.917792
-0.58424801 -6.1522503 -1.919872
-0.13791016 -6.1885343 -1.9230233
0.16100585 -6.1947851 -1.9251379
0.31060547 -6.1925035 -1.9261974
0.4601953 -6.1866088 -1.9272578
0.60969722 -6.1770988 -1.9283181
0.90798825 -6.1472344 -1.9304366
1.2048438 -6.1029387 -1.9325483
1.3525097 -6.0753913 -1.9335998
1.4995313 -6.0442595 -1.9346478
1.9359277 -5.929492 -1.937763
2.2220898 -5.8353415 -1.9398103
2.6424804 -5.6681151 -1.9428244
2.7798924 -5.6055417 -1.9438113
3.0501561 -5.4703617 -1.9457554
3.182832 -5.3978143 -1.9467112
3.4428711 -5.2430115 -1.9485873
3.5700586 -5.1608477 -1.9495065
3.6952734 -5.0755486 -1.9504123
3.8184178 -4.9871845 -1.9513041
3.9394238 -4.8957934 -1.9521817
4.0582228 -4.8014178 -1.9530441
4.1746874 -4.7041392 -1.9538907
4.5096583 -4.3953247 -1.9563323
4.6162696 -4.2869239 -1.9571117
4.9198437 -3.9462633 -1.9593385
5.1978321 -3.5838027 -1.9613888
5.5999703 -2.9365425 -1.9643832
5.8628612 -2.3855312 -1.9663697
5.973711 -2.1008017 -1.9672194
6.1134081 -1.6641042 -1.9683077
6.1527538 -1.5163574 -1.9686201
6.2204685 -1.2180694 -1.9691675
6.2734079 -0.91672724 -1.9696108
6.3402243 -0.15497009 -1.9702575
6.3422751 -0.0019476318 -1.970307
6.3405566 0.15111145 -1.9703295
6.2958984 0.76144284 -1.9701525
6.2510448 1.0641894 -1.9699043
6.2230368 1.2146167 -1.9697403
6.1912889 1.3643079 -1.9695495
6.1168261 1.661037 -1.9690901
5.9779782 2.0982153 -1.968207
5.8072848 2.5237005 -1.9670956
5.7434669 2.662528 -1.9666754
5.6056933 2.9351666 -1.9657623
5.3744726 3.3303509 -1.9642155
5.2044921 3.583678 -1.96307
4.8285837 4.0633392 -1.9605181
4.7274704 4.1771894 -1.9598285
3.9736426 4.2604423 -1.8098907
3.8512402 4.3343081 -1.8012576
3.634619 4.5113287 -1.7997645
3.5231836 4.5957537 -1.7989949
3.2944531 4.7561932 -1.7974123
3.177295 4.832128 -1.7966001
3.0583496 4.9051337 -1.7957748
2.9377246 4.9751811 -1.7949371
2.691709 5.1062503 -1.7932254
2.5664551 5.1672039 -1.7923526
2.4397948 5.2250495 -1.7914691
2.1826758 5.3313313 -1.7896731
1.5211231 5.5409112 -1.7850378
1.3862305 5.5730376 -1.7840903
1.2506933 5.6018729 -1.7831373
1.1145507 5.6273942 -1.7821794
0.97789061 5.6496015 -1.781217
0.56573242 5.6962247 -1.7783099
0.42790037 5.7050934 -1.7773362
0.014082031 5.7116728 -1.7744083
-0.12370117 5.7072062 -1.773432
-0.26123047 5.6994233 -1.7724566
-0.53531247 5.6739469 -1.7705106
-0.80756831 5.6353421 -1.7685745
-0.94280273 5.6111579 -1.7676116
-1.0773339 5.5837421 -1.7666531
-1.4760449 5.4823356 -1.7638075
-2.3681445 5.1374478 -1.7574136
-2.7295313 4.9453506 -1.7548116
-2.8466797 4.8756962 -1.7539663
-3.1874316 4.6504717 -1.751503
-3.4050195 4.4872208 -1.7499255
-3.6144238 4.3139505 -1.7484035
-3.938535 4.2646942 -1.8034393
-4.1268554 4.2577448 -1.8420874
-4.3233981 4.2502971 -1.8834671
-4.4514356 4.1697745 -1.8948492
-4.6439843 3.9472063 -1.8934354
-4.7361717 3.8326225 -1.8927566
-5.0767579 3.3538268 -1.8902366
-5.1546192 3.2293537 -1.8896569
-5.3013573 2.9751647 -1.8885604
-5.3701172 2.8456085 -1.8880441
-5.6138864 2.3124976 -1.8861969
-5.6668262 2.175905 -1.8857909
-5.7165332 2.0381048 -1.8854077
-5.7629395 1.8992077 -1.8850476
-5.8458495 1.618385 -1.8843967
-5.9450684 1.1907824 -1.8835968
-5.9713669 1.0468585 -1.8833777
-5.994287 0.90235835 -1.8831825
-6.0137501 0.75739563 -1.8830117
-6.0298338 0.61200011 -1.8828646
-6.0424414 0.46629211 -1.8827423
-6.0596189 0.027987059 -1.8825207
-6.0584569 -0.11824707 -1.8824955
-5.9539552 -1.1354669 -1.8830035
-5.9253416 -1.2789342 -1.8831733
-5.6315231 -2.2591629 -1.8850299
-5.5764356 -2.3948512 -1.8853887
-5.4566603 -2.6622293 -1.8861758
-5.3920507 -2.7937438 -1.8866032
-5.2535448 -3.0521405 -1.8875247
-5.1797166 -3.1788516 -1.8880185
-5.102881 -3.3038254 -1.8885339
-5.0231347 -3.4269607 -1.8890704
-4.9404197 -3.5482283 -1.8896283
-4.8548536 -3.6675305 -1.8902068
-4.7664647 -3.7848091 -1.8908057
-4.6752539 -3.9000115 -1.8914251
-4.4847264 -4.1238599 -1.8927231
-4.3854685 -4.2323909 -1.8934008
-4.1792674 -4.4423671 -1.8948126
-4.0724511 -4.5436659 -1.8955456
-3.9631834 -4.6424613 -1.8962966
-3.7376463 -4.8322167 -1.89785
-3.5031347 -5.0111976 -1.8994693
-3.3826854 -5.0965018 -1.9003026
-3.135664 -5.2585058 -1.9020143
-3.0092578 -5.3351007 -1.9028916
-2.8809764 -5.4086967 -1.903783
-2.7509179 -5.4792423 -1.9046874
-2.4857812 -5.6110177 -1.9065344
-2.3508105 -5.6721697 -1.9074758
-2.0765135 -5.784791 -1.909392
-1.9372948 -5.8361883 -1.9103658
-1.6551563 -5.9289846 -1.9123418
-1.5124023 -5.9703269 -1.9133432
-1.3686132 -6.0082474 -1.9143524
-1.2239063 -6.0427361 -1.9153689
-1.0783007 -6.073751 -1.9163924
-0.78484374 -6.1252985 -1.9184581
-0.63715822 -6.1457868 -1.9194988
0.10755859 -6.1947274 -1.9247595
0.25714844 -6.1937346 -1.9258188
0.70566404 -6.1690803 -1.9289995
0.85478514 -6.1536326 -1.9300586
1.1519336 -6.1119103 -1.9321716
1.2997949 -6.0856462 -1.9332244
1.593623 -6.022367 -1.9353187
1.7394238 -5.9853735 -1.9363595
1.8843554 -5.9448357 -1.9373945
2.1712792 -5.853189 -1.9394466
2.3131053 -5.8021269 -1.9404621
2.4536426 -5.7476072 -1.9414694
2.7309473 -5.6282945 -1.9434597
3.1356151 -5.4241157 -1.9463708
3.2671776 -5.3494773 -1.9473193
3.7746484 -5.0191154 -1.9509869
4.016006 -4.8354878 -1.9527373
4.2483106 -4.6401019 -1.9544264
4.3608594 -4.5381436 -1.9552466
4.4709373 -4.4334126 -1.9560494
4.8849902 -3.988024 -1.9590821
5.1661425 -3.6280513 -1.9611545
5.2539158 -3.5034976 -1.9618042
5.4986715 -3.1171677 -1.9636248
5.5738964 -2.9844198 -1.9641877
5.6458397 -2.8498333 -1.9647276
5.7797265 -2.5754526 -1.9657378
5.8415918 -2.4358163 -1.9662079
6.0063281 -2.0081699 -1.9674715
6.0541892 -1.8630047 -1.9678434
6.2391014 -1.121546 -1.9693214
6.3385644 -0.20965332 -1.9702334
6.3419824 -0.056629639 -1.9702924
6.3416014 0.09642151 -1.9703245
6.337451 0.24941894 -1.9703301
6.3178024 0.55486757 -1.9702606
6.3023338 0.70714295 -1.9701858
6.2601562 1.0102649 -1.9699565
6.1689844 1.4600531 -1.9694135
6.0898242 1.7555432 -1.9689206
5.9962106 2.0466919 -1.9683242
5.9440722 2.1904192 -1.9679879
5.8884082 2.3327844 -1.9676263
5.829248 2.4737072 -1.9672396
5.7666502 2.6130993 -1.9668282
5.700664 2.7508783 -1.9663925
5.5586228 3.0212743 -1.9654487
5.4827051 3.1537116 -1.9649414
5.4035254 3.2842035 -1.9644107
5.3212109 3.4126732 -1.9638572
5.2357616 3.5390539 -1.9632812
5.147285 3.6632452 -1.9626831
4.9613476 3.9048016 -1.9614221
4.8640232 4.022027 -1.9607596
4.763906 4.1368012 -1.9600772
4.6376367 4.2277055 -1.9495431
4.4277539 4.2364397 -1.9037367
4.2271485 4.2445979 -1.8610066
4.0351171 4.2522149 -1.821116
3.8889842 4.3015594 -1.8015172
3.7825291 4.3923626 -1.8007845
3.6739354 4.4804912 -1.8000357
3.563252 4.5659027 -1.7992717
3.2193553 4.805325 -1.796892
2.7361035 5.0837259 -1.7935345
2.0990429 5.3627863 -1.7890884
1.5691601 5.5286283 -1.785375
0.88986325 5.6621099 -1.7805967
0.75253904 5.6788483 -1.7796284
0.61497068 5.6922464 -1.7786574
0.47716796 5.7023053 -1.7776843
0.2012793 5.7124152 -1.7757336
0.063320309 5.7124639 -1.774757
-0.074482419 5.7091851 -1.7737808
-0.21209961 5.7025847 -1.7728051
-0.34945312 5.6926761 -1.7718304
-0.6230371 5.6629643 -1.7698871
-1.0293262 5.5939093 -1.7669952
-1.2966406 5.5317569 -1.7650888
-1.5603613 5.4569221 -1.7632048
-1.8198925 5.369627 -1.7613477
-2.0746973 5.2700982 -1.7595211
-2.5677929 5.0354352 -1.7559772
-2.6872265 4.9695697 -1.7551166
-2.9210644 4.8294864 -1.7534294
-3.2582226 4.5991278 -1.7509902
-3.3667285 4.5171342 -1.7502033
-3.5776074 4.3456364 -1.7486714
-3.8730567 4.2670636 -1.7902511
-4.2521677 4.2530193 -1.8683522
-4.4159179 4.2086029 -1.8951095
-4.5144825 4.0992413 -1.8943869
-4.6103516 3.9876299 -1.8936828
-4.7035351 3.8738165 -1.8929971
-5.048213 3.3978674 -1.8904487
-5.1271386 3.2740459 -1.8898617
-5.2030759 3.148432 -1.8892955
-5.4126954 2.7615063 -1.8877233
-5.5941696 2.3610265 -1.8863474
-5.6482811 2.2248547 -1.8859333
-5.6991501 2.0874791 -1.8855419
-5.7467284 1.9489709 -1.8851736
-5.8320117 1.6688501 -1.884506
-5.869658 1.5273846 -1.8842074
-5.9348536 1.2420672 -1.8836807
-5.9864941 0.95406795 -1.8832495
-6.0072069 0.80924499 -1.8830698
-6.0383301 0.51839596 -1.8827832
-6.0487399 0.37252074 -1.8826764
-6.0079002 -0.794967 -1.8826993
-5.9873338 -0.93976498 -1.8828119
-5.935957 -1.2277288 -1.8831098
-5.8710351 -1.5130193 -1.8835044
-5.8335352 -1.6544518 -1.8837376
-5.7011328 -2.0730176 -1.8845794
-5.5393357 -2.4813585 -1.8856317
-5.4789844 -2.6148512 -1.8860284
-5.4155078 -2.7469215 -1.8864479
-5.3488965 -2.8774722 -1.8868896
-5.2791891 -3.0064442 -1.8873534
-5.2064452 -3.1337657 -1.8878397
-5.1306934 -3.2593606 -1.8883471
-5.0519528 -3.3831756 -1.8888763
-4.7983494 -3.7431319 -1.8905896
-4.7081637 -3.8590789 -1.8912014
-4.6152048 -3.9729025 -1.8918338
-4.5195508 -4.0845199 -1.8924853
-4.3203321 -4.3009043 -1.8938464
-4.0025096 -4.6074505 -1.8960263
-3.7786229 -4.7990928 -1.8975674
-3.6632519 -4.8909221 -1.8983634
-3.5456836 -4.9800267 -1.8991752
-3.4259667 -5.0663404 -1.900003
-3.3041699 -5.1498203 -1.900846
-3.1804004 -5.2304101 -1.9017041
-2.9270215 -5.3827467 -1.9034629
-2.7976172 -5.4543815 -1.9043626
-2.666455 -5.5229521 -1.9052756
-2.5336425 -5.5883965 -1.9062008
-2.3992286 -5.6506815 -1.9071382
-2.2632811 -5.7097721 -1.908087
-1.7059375 -5.9133935 -1.911986
-1.4201269 -5.9950938 -1.9139907
-1.1304296 -6.0630679 -1.916026
-0.83748043 -6.1171203 -1.9180874
-0.54196286 -6.1570792 -1.9201702
-0.3934668 -6.1717319 -1.9212183
0.054111328 -6.1942081 -1.9243814
0.6523242 -6.1737247 -1.9286208
0.95043945 -6.1418009 -1.9307384
1.0989844 -6.1204224 -1.9317949
1.3945215 -6.0668716 -1.9338992
1.6874218 -5.999002 -1.9359881
2.120332 -5.8705935 -1.939082
2.403496 -5.7674851 -1.94111
2.6818066 -5.650609 -1.9431068
3.3507714 -5.2998099 -1.9479223
3.7306249 -5.0506535 -1.9506681
3.8531444 -4.9614224 -1.9515557
3.9735253 -4.8691745 -1.9524292
4.09167 -4.7739649 -1.953287
4.4319043 -4.4711542 -1.9557648
4.5403318 -4.3646803 -1.9565563
4.6461716 -4.2555194 -1.9573306
4.8497849 -4.0294733 -1.9588236
4.947412 -3.9127095 -1.9595411
5.3087111 -3.4223073 -1.9622107
5.3914356 -3.2942433 -1.9628254
5.5473828 -3.0320749 -1.9639893
5.6205077 -2.898138 -1.9645373
5.6903319 -2.7624118 -1.9650625
5.8198633 -2.4858985 -1.9660424
5.8795214 -2.3452697 -1.9664968
5.9357028 -2.2031939 -1.9669272
5.988369 -2.0597506 -1.9673327
6.0374999 -1.9150198 -1.9677132
6.2289257 -1.1752594 -1.9692372
6.2797556 -0.87354672 -1.9696658
6.32792 -0.41711059 -1.9701108
6.3364549 -0.26430908 -1.9702059
6.3412008 -0.11132324 -1.9702744
6.339375 0.19475402 -1.9703312
6.3083005 0.65277278 -1.9702157
6.2687888 0.95626342 -1.9700052
6.2143455 1.2573925 -1.9696884
6.181582 1.4068524 -1.9694906
6.1451364 1.5554272 -1.9692664
6.1050487 1.7030401 -1.9690164
6.0140038 1.9950153 -1.9684384
5.9631152 2.139209 -1.9681109
5.850791 2.4235148 -1.9673806
5.7894235 2.563463 -1.9669781
5.6564646 2.8385417 -1.9660999
5.5849805 2.9734874 -1.9656243
5.4321876 3.2377985 -1.9646029
5.3509765 3.3669994 -1.9640576
5.2666602 3.4941394 -1.9634897
5.0888281 3.7418718 -1.9622873
4.9954295 3.8623235 -1.9616537
4.8991599 3.9804132 -1.9609991
4.8000097 4.0960722 -1.9603235
4.6981153 4.2092156 -1.959628
3.8208396 4.3602166 -1.8010483
3.7129784 4.4493084 -1.8003051
3.491035 4.619328 -1.7987728
3.3770506 4.7001691 -1.7979842
3.2612109 4.7781534 -1.797182
3.024121 4.9254193 -1.7955371
2.9030273 4.994616 -1.7946957
2.7803319 5.0608096 -1.7938423
2.4034374 5.2409806 -1.7912153
2.0149803 5.3929167 -1.7885001
1.883291 5.43716 -1.787578
1.6170703 5.5159268 -1.7857113
1.482705 5.5504084 -1.784768
1.3476269 5.5816007 -1.783819
1.2119043 5.6094937 -1.7828645
1.0756152 5.6340714 -1.7819052
0.93882811 5.6553264 -1.7809417
0.52643555 5.6990933 -1.7780325
0.25058594 5.7115884 -1.7760824
-0.16295898 5.7053251 -1.7731537
-0.30041993 5.6965995 -1.7721786
-0.43754882 5.684567 -1.7712051
-0.57429689 5.66924 -1.7702334
-0.8462109 5.6287699 -1.7682996
-0.98124021 5.6036639 -1.7673378
-1.1155859 5.5753336 -1.7663803
-1.2491211 5.5437956 -1.7654278
-1.3817968 5.5090861 -1.7644806
-1.5135156 5.4712162 -1.7635397
-1.7738671 5.3861332 -1.7616774
-1.9023046 5.338964 -1.7607572
-2.0295508 5.2887678 -1.7598449
-2.1554589 5.2355642 -1.7589417
-2.4031055 5.1202884 -1.7571621
-2.7631152 4.9257636 -1.7545694
-2.8797948 4.8553267 -1.7537274
-3.1077733 4.7062945 -1.7520796
-3.2189453 4.6278095 -1.7512747
-3.4354002 4.4631119 -1.7497048
-3.6435742 4.2884502 -1.7481914
-3.8085155 4.2693782 -1.7773733
-4.1820602 4.255672 -1.8536035
-4.3800879 4.247117 -1.8953719
-4.4795408 4.1385846 -1.8946432
-4.576406 4.0277762 -1.8939321
-4.670547 3.9147394 -1.89324
-4.8505955 3.682265 -1.8919125
-4.936367 3.5629387 -1.891278
-5.0192871 3.4416692 -1.8906634
-5.1762695 3.1935234 -1.8894955
-5.321279 2.9383671 -1.8884109
-5.5740623 2.4093816 -1.8865008
-5.6293359 2.2736566 -1.8860787
-5.7300973 1.998598 -1.8853027
-5.7755857 1.8593987 -1.8849488
-5.8920703 1.4360358 -1.8840277
-5.9241891 1.2932647 -1.8837678
-5.9529295 1.1497906 -1.8835318
-5.9782615 1.0056988 -1.8833196
-6.0001855 0.86105102 -1.8831314
-6.0337892 0.57046932 -1.8828273
-6.0428414 -0.45202574 -1.8825302
-6.0144138 -0.74310726 -1.8826649
-5.9950781 -0.88807553 -1.8827689
-5.9723144 -1.0325451 -1.882897
-5.9461327 -1.176455 -1.8830496
-5.8836327 -1.4622674 -1.8834269
-5.8473144 -1.6040066 -1.8836515
-5.7647266 -1.8847708 -1.8841722
-5.7184567 -2.0236521 -1.8844681
-5.6689062 -2.1614163 -1.8847876
-5.4385448 -2.6998971 -1.8862954
-5.3730369 -2.8309948 -1.8867294
-5.1581149 -3.2146771 -1.8881632
-5.0804296 -3.3391423 -1.8886847
-4.8299217 -3.7011917 -1.8903756
-4.7407227 -3.8178833 -1.8909805
-4.6487498 -3.9324787 -1.8916055
-4.4566798 -4.1550531 -1.8929144
-4.3566895 -4.2629261 -1.8935977
-4.1490722 -4.4715171 -1.8950198
-3.704746 -4.8584127 -1.898077
-3.2248633 -5.2019453 -1.9013958
-2.8440623 -5.429132 -1.9040396
-2.1751757 -5.7460375 -1.9087024
-2.0369239 -5.7997918 -1.9096688
-1.8973535 -5.8502402 -1.9106454
-1.7565429 -5.8973618 -1.9116315
-1.4715039 -5.9814897 -1.91363
-1.3274121 -6.0184398 -1.9146417
-1.1824609 -6.0519323 -1.91566
-0.89002925 -6.1084905 -1.9177172
-0.44657224 -6.1669059 -1.9208434
-0.29780272 -6.1792607 -1.9218936
-0.1486914 -6.1880431 -1.9229472
0.00067382812 -6.1932249 -1.9240032
0.29981443 -6.1927896 -1.9261211
0.44941404 -6.1871567 -1.9271814
0.59890622 -6.1779084 -1.9282417
0.7482422 -6.1650434 -1.9293017
1.045957 -6.12848 -1.9314177
1.1941601 -6.1047888 -1.9324722
1.6353222 -6.0121713 -1.9356163
1.9255078 -5.9326282 -1.9376886
2.0691893 -5.8875556 -1.9387161
2.4935644 -5.7314248 -1.9417558
3.4336231 -5.2488217 -1.9485204
3.5609667 -5.1668692 -1.9494406
3.6863279 -5.0817976 -1.9503475
3.8096092 -4.9936571 -1.9512402
4.1663866 -4.7112479 -1.9538302
4.2806735 -4.6112947 -1.9546621
4.392539 -4.5085468 -1.9554774
