# .PCD v0.7 - Point Cloud Data file format
VERSION 0.7
FIELDS x y z
SIZE 4 4 4
TYPE F F F
COUNT 1 1 1
WIDTH 1499
HEIGHT 1
VIEWPOINT 0 0 0 1 0 0 0
POINTS 1499
DATA ascii
-1.0835449 -8.1562929 -1.7634362
-0.88714844 -8.186573 -1.7648386
-0.68994141 -8.2121382 -1.7662479
-0.49200195 -8.2329893 -1.7676632
-0.29344726 -8.2490864 -1.7690845
0.10499023 -8.2669678 -1.7719394
0.50448239 -8.2656307 -1.7748061
0.904082 -8.2449913 -1.7776784
1.8974414 -8.1087751 -1.7848376
2.0941796 -8.0670595 -1.7862588
2.6784766 -7.9131608 -1.7904868
2.8708496 -7.8523436 -1.7918811
3.0618165 -7.786809 -1.7932665
3.6252441 -7.5621982 -1.7973609
3.9917285 -7.3894706 -1.8000302
4.1719141 -7.2963376 -1.8013445
4.5255079 -7.0967522 -1.8039275
4.6986914 -6.9904099 -1.8051946
5.3649707 -6.5226951 -1.8100827
5.5243554 -6.3954883 -1.8112556
6.2288961 -6.2359362 -1.8890285
7.3933592 -5.5183349 -1.9772717
7.5281539 -5.3410802 -1.9782797
7.7846093 -4.9765387 -1.9802034
7.906074 -4.7894926 -1.9811178
8.0228806 -4.5993862 -1.9819995
8.1349897 -4.4063706 -1.9828482
8.2423239 -4.210536 -1.9836631
8.4423237 -3.8109748 -1.9851898
8.5348825 -3.6074624 -1.9859006
8.6223631 -3.4016533 -1.9865756
8.853857 -2.771647 -1.988381
8.9204979 -2.557915 -1.9889081
9.0883198 -1.907351 -1.9902613
9.1333981 -1.6878304 -1.990635
9.294199 -0.12856261 -1.9921461
9.2948732 0.09571106 -1.9922024
9.2793941 0.54398072 -1.9921938
9.2632618 0.76769102 -1.9921293
9.2415524 0.99090147 -1.9920247
9.2142868 1.2135034 -1.9918799
8.9953022 2.3121202 -1.9905603
8.935195 2.5279791 -1.9901785
8.6416893 3.3740277 -1.9882661
8.4638081 3.7847173 -1.9870837
6.9589548 4.9003482 -1.824137
6.8355079 5.064467 -1.8232888
6.7081051 5.2253885 -1.8224114
6.3029003 5.6881204 -1.8196096
6.1604981 5.8353558 -1.8186215
6.0145407 5.9789629 -1.8176073
5.8651757 6.1188226 -1.8165673
5.7125192 6.2548709 -1.8155032
3.9935155 6.2140298 -1.5831141
3.3864062 6.2163825 -1.5171659
3.0077832 6.2178435 -1.4803436
2.825078 6.2185502 -1.463853
2.6462793 6.2192364 -1.4485593
2.2991796 6.2205729 -1.4213508
1.9641016 6.2218595 -1.3983401
1.8004102 6.222486 -1.3883108
1.1657715 6.2249103 -1.3573217
1.011084 6.2254987 -1.3517361
0.70500976 6.2266631 -1.3430301
0.55329102 6.2272382 -1.3398849
0.40216795 6.2278104 -1.3375299
0.099726558 6.1451797 -1.3172131
-0.35048828 6.2345915 -1.338313
-0.65348631 6.2357306 -1.3437663
-0.9596777 6.2368793 -1.3524252
-1.4282616 6.2386322 -1.3716619
-1.7492383 6.2398286 -1.3888803
-1.9129492 6.2404375 -1.3988836
-2.2480567 6.241684 -1.4218445
-2.4199805 6.242321 -1.4348767
-2.5951757 6.242969 -1.4489993
-2.7739649 6.2436295 -1.4642663
-2.95666 6.2443061 -1.4807276
-3.3352344 6.2457023 -1.5174876
-3.5318847 6.2464261 -1.5379249
-3.9421289 6.2479348 -1.5833269
-4.970449 6.412519 -1.7388676
-5.1204977 6.2867866 -1.7377762
-5.2674217 6.1575665 -1.7366922
-5.4111228 6.0250039 -1.7356308
-5.5516114 5.8891606 -1.7345915
-5.9527636 5.4628386 -1.7316153
-6.0795016 5.3147383 -1.730672
-6.2026658 5.1637564 -1.7297537
-6.322197 5.0100203 -1.7288607
-6.4379978 4.8535881 -1.7279937
-6.5500388 4.6945696 -1.7271534
-6.6582713 4.5330305 -1.7263399
-6.9807029 4.274838 -1.7543632
-7.6580758 4.1957169 -1.8714923
-7.7540331 4.0081573 -1.8707608
-7.9325681 3.6267803 -1.8693924
-8.0149994 3.4331737 -1.8687564
-8.2347851 2.8418858 -1.867044
-8.2987013 2.6416717 -1.8665394
-8.4620895 2.0331378 -1.8652276
-8.5069723 1.8280084 -1.8648586
-8.5823336 1.4150183 -1.8642231
-8.6589842 0.79031247 -1.8635299
-8.6856928 0.37162781 -1.8632427
-8.692812 -0.04779968 -1.8630954
-8.6803713 -0.46708494 -1.8630886
-8.6667871 -0.67638975 -1.8631381
-8.525918 -1.7152606 -1.863911
-8.483242 -1.9207439 -1.8641702
-8.1983595 -2.930608 -1.8659832
-8.1273041 -3.1283276 -1.8664477
-8.0516014 -3.3243978 -1.8669461
-7.9713182 -3.5186834 -1.8674777
-7.8864746 -3.7111146 -1.8680422
-7.6051168 -4.276103 -1.8699319
-7.5025291 -4.4599948 -1.8706259
-7.3955956 -4.6415186 -1.8713516
-6.6663475 -5.6750193 -1.8763479
-6.3912792 -5.9960623 -1.8782482
-6.2480664 -6.1517782 -1.8792403
-5.4571676 -6.2123251 -1.7721988
-5.2026267 -6.2189918 -1.7377734
-4.8929491 -6.4579391 -1.73649
-4.5814843 -6.6948495 -1.7386706
-4.4214549 -6.8078375 -1.7397932
-4.2587304 -6.9170713 -1.7409359
-3.7549412 -7.2216439 -1.7444812
-3.5820994 -7.3152452 -1.7456999
-3.4069726 -7.4047809 -1.746936
-3.2296288 -7.4901934 -1.7481891
-3.050205 -7.5714231 -1.749458
-1.7432128 -8.0187216 -1.758734
-1.3564941 -8.1061544 -1.7614889
-1.1614257 -8.1429491 -1.7628802
-0.96541011 -8.175087 -1.7642795
-0.76847655 -8.2025366 -1.7656863
-0.3725 -8.2432613 -1.7685183
-0.17366211 -8.256485 -1.7699423
0.42496094 -8.2674265 -1.7742352
0.62481445 -8.2614441 -1.7756708
1.0242969 -8.2349892 -1.7785434
1.2236718 -8.2145071 -1.7799786
1.422627 -8.1891823 -1.781412
1.6211133 -8.1590261 -1.7828431
1.8189257 -8.1240387 -1.7842706
2.0160351 -8.0842323 -1.7856942
2.6015625 -7.9360313 -1.7899297
2.9860058 -7.8134418 -1.7927165
3.364619 -7.6720471 -1.7954655
3.7364061 -7.5121102 -1.7981701
4.1004977 -7.3339262 -1.8008235
4.2793651 -7.2381058 -1.802129
4.4559083 -7.1378551 -1.8034186
4.6300974 -7.0332313 -1.8046926
5.137197 -6.6937046 -1.8084092
5.3007126 -6.5721726 -1.8096104
6.9038377 -6.0940213 -1.9736273
7.0528026 -5.9290075 -1.9747338
7.3385057 -5.5878954 -1.9768622
7.6072459 -5.2327051 -1.9788721
7.7350292 -5.0500932 -1.9798309
7.8582907 -4.8642664 -1.9807577
7.9769626 -4.6753755 -1.9816527
8.0909662 -4.4834886 -1.9825146
8.2002048 -4.2887745 -1.9833431
8.498662 -3.6887119 -1.9856222
8.6725874 -3.27666 -1.9869643
8.7518158 -3.0674016 -1.987581
8.8258295 -2.8561971 -1.9881606
8.894619 -2.6431386 -1.988703
9.1161127 -1.7753061 -1.990491
9.1942091 -1.3339173 -1.9911524
9.2249708 -1.1118432 -1.9914242
9.2698336 -0.66567689 -1.9918481
9.2839155 -0.44187683 -1.9920003
9.2924023 -0.21777527 -1.9921126
9.2952833 0.0064965817 -1.9921849
9.2925682 0.23075439 -1.9922167
9.2703609 0.67873716 -1.99216
9.2258101 1.1250286 -1.9919424
9.1952047 1.3471862 -1.9917736
9.1590719 1.5684729 -1.9915652
9.0177145 2.2258148 -1.9907012
8.827734 2.8704431 -1.9894857
8.6746187 3.2912891 -1.9884835
8.5008202 3.7037506 -1.9873308
8.306797 4.1068277 -1.9860308
8.0444918 4.2216754 -1.9471087
7.1246676 4.6658111 -1.8252722
6.8850975 4.9995499 -1.8236297
6.7592673 5.1617632 -1.8227639
6.6295018 5.3207254 -1.8218691
6.3585644 5.6285467 -1.8199955
6.0730076 5.9222722 -1.8180137
5.9250293 6.0636234 -1.8169842
4.7529588 6.211081 -1.6762118
4.5202732 6.2119842 -1.6465359
4.2955174 6.2128582 -1.6188164
3.6628711 6.2153106 -1.5461888
3.4640527 6.2160821 -1.5251391
2.7169628 6.2189655 -1.4545038
2.1971288 6.2209649 -1.4139962
1.7029296 6.222858 -1.3827261
1.5427246 6.2234721 -1.3741904
1.0724707 6.2252641 -1.3538594
0.91849607 6.2258501 -1.3487723
0.61356443 6.2270098 -1.3410417
0.46222654 6.2275825 -1.3383723
0.15884766 6.1488957 -1.3182755
0.010439453 6.1455169 -1.3171136
-0.2863867 6.146636 -1.3187808
-0.44147459 6.2349334 -1.3396223
-0.59299803 6.2355046 -1.3424276
-0.89844728 6.2366495 -1.3504434
-1.0527148 6.2372284 -1.3556749
-1.2082813 6.2378106 -1.3617419
-1.5240819 6.2389898 -1.3764642
-1.8475391 6.2401934 -1.3947898
-2.0127051 6.2408085 -1.4053758
-2.1805174 6.2414312 -1.4169538
-2.5250585 6.2427092 -1.4432473
-2.8834863 6.2440348 -1.4740313
-3.0687108 6.2447195 -1.4912428
-3.2584178 6.245419 -1.5097479
-3.4530175 6.2461371 -1.529622
-4.2893357 6.2492094 -1.6244801
-4.7559471 6.5827847 -1.7405319
-4.9099998 6.4616876 -1.7393374
-5.2093358 6.209373 -1.737121
-5.3543553 6.0781279 -1.7360502
-5.6345897 5.8058219 -1.733977
-5.7696776 5.6649151 -1.7329755
-6.3923826 4.9161406 -1.7283355
-6.5059276 4.7581306 -1.7274847
-6.615654 4.5975919 -1.7266604
-6.7325001 4.4417939 -1.7286696
-7.5923533 4.2549701 -1.8653314
-7.7163672 4.083034 -1.871048
-7.8096871 3.8941815 -1.8703353
-7.8984861 3.7032819 -1.8696543
-7.9827538 3.5104132 -1.8690054
-8.0624609 3.3157067 -1.8683889
-8.1375685 3.1192369 -1.867805
-8.273838 2.7215106 -1.8667361
-8.4896975 1.9097388 -1.8650012
-8.6012306 1.2900573 -1.864059
-8.6513281 0.87343991 -1.8636039
-8.6690817 0.66437989 -1.8634287
-8.6819429 0.45500609 -1.8632885
-8.6898928 0.24538024 -1.8631835
-8.6929588 0.035648804 -1.8631135
-8.6843939 -0.3837274 -1.8630788
-8.6562595 -0.80226499 -1.8631849
-8.6348925 -1.0109271 -1.8632905
-8.608613 -1.2190667 -1.8634313
-8.5775099 -1.4265405 -1.8636069
-8.5007906 -1.8391098 -1.864063
-8.4552145 -2.0439866 -1.864343
-8.4048433 -2.2477608 -1.8646579
-8.2253609 -2.8515036 -1.8658074
-8.1561232 -3.04987 -1.866259
-8.0822849 -3.2466002 -1.8667437
-8.0038185 -3.441618 -1.8672621
-7.9207811 -3.6347873 -1.8678137
-7.8332324 -3.8260396 -1.8683981
-7.5438571 -4.3871226 -1.8703461
-7.2154002 -4.9271088 -1.8725793
-6.7192087 -5.6096849 -1.8759836
-6.3055077 -6.0902238 -1.8788421
-6.1112304 -6.1944785 -1.8649595
-5.83042 -6.2022614 -1.8244113
-5.5612302 -6.2095532 -1.7865533
-4.9535155 -6.4091167 -1.7360666
-4.6443458 -6.6488833 -1.7382301
-4.4854493 -6.7633328 -1.739344
-4.1594334 -6.9810157 -1.7416335
-3.8230369 -7.1832891 -1.7440014
-3.6511426 -7.2784872 -1.7452128
-3.3004589 -7.4567065 -1.7476885
-3.1218262 -7.5396128 -1.7489512
-2.9412012 -7.6182933 -1.7502291
-2.7585645 -7.6927252 -1.7515228
-2.5740623 -7.7628288 -1.7528307
-2.1999316 -7.8899012 -1.7554862
-2.0104687 -7.9467716 -1.7568327
-1.6273047 -8.0469685 -1.7595593
-1.043496 -8.1628656 -1.7637221
-0.8469336 -8.192174 -1.7651258
-0.6495508 -8.2167883 -1.7665365
-0.45148435 -8.2366667 -1.7679532
-0.053710938 -8.262145 -1.7708017
0.94489259 -8.2417936 -1.7779719
1.3435156 -8.1998377 -1.7808419
1.5422168 -8.1716003 -1.7822741
1.7402929 -8.1385317 -1.7837033
2.1342773 -8.0579433 -1.7865487
2.3299217 -8.0104389 -1.7879635
2.524492 -7.9581552 -1.7893716
3.8468945 -7.4603624 -1.7989749
4.0287204 -7.3708115 -1.8003
4.2084179 -7.2767553 -1.8016109
4.3859472 -7.1782584 -1.8029075
4.5610743 -7.075388 -1.8041875
4.9039159 -6.8566437 -1.806698
5.0713573 -6.7409043 -1.8079258
5.2360058 -6.6210275 -1.8091348
5.9987597 -6.2407107 -1.8552369
6.2893357 -6.234663 -1.898012
6.5936031 -6.228147 -1.9439073
6.8434567 -6.1586332 -1.9731792
7.4212203 -5.4824142 -1.9774798
7.5551658 -5.3044457 -1.9784819
7.6847363 -5.1231251 -1.9794531
7.9302831 -4.7508941 -1.9813005
8.0461521 -4.5601768 -1.9821756
8.2636623 -4.1702099 -1.9838257
8.3651361 -3.971158 -1.9845992
8.4616604 -3.7695684 -1.9853381
8.8678904 -2.7281377 -1.9884917
9.0979681 -1.8625964 -1.9903408
9.141963 -1.6428372 -1.9907068
9.2626858 -0.75460994 -1.9917766
9.294795 -0.082739867 -1.9921609
9.2765627 0.58971983 -1.992184
9.2364454 1.0364575 -1.9919984
9.2080374 1.2588769 -1.9918456
9.1741018 1.4805396 -1.9916528
9.0393066 2.1392877 -1.9908365
8.9222364 2.5719116 -1.9900955
8.7838478 2.9979534 -1.9892
8.7067385 3.2082024 -1.9886949
8.6244526 3.4163733 -1.9881521
8.5370111 3.6224115 -1.9875718
8.3469915 4.0274625 -1.9863009
7.3982811 4.2550664 -1.8291649
7.2822361 4.4255047 -1.8263479
7.1703711 4.5979719 -1.8255848
7.0542579 4.7675629 -1.8247904
6.9340329 4.9341483 -1.823966
6.681582 5.2578726 -1.8222287
6.5495019 5.414844 -1.8213168
6.4136329 5.5684223 -1.8203769
6.2740917 5.7184844 -1.8194101
6.1309471 5.8649883 -1.8184164
5.9843163 6.0078483 -1.817397
5.6809082 6.2821989 -1.8152826
5.5243359 6.4135761 -1.8141888
4.6118555 6.2116275 -1.6581007
4.3840232 6.2125139 -1.6296182
3.9504688 6.2141972 -1.5781757
3.3468847 6.2165351 -1.5131593
2.9701171 6.2179899 -1.4768744
2.6102049 6.2193756 -1.4455781
2.435703 6.220048 -1.4316534
2.2644238 6.220706 -1.4188119
2.096123 6.2213531 -1.4070138
1.767246 6.2226129 -1.386378
1.2898535 6.2244363 -1.3623683
0.97962886 6.2256184 -1.3506973
0.67394531 6.2267804 -1.3423227
0.21792968 6.1486726 -1.3186163
-0.07887695 6.1458549 -1.3172919
-0.22726563 6.1464128 -1.3182043
-0.83738279 6.2364216 -1.3485898
-1.1462305 6.2375774 -1.3592267
-1.3026659 6.238162 -1.3658093
-1.6205859 6.2393498 -1.381593
-1.9466991 6.2405634 -1.4010458
-2.1134276 6.2411833 -1.4122266
-2.2829492 6.2418122 -1.4244217
-2.6313965 6.2431021 -1.4520242
-3.182373 6.2451396 -1.5022247
-3.3749902 6.2458487 -1.5215479
-3.5727344 6.2465777 -1.5422812
-3.7760742 6.2473259 -1.564512
-5.001328 6.3870535 -1.7386273
-5.1507907 6.2606487 -1.7375528
-5.5798926 5.8610148 -1.7343822
-5.7163672 5.7213349 -1.7333709
-5.8493848 5.5785685 -1.7323835
-5.9789648 5.4328132 -1.7314205
-6.2273927 5.1325517 -1.7295691
-6.5724707 4.6617498 -1.726985
-6.7834568 4.33529 -1.7253964
-7.0546579 4.2724638 -1.7676388
-7.4334569 4.26018 -1.8362495
-7.6780467 4.1575751 -1.8713403
-7.8637009 3.7794635 -1.8699216
-8.1082611 3.1976037 -1.8680331
-8.1805763 3.000133 -1.8674692
-8.3694429 2.398706 -1.8659762
-8.4229193 2.1955652 -1.8655459
-8.4716406 1.9913055 -1.8651495
-8.6923237 0.11908447 -1.8631371
-8.6779785 -0.50987548 -1.863096
-8.619648 -1.1363324 -1.8633713
-8.5904779 -1.3440955 -1.8635328
-8.5175877 -1.7573221 -1.8639611
-8.4739161 -1.9626043 -1.8642275
-8.4254684 -2.1668386 -1.8645284
-8.3722267 -2.3698862 -1.864864
-8.2515621 -2.7721691 -1.8656378
-8.1842089 -2.9711564 -1.8660754
-8.0355759 -3.3642421 -1.867052
-7.8686032 -3.7502074 -1.8681617
-7.7783594 -3.9402118 -1.8687657
-7.6836228 -4.1281481 -1.8694024
-7.3732324 -4.6783023 -1.8715038
-7.1449022 -5.032733 -1.8730611
-7.0244823 -5.2059202 -1.8738855
-6.8999901 -5.3763433 -1.8747396
-6.5025778 -5.8698611 -1.8774786
-6.2183299 -6.183197 -1.8794464
-5.162529 -6.2331729 -1.7346072
-5.0136814 -6.3597307 -1.7356461
-4.7067676 -6.6023426 -1.737793
-6.7186913 -4.1248803 -1.8763272
-6.6195898 -4.2873216 -1.8770012
-6.4099412 -4.6051598 -1.8784328
-6.2995114 -4.7603912 -1.8791897
-5.693418 -5.4961624 -1.8833703
-5.5618653 -5.634655 -1.8842825
-5.4269919 -5.7700653 -1.8852193
-5.2888865 -5.9023318 -1.88618
-5.1476364 -6.0313663 -1.887164
-5.003242 -6.1570878 -1.8881713
-4.7939649 -6.1993089 -1.8650964
-3.9157715 -6.2217627 -1.7496109
-3.6031249 -6.3893247 -1.745761
-3.4500487 -6.4783959 -1.7468389
-3.2948143 -6.5638571 -1.7479335
-3.1374707 -6.6456614 -1.7490437
-2.9781346 -6.7237482 -1.7501692
-2.6538086 -6.8685813 -1.7524633
-2.4889746 -6.9352231 -1.753631
-2.3224902 -6.997962 -1.754811
-1.9849023 -7.1115503 -1.7572074
-1.8139941 -7.1623173 -1.7584225
-1.6418164 -7.209013 -1.7596471
-1.4684179 -7.2516108 -1.7608817
-1.1185156 -7.3243632 -1.7633758
-0.94210935 -7.3544703 -1.7646345
-0.76495117 -7.3803473 -1.7658999
-0.58708984 -7.4019785 -1.7671713
-0.40864256 -7.4193468 -1.7684479
0.1293164 -7.4456615 -1.7723019
0.3091504 -7.4457912 -1.7735925
0.48906249 -7.4415841 -1.7748843
0.84871089 -7.4201231 -1.7774701
1.0282421 -7.4028673 -1.7787622
1.386162 -7.3552957 -1.7813413
1.5643359 -7.3249912 -1.7826269
1.9186132 -7.2513971 -1.7851859
2.0945117 -7.2081299 -1.7864581
2.6158495 -7.0526471 -1.7902347
2.957119 -6.9278283 -1.7927121
3.1255176 -6.8591409 -1.7939361
3.457412 -6.7094054 -1.796352
3.6206834 -6.6284189 -1.7975421
3.7820311 -6.5434198 -1.7987194
3.9413574 -6.4544392 -1.7998829
4.0985641 -6.3615284 -1.8010324
4.2535353 -6.2647357 -1.8021666
4.4604101 -6.239995 -1.8254842
4.6886425 -6.2356296 -1.8567675
5.1697459 -6.2258859 -1.925969
5.5721774 -6.0873485 -1.9640733
5.7206054 -5.9544573 -1.9651687
5.8657908 -5.8178825 -1.9662417
6.7838182 -4.7655296 -1.9730704
6.8998437 -4.6025047 -1.9739403
7.1197948 -4.2678699 -1.9755952
7.3230858 -3.9224942 -1.9771332
7.5091796 -3.5672216 -1.9785497
7.8958006 -2.6415246 -1.9815363
7.9592576 -2.4508731 -1.982035
8.0179396 -2.2586572 -1.9825003
8.0718555 -2.0649981 -1.9829315
8.1209469 -1.8700259 -1.9833283
8.2685156 -1.0794085 -1.9845682
8.3126955 -0.67941892 -1.9849769
8.3272848 -0.47869688 -1.9851276
8.3369045 -0.27766111 -1.9852427
8.3415041 -0.076441646 -1.9853219
8.3411131 0.12484009 -1.9853653
8.3098726 0.72774166 -1.9852788
8.264101 1.1276275 -1.9850421
8.158349 1.7218347 -1.9844193
8.1132812 1.9178948 -1.9841409
7.9491601 2.4983411 -1.9830962
7.7423534 3.0646203 -1.9817419
7.6641502 3.2496758 -1.9812231
7.4941602 3.6135321 -1.9800867
7.3064356 3.9682989 -1.9788208
7.2060938 4.1420026 -1.9781405
6.6124511 4.2377863 -1.8691881
6.3353515 4.2792754 -1.8195199
6.2277341 4.4290886 -1.818782
6.1164842 4.5761261 -1.8180174
5.7617383 4.9997711 -1.8155688
5.6367579 5.134881 -1.8147029
5.5085058 5.2667923 -1.8138131
5.3771191 5.3954496 -1.8128996
5.2426758 5.5207586 -1.8119636
5.1052442 5.6426544 -1.8110054
4.821836 5.875927 -1.8090253
4.6760254 5.9871736 -1.8080041
4.5275974 6.0947332 -1.8069639
4.3766794 6.1985626 -1.8059049
4.0676365 6.3947306 -1.8037202
3.9098437 6.4871793 -1.8026559
3.5445604 6.2156196 -1.7029136
3.1581836 6.2171173 -1.659601
2.9720507 6.2178364 -1.6401684
2.790117 6.2185392 -1.6221191
2.4375293 6.2198992 -1.5899129
2.0978808 6.2212076 -1.5625263
1.9322168 6.2218437 -1.5505224
1.7689843 6.2224698 -1.5395911
1.6079394 6.2230878 -1.5296969
1.4488574 6.2236958 -1.5208083
1.1357226 6.2248907 -1.5059417
0.98126954 6.2254791 -1.4999173
0.21954101 6.1485367 -1.4642456
0.07105469 6.1451578 -1.4626068
-0.077246092 6.1457171 -1.4627582
-0.37968749 6.2345695 -1.4865377
-0.83569336 6.2362823 -1.4974622
-1.1445019 6.2374368 -1.5092535
-1.4589453 6.2386112 -1.5248113
-1.6187891 6.2392068 -1.5340574
-1.7806933 6.239809 -1.5443227
-2.1115527 6.2410369 -1.5680379
-2.8089256 6.2436152 -1.629395
-2.9924219 6.2442923 -1.6479379
-3.3381054 6.5549431 -1.7506874
-3.4929199 6.4681525 -1.7495124
-3.6456053 6.3778706 -1.7483804
-3.7960253 6.2840981 -1.7472796
-4.0897169 6.0861554 -1.7451267
-4.2327929 5.9821024 -1.7440763
-4.3733106 5.8747611 -1.7430433
-4.5111423 5.7641778 -1.742029
-4.6462598 5.6504264 -1.7410333
-4.7785349 5.5335846 -1.7400573
-4.907949 5.4137015 -1.7391012
-5.0344334 5.2908673 -1.7381655
-5.1579199 5.1651382 -1.7372507
-5.2783103 5.0366035 -1.7363573
-5.3955564 4.9053202 -1.7354858
-5.7280273 4.4958062 -1.7330066
-5.8322263 4.3543448 -1.7322264
-6.6484861 4.2514958 -1.8781719
-6.748486 4.0894599 -1.8779948
-6.8425975 3.9239581 -1.8772815
-7.1010056 3.4152074 -1.8753109
-7.3227243 2.8900487 -1.8735995
-7.3883004 2.7117932 -1.8730882
-7.4496679 2.5320978 -1.8726068
-7.5067773 2.3510535 -1.8721554
-7.559629 2.1687658 -1.8717346
-7.6523633 1.8008527 -1.8709848
-7.6922359 1.6154144 -1.8706561
-7.7277441 1.4291278 -1.8703587
-7.7856054 1.0543939 -1.8698578
-7.8529687 0.10966125 -1.8691578
-7.8531442 -0.079835206 -1.8691131
-7.8401852 -0.45857969 -1.8691194
-7.7875094 -1.0245569 -1.8693678
-7.730361 -1.3992687 -1.8696921
-7.6952047 -1.5855508 -1.8699017
-7.6557226 -1.7709799 -1.8701425
-7.5112109 -2.3211648 -1.8710535
-7.3283396 -2.8601425 -1.8722423
-7.2589746 -3.0368593 -1.8726995
-7.1854491 -3.2119517 -1.8731871
-7.107832 -3.3853102 -1.8737042
-6.8506932 -3.8941154 -1.875433
-6.757041 -4.0596423 -1.8760672
-6.5580564 -4.3840251 -1.8774207
-6.4528317 -4.5427122 -1.8781393
-6.2312107 -4.8526282 -1.8796585
-6.1149316 -5.0036826 -1.8804584
-5.9950781 -5.1520324 -1.8812845
-5.8716698 -5.2975683 -1.8821367
-5.7448435 -5.4402189 -1.8830142
-5.3441992 -5.8500953 -1.8857951
-5.0610642 -6.1074739 -1.8877679
-4.8877439 -6.1967578 -1.8783567
-4.2103224 -6.2145367 -1.7865118
-3.9983788 -6.2197685 -1.7597636
-3.8133006 -6.2588816 -1.7442828
-3.5112011 -6.4433908 -1.7464083
-3.3568163 -6.5302978 -1.7474962
-3.2003124 -6.6135607 -1.7486001
-3.0417774 -6.6931338 -1.7497195
-2.8812695 -6.7689543 -1.7508539
-2.5547364 -6.9091763 -1.7531649
-2.3889062 -6.9734769 -1.7543402
-2.2214551 -7.0338402 -1.755528
-2.0525098 -7.0902286 -1.7567272
-1.8821582 -7.1426063 -1.7579376
-1.1884081 -7.3112268 -1.7628771
-0.47968748 -7.4129496 -1.7679394
0.057812497 -7.444406 -1.7717892
2.0246387 -7.2258544 -1.7859526
2.1999609 -7.1800022 -1.7872211
2.3742089 -7.1298656 -1.7884829
2.547334 -7.0754662 -1.7897377
2.889668 -6.9539847 -1.7922221
3.2261717 -6.8157873 -1.7946684
3.391953 -6.7404966 -1.7958752
3.7180858 -6.5777159 -1.7982527
3.8782322 -6.490314 -1.7994218
4.0362792 -6.3989587 -1.8005767
4.1921582 -6.3037009 -1.8017172
4.3716698 -6.2416449 -1.8136069
4.5969334 -6.2374048 -1.8440727
5.6619334 -6.0077715 -1.9647355
5.8084083 -5.8726444 -1.9658176
6.091445 -5.5915728 -1.9679129
6.3605466 -5.2965856 -1.9699115
6.6150098 -4.9883871 -1.971808
6.7365332 -4.8295608 -1.9727163
6.9678125 -4.502923 -1.9744508
7.077363 -4.3353176 -1.9752753
7.2840233 -3.9920123 -1.9768368
7.4735546 -3.638633 -1.9782778
7.5618262 -3.4584181 -1.9789524
7.6454782 -3.276057 -1.9795946
7.7992578 -2.9051809 -1.980783
7.9951658 -2.3353043 -1.9823191
8.0509863 -2.1422036 -1.9827639
8.1894922 -1.5551953 -1.9838923
8.2573919 -1.1586682 -1.9844704
8.3220701 -0.5585925 -1.9850718
8.3336716 -0.35766724 -1.9852012
8.3402834 -0.15650268 -1.9852947
8.3384571 0.24602233 -1.9853739
8.3300295 0.44713011 -1.9853594
8.298193 0.84838074 -1.9852227
8.2131348 1.4459796 -1.9847494
8.1318064 1.840039 -1.9842559
8.0838184 2.0353906 -1.9839562
8.0309858 2.2294593 -1.9836218
7.9733887 2.4221125 -1.9832525
7.9110155 2.6132507 -1.9828488
7.8439355 2.802736 -1.9824108
7.6958203 3.1762946 -1.9814335
7.6148629 3.3601325 -1.9808946
7.5293846 3.5418541 -1.9803232
7.4394822 3.7213507 -1.9797189
6.7462988 4.2327619 -1.895448
6.0477929 4.6633048 -1.8175445
5.9308887 4.8057256 -1.8167382
5.8105664 4.9451542 -1.8159068
5.6868553 5.0815067 -1.8150504
5.5599313 5.214705 -1.81417
5.4297853 5.3446646 -1.8132658
5.0210938 5.7143879 -1.810418
4.7343454 5.9433622 -1.8084128
4.5869532 6.0523896 -1.8073802
4.4370313 6.1577106 -1.8063284
4.2846289 6.2592559 -1.8052582
3.8138084 6.5409451 -1.8020065
3.4261229 6.2160773 -1.6892219
2.6824608 6.2189555 -1.6118894
2.5065429 6.2196331 -1.5959212
2.3339942 6.2202997 -1.5811779
2.1645117 6.2209516 -1.5676076
1.9978125 6.221591 -1.5551682
1.671748 6.2228422 -1.5335107
1.3539159 6.2240582 -1.5159286
1.1975391 6.2246552 -1.5085962
1.0425683 6.225246 -1.5022039
0.88881832 6.2258306 -1.4967327
0.73610348 6.2264118 -1.4921674
0.13004883 6.1449347 -1.4627838
-0.16659179 6.1460552 -1.4632609
-0.47073242 6.2349124 -1.4880935
-0.62239254 6.2354827 -1.49138
-0.92817378 6.236629 -1.5006272
-1.082666 6.2372074 -1.5066141
-1.3958789 6.2383757 -1.5214083
-1.5549706 6.2389688 -1.530259
-2.0449219 6.2407904 -1.562973
-2.2132616 6.2414155 -1.5760465
-2.918916 6.2440214 -1.640397
-3.2759082 6.5884576 -1.7511582
-3.4316113 6.5031133 -1.7499783
-3.5851171 6.4141898 -1.7488227
-3.8854785 6.2259455 -1.7466245
-4.3177443 5.9178557 -1.7434521
-4.4566407 5.8085542 -1.7424301
-4.5928516 5.6960526 -1.7414269
-4.8568358 5.4617496 -1.7394791
-4.9844923 5.340086 -1.7385353
-5.1091599 5.2154961 -1.7376121
-5.3493161 4.9578667 -1.7358297
-5.4646678 4.8249736 -1.7349715
-5.6856637 4.5514116 -1.7333233
-5.7911716 4.4108977 -1.7325338
-6.2016015 4.2670355 -1.7915775
-6.8056345 3.9900541 -1.8775619
-6.8973532 3.8232744 -1.8768655
-6.985117 3.6544499 -1.8761972
-7.0688281 3.483665 -1.8755575
-7.1484962 3.3110216 -1.8749462
-7.3627243 2.7828858 -1.873288
-7.4257617 2.6037457 -1.8727946
-7.5391111 2.2414262 -1.8718983
-7.589375 2.0584373 -1.8714956
-7.6353025 1.8743536 -1.8711239
-7.6769238 1.6892847 -1.8707831
-7.7470117 1.3165777 -1.8701947
-7.8192282 0.75256592 -1.8695474
-7.8344922 0.56364685 -1.8693945
-7.8452926 0.37443542 -1.8692737
-7.8511229 -0.19393004 -1.8691016
-7.8441796 -0.38329956 -1.8691081
-7.8328028 -0.57245541 -1.8691463
-7.8170018 -0.76130003 -1.8692166
-7.7721677 -1.137647 -1.869452
-7.743125 -1.3249555 -1.8696176
-7.7097263 -1.5115386 -1.8698145
-7.5833592 -2.0660446 -1.8705941
-7.3547754 -2.7894123 -1.8720688
-7.1391993 -3.3165591 -1.873495
-7.0591211 -3.4888365 -1.8740301
-6.9749999 -3.6592402 -1.8745947
-6.69874 -4.1582665 -1.8764628
-6.3876853 -4.6370883 -1.8785852
-6.0431738 -5.0933452 -1.8809527
-5.9211817 -5.240016 -1.8817947
-5.7957029 -5.3838258 -1.8826621
-5.6668162 -5.5247111 -1.8835547
-5.5345702 -5.6625786 -1.884472
-5.1183591 -6.0573301 -1.8873681
-4.5176854 -6.2066617 -1.8270267
-4.2964258 -6.2123642 -1.7976593
-4.081943 -6.2177258 -1.7701882
-3.8736913 -6.2227678 -1.7445003
-3.7233202 -6.3159184 -1.7449155
-3.5720215 -6.4078202 -1.7459799
-3.4185057 -6.4961581 -1.7470614
-2.9453321 -6.7392435 -1.750401
-2.783711 -6.8127904 -1.7515439
-2.6202636 -6.8825083 -1.7527008
-2.4550781 -6.9483619 -1.753871
-2.2882617 -7.0102963 -1.755054
-2.1198828 -7.068275 -1.7562487
-1.9500879 -7.122252 -1.757455
-1.258164 -7.2974219 -1.7623798
-1.0825195 -7.3308606 -1.7636324
-0.72866207 -7.3851113 -1.7661593
-0.55065429 -7.4058762 -1.7674319
-0.19304687 -7.4345689 -1.7699914
-0.013613281 -7.4424701 -1.7712771
0.16606446 -7.4460406 -1.7725656
0.52582031 -7.4401903 -1.7751486
1.4226172 -7.3494568 -1.7816043
1.6006836 -7.3182664 -1.7828892
1.7780468 -7.2827444 -1.7841702
1.9546386 -7.242908 -1.7854464
2.3050292 -7.1503201 -1.7879819
2.4786131 -7.0976181 -1.7892394
2.6509764 -7.0406609 -1.7904894
2.822041 -6.9794946 -1.7917309
2.9916699 -6.9141245 -1.792963
3.1597753 -6.8445935 -1.7941852
3.3262012 -6.7709374 -1.7953963
3.4909375 -6.6931863 -1.7965962
3.6538379 -6.6113791 -1.797784
3.8147557 -6.5255613 -1.7989583
3.9736524 -6.4357724 -1.8001189
4.1304002 -6.3420653 -1.8012652
4.5064259 -6.2391291 -1.8317077
4.9741797 -6.2299323 -1.8973253
5.2209082 -6.2248087 -1.933575
5.4518261 -6.1903992 -1.963186
5.6027536 -6.0605016 -1.9642988
5.750576 -5.9268417 -1.9653901
5.8950486 -5.7895274 -1.9664584
6.0362496 -5.6486082 -1.9675037
6.4387403 -5.2051444 -1.9704934
6.6886716 -4.8931146 -1.9723583
6.8078318 -4.7324572 -1.9732503
7.034277 -4.4023328 -1.9749508
7.2442479 -4.0611286 -1.9765356
7.4372363 -3.7096813 -1.9780009
7.7701464 -2.9795604 -1.9805568
7.8419724 -2.7920184 -1.9811153
7.9091601 -2.602705 -1.9816409
8.0822659 -2.0252569 -1.9830151
8.1736422 -1.6336273 -1.9837606
8.2454491 -1.2378051 -1.9843664
8.2739649 -1.0386468 -1.9846166
8.2975092 -0.83882016 -1.9848315
8.3160744 -0.63843137 -1.9850106
8.3339748 0.36714295 -1.9853692
8.3225288 0.5681079 -1.9853332
8.3061132 0.76870298 -1.9852613
8.1034861 1.9578247 -1.9840797
8.0525875 2.1524096 -1.9837592
7.9364061 2.5374017 -1.9830135
7.871191 2.7275519 -1.9825891
7.8012791 2.9159977 -1.9821306
7.7267575 3.1025903 -1.9816386
7.5639453 3.4698143 -1.9805545
7.475791 3.6502166 -1.9799632
7.3832226 3.8283098 -1.9793397
7.2862887 4.0039945 -1.9786843
7.1850681 4.1771879 -1.9779977
6.8839355 4.2275629 -1.9226257
6.3136716 4.3101068 -1.8193713
6.2053027 4.4593644 -1.8186278
5.9778123 4.7494206 -1.817062
5.8588281 4.8900504 -1.8162403
5.481914 5.2933488 -1.8136282
4.9359274 5.7848306 -1.8098229
4.496963 6.1162567 -1.8067489
3.5041602 6.2157769 -1.6982015
3.1197948 6.2172647 -1.6555145
2.9345508 6.2179828 -1.6363699
2.7534473 6.2186823 -1.6185962
1.7358886 6.2225971 -1.537486
1.2595702 6.2244182 -1.5113999
1.1040624 6.2250113 -1.5046353
0.94986326 6.2255998 -1.4987996
0.79673827 6.226181 -1.4938761
0.49308592 6.2273345 -1.486706
0.34218749 6.2279058 -1.4844384
0.040742185 6.1452727 -1.4625683
-0.25600585 6.1463919 -1.4640712
-0.41055664 6.2346869 -1.48703
-0.56197262 6.2352557 -1.4899673
-1.0210742 6.2369766 -1.5041215
-1.1763378 6.2375565 -1.5106683
-1.4914453 6.2387323 -1.5266197
-1.651709 6.2393289 -1.536072
-1.8140332 6.2399321 -1.5465481
-1.9787109 6.2405438 -1.5580826
-2.4891992 6.2424345 -1.5994208
-2.6657813 6.2430878 -1.6156
-2.8460839 6.2437515 -1.6330738
-3.0304296 6.2444315 -1.6518981
-3.3699024 6.5375042 -1.7504464
-3.676543 6.3589935 -1.7481539
-4.2617283 5.9604373 -1.7438638
-4.4016895 5.8524222 -1.7428344
-4.5389843 5.7411895 -1.741824
-4.6735153 5.6267996 -1.7408323
-5.1827536 5.1390982 -1.7370666
-5.532578 4.7436771 -1.7344656
-5.6427536 4.6066351 -1.7336438
-5.853076 4.3251371 -1.73207
-6.0816793 4.2711368 -1.7687032
-6.3890233 4.2605619 -1.8276476
-6.6707907 4.2195892 -1.8785821
-6.7680469 4.0558147 -1.8778468
-7.1172948 3.3799188 -1.8751858
-7.2675681 3.0307751 -1.8740276
-7.3364844 2.8537414 -1.8734927
-7.4011912 2.675174 -1.8729872
-7.5179391 2.3139074 -1.8720669
-7.5699019 2.1313703 -1.8716521
-7.6175585 1.9477166 -1.8712683
-7.7905173 1.0159582 -1.8698137
-7.8289351 0.63885069 -1.8694515
-7.8415427 0.44973448 -1.8693178
-7.8496776 0.26040894 -1.8692161
-7.8533788 0.070928954 -1.8691461
-7.8474708 -0.30799133 -1.8691016
-7.8053613 -0.87482423 -1.8692739
-7.7552047 -1.2505231 -1.869548
-7.7235351 -1.4374024 -1.8697323
-7.647109 -1.8087603 -1.8701959
-7.6023726 -1.9930371 -1.8704745
-7.4423923 -2.5390384 -1.8714975
-7.3805466 -2.7184329 -1.8719001
-7.3144922 -2.8963921 -1.8723333
-7.2443066 -3.0727818 -1.8727965
-7.008955 -3.5916893 -1.8743664
-6.9224024 -3.7609112 -1.874949
-6.8318748 -3.9281054 -1.8755603
-6.7373924 -4.0932031 -1.8762002
-6.3211617 -4.7305636 -1.8790411
-6.2077637 -4.8837152 -1.8798198
-6.0907321 -5.0342231 -1.8806251
-5.7184958 -5.469017 -1.8831965
-5.4533496 -5.7441163 -1.8850362
-5.3158398 -5.8769956 -1.8859924
-5.0314255 -6.1330261 -1.8879745
-4.6076951 -6.2042937 -1.8392651
-4.3835936 -6.2101378 -1.8091092
-4.1664939 -6.2156329 -1.7808967
-3.7828515 -6.2783842 -1.7444967
-2.6854784 -6.855238 -1.752239
-2.5209863 -6.9226298 -1.7534039
-2.1870508 -7.0456853 -1.7557721
-1.847168 -7.1528134 -1.7581865
-1.5020703 -7.2436962 -1.7606419
-0.44319335 -7.4163213 -1.7682005
-0.26430663 -7.4302311 -1.7694808
0.27435547 -7.446106 -1.7733426
0.45426756 -7.4427328 -1.7746344
0.63415039 -7.4350238 -1.7759269
1.8844922 -7.2592711 -1.7849393
2.0605762 -7.2168345 -1.7862124
2.5825782 -7.0638275 -1.7899933
3.0930567 -6.8727574 -1.7937002
3.4256346 -6.7246084 -1.7961204
3.9106932 -6.4719653 -1.7996591
4.223711 -6.2837625 -1.8019482
5.8379979 -5.8445854 -1.9660363
6.1196189 -5.5620518 -1.9681219
6.3872557 -5.2656827 -1.9701102
6.7609081 -4.7967267 -1.9728988
7.2038379 -4.1298327 -1.9762298
7.3041601 -3.9563494 -1.9769894
7.4919333 -3.6019909 -1.9784179
7.740283 -3.0536623 -1.9803257
7.8139648 -2.8668442 -1.9808972
7.9473338 -2.4878714 -1.981941
8.0617971 -2.1025634 -1.9828506
8.1973333 -1.5148468 -1.9839578
8.2887497 -0.91838133 -1.9847503
8.3092871 -0.7181921 -1.9849435
8.3415718 0.085895993 -1.9853594
8.3371286 0.28713745 -1.9853739
8.3276854 0.4881897 -1.9853519
8.2938185 0.88927978 -1.9852008
8.2693939 1.0890644 -1.9850714
8.1223927 1.8800507 -1.9841976
8.0734177 2.0751593 -1.9838907
8.0196095 2.2689421 -1.9835491
7.9610348 2.4613104 -1.9831729
7.8296485 2.8412542 -1.982317
7.7569432 3.0285919 -1.9818383
7.6796384 3.214021 -1.981326
7.597744 3.397445 -1.9807802
7.4205661 3.7577484 -1.9795916
7.3253512 3.9344072 -1.9789488
7.2258496 4.108604 -1.9782747
7.0255075 4.2221832 -1.9507562
6.6770992 4.2353654 -1.8818436
6.3659668 4.2568121 -1.8225833
6.2608786 4.4088726 -1.822464
6.13832 4.5479045 -1.8181676
6.0241895 4.6926422 -1.8173819
5.6611719 5.1089945 -1.8148721
5.5335646 5.2415237 -1.8139871
5.4027929 5.3708258 -1.8130783
5.2689061 5.4967804 -1.8121463
5.1320701 5.6193352 -1.8111924
4.9923143 5.7384439 -1.8102169
4.8497458 5.8539872 -1.8092202
4.7044334 5.9659443 -1.8082032
4.0979099 6.3763919 -1.8039241
3.3863378 6.2162333 -1.6847043
3.0077147 6.2176995 -1.6438171
2.6462109 6.2190957 -1.6085241
2.4710252 6.2197709 -1.5928099
2.2991309 6.2204328 -1.5783117
2.1302245 6.2210822 -1.5649754
1.6389258 6.2229681 -1.5315319
1.3218359 6.2241812 -1.5143526
1.1657617 6.2247772 -1.5072136
0.85753906 6.2259502 -1.4957273
0.55327147 6.2271051 -1.4878508
0.24828124 6.1484284 -1.46448
0.099726558 6.1450505 -1.4626751
-0.048554685 6.1456094 -1.4626623
-0.19692382 6.1461687 -1.4635001
-0.35048828 6.2344608 -1.4861046
-0.50166017 6.2350287 -1.4886934
-0.95965821 6.2367463 -1.5017754
-1.2705468 6.2379093 -1.5150659
-1.4282422 6.2384977 -1.5231359
-1.587705 6.23909 -1.5321908
-1.7491894 6.2396903 -1.542256
-1.9129003 6.2403007 -1.5533639
-2.0790918 6.2409158 -1.5655533
-2.2480078 6.2415423 -1.5788598
-2.7739062 6.2434855 -1.6259658
-2.9565918 6.2441592 -1.6442437
-3.3078711 6.5713162 -1.7509162
-3.4631445 6.4852262 -1.7497387
-3.9156346 6.2059159 -1.7464033
-4.0617285 6.1058903 -1.745332
-4.4847069 5.7858157 -1.7422236
-4.8831544 5.4371295 -1.7392846
-5.0102148 5.3148565 -1.738345
-5.1342673 5.1896796 -1.7374262
-5.2552633 5.0616741 -1.7365286
-5.3731446 4.9309282 -1.7356527
-5.4878416 4.7975016 -1.734799
-5.8123145 4.3818927 -1.7323756
-6.5841112 4.253758 -1.8655725
-6.9156151 3.7889447 -1.8767266
-7.1642966 3.2755175 -1.8748248
-7.2389746 3.1007683 -1.8742486
-7.375947 2.7463951 -1.8731848
-7.4960742 2.3861773 -1.8722403
-7.549736 2.2041314 -1.8718137
-7.5991111 2.0209002 -1.8714174
-7.6441503 1.8366216 -1.8710519
-7.8039551 0.90261227 -1.8696911
-7.8227243 0.71398497 -1.8695132
-7.8469725 0.33573973 -1.8692527
-7.8534665 -0.043185424 -1.8691192
-7.8500485 -0.23264343 -1.8691006
-7.8421874 -0.42198426 -1.8691134
-7.8299413 -0.61107725 -1.869158
-7.8132224 -0.79983521 -1.8692349
-7.792109 -0.98817867 -1.8693432
-7.7366796 -1.3631488 -1.8696551
-7.702363 -1.5495749 -1.8698586
-7.6206737 -1.9198464 -1.8703599
-7.521699 -2.2859952 -1.8709863
-7.405654 -2.6472423 -1.8717364
-7.341279 -2.8257735 -1.8721572
-7.1999903 -3.1782086 -1.8730905
-7.0422559 -3.523818 -1.874143
-6.9573145 -3.6938183 -1.8747137
-6.6786423 -4.1915507 -1.8765994
-6.4734859 -4.5122066 -1.8779981
-5.7696385 -5.4128528 -1.8828424
-5.5071287 -5.690371 -1.8846626
-5.3709083 -5.8245158 -1.885609
-5.2315235 -5.9554696 -1.8865795
-4.9338474 -6.1954923 -1.8849348
-4.2520704 -6.2134867 -1.7918957
-3.8420312 -6.2402892 -1.7440809
-3.3868749 -6.5137601 -1.7472844
-2.9124706 -6.7545834 -1.7506332
-2.2539649 -7.0224681 -1.7552972
-2.0853026 -7.0796342 -1.7564944
-1.7437695 -7.1818986 -1.7589215
-1.5710937 -7.226922 -1.7601504
-1.397246 -7.2678366 -1.7613885
-1.2223535 -7.3045907 -1.7626351
-0.86980468 -7.3655548 -1.765151
-0.33554688 -7.4252124 -1.7689711
0.38266602 -7.4445968 -1.7741201
0.56260741 -7.4386101 -1.7754129
0.92212886 -7.4135923 -1.7779983
1.1015136 -7.3945508 -1.7792898
1.2805274 -7.3711705 -1.7805798
1.4590527 -7.3434324 -1.7818674
1.6369727 -7.3113585 -1.7831511
1.8141992 -7.2749538 -1.7844312
1.9906152 -7.2342339 -1.7857064
2.3405762 -7.1398959 -1.7882394
3.1939061 -6.8298788 -1.7944336
3.6868846 -6.5941601 -1.7980251
3.8474121 -6.5075316 -1.7991967
4.0058594 -6.4169402 -1.8003545
4.3289161 -6.2424297 -1.8079431
4.5527635 -6.2382488 -1.8380201
4.7841892 -6.2337518 -1.8701684
5.4829297 -6.1641517 -1.9634151
5.7803516 -5.8990793 -1.9656103
6.0646677 -5.6193857 -1.9677145
6.4649801 -5.1738377 -1.9706889
6.5910544 -5.0187545 -1.971629
6.7133298 -4.8605342 -1.9725429
6.8317285 -4.6992526 -1.9734292
6.9461327 -4.5350327 -1.974288
7.1627245 -4.1981387 -1.9759191
7.3625488 -3.850668 -1.9774326
7.4559765 -3.6732247 -1.9781439
7.5450191 -3.4934812 -1.9788238
7.9223242 -2.5637958 -1.9817443
7.9838085 -2.3724806 -1.9822292
8.0925198 -1.9854553 -1.9830978
8.2791796 -0.9978503 -1.9846635
8.3017092 -0.79789913 -1.984871
8.3192577 -0.59741575 -1.9850428
8.3318262 -0.39656126 -1.9851791
8.3393946 -0.19544189 -1.9852793
8.3419628 0.0058300779 -1.9853439
8.3395014 0.20708862 -1.9853723
8.3320503 0.40824217 -1.9853649
8.3195801 0.60912842 -1.9853216
8.279707 1.0096557 -1.9851271
8.2523041 1.2090423 -1.9849762
8.1826849 1.6053778 -1.9845672
8.0934858 1.9976861 -1.9840171
8.0416107 2.1920214 -1.9836895
7.9234567 2.5764055 -1.9829296
7.7109375 3.1404967 -1.9815338
7.546279 3.5068712 -1.9804362
7.3637595 3.8644245 -1.9792084
6.8127441 4.2302556 -1.9085464
6.2918262 4.3408389 -1.8192217
6.1827149 4.4895196 -1.8184729
5.9537792 4.7783952 -1.8168963
5.8340721 4.9184256 -1.8160692
5.7110643 5.0553741 -1.8152179
5.5847168 5.1891923 -1.814342
5.4551854 5.3197794 -1.8134423
5.3225584 5.4470658 -1.8125199
5.0482516 5.691474 -1.8106076
4.7625685 5.9218378 -1.8086104
4.6156735 6.0315876 -1.8075814
4.4662204 6.1376309 -1.8065332
4.3142772 6.2399101 -1.8054665
4.003418 6.4329877 -1.8032876
3.2703514 6.2166824 -1.6717706
3.0815723 6.2174125 -1.6514863
2.5403028 6.2195024 -1.5989125
2.0298438 6.2214689 -1.5574882
1.7029004 6.2227225 -1.5354233
1.3843457 6.2239423 -1.5174583
1.2276758 6.2245402 -1.5099396
1.0724511 6.2251325 -1.5033675
0.76557618 6.2262993 -1.4929799
0.61355466 6.2268767 -1.4891337
0.46221679 6.2274518 -1.4861709
-0.13788086 6.1459479 -1.4630646
-0.59298825 6.2353716 -1.4906756
-0.74526364 6.2359428 -1.4946766
-0.89842772 6.2365179 -1.4995747
-1.052705 6.2370939 -1.5053836
-1.3653027 6.2382622 -1.5198092
-1.6846875 6.2394509 -1.538129
-1.8475097 6.2400565 -1.5488189
-2.0126758 6.2406693 -1.5605716
-2.1804688 6.2412906 -1.5734296
-2.8834081 6.2438898 -1.6368089
-3.2455273 6.6045475 -1.7513881
-3.4016309 6.5199151 -1.7502056
-3.7073631 6.3399687 -1.7479284
-4.0039158 6.1460919 -1.7457561
-4.1485157 6.0440278 -1.7446951
-4.2905469 5.9386282 -1.743652
-4.5667186 5.7180634 -1.7416196
-4.8317966 5.4849396 -1.7396641
-4.9600096 5.3638492 -1.7387164
-5.0852833 5.2398162 -1.7377889
-5.2075 5.1129336 -1.7368829
-5.3266406 4.9832644 -1.7359984
-5.4425974 4.8508892 -1.735136
-5.5553513 4.7158818 -1.734296
-5.6648631 4.5783148 -1.7334787
-5.8738279 4.2958307 -1.7319146
-6.4543457 4.2582917 -1.8403072
-6.6910057 4.1862946 -1.8784294
-7.1334081 3.344569 -1.8750622
-7.2097754 3.1704857 -1.8744744
-7.350039 2.8173621 -1.8733867
-7.5799704 2.09393 -1.8715713
-7.6267576 1.9100469 -1.8711935
-7.6691895 1.7251691 -1.8708466
-7.7072754 1.5393622 -1.8705308
-7.7703414 1.1654352 -1.8699926
-7.7952633 0.97751462 -1.8697708
-7.8535838 0.032208253 -1.8691357
-7.851943 -0.15728943 -1.8691041
-7.8353415 -0.53589231 -1.8691366
-7.8204002 -0.72479427 -1.8692006
-7.8010254 -0.91330689 -1.8692962
-7.7490916 -1.2887634 -1.8695831
-7.7165332 -1.4755108 -1.8697739
-7.5926852 -2.030561 -1.8705354
-7.5427637 -2.2135222 -1.8708518
-7.4885645 -2.3953147 -1.871199
-7.3673825 -2.7549324 -1.871986
-7.3004785 -2.9325593 -1.8724254
-7.2294235 -3.1086361 -1.8728951
-6.9915719 -3.626425 -1.8744833
-6.9042282 -3.7952402 -1.8750714
-6.4087596 -4.6068745 -1.8784409
-6.2982812 -4.7620702 -1.8791981
-5.8202438 -5.3562317 -1.8824923
-5.6920018 -5.4976826 -1.8833801
-5.56041 -5.6361523 -1.8842926
-5.425498 -5.7715287 -1.8852297
-5.2873435 -5.9037609 -1.8861908
-4.7914157 -6.1993785 -1.864736
-4.5613279 -6.2055173 -1.8329382
-4.1229491 -6.2167139 -1.7753603
-3.9135253 -6.221817 -1.7493349
-3.6014452 -6.3903227 -1.7457728
-3.2931054 -6.5647702 -1.7479455
-2.9764159 -6.7245765 -1.7501812
-2.8151171 -6.7988586 -1.7513217
-2.6520312 -6.8693185 -1.7524759
-2.3206639 -6.9986267 -1.754824
-2.1525781 -7.057375 -1.7560169
-1.8121387 -7.162847 -1.7584356
-1.6399218 -7.2095013 -1.7596606
-1.4665527 -7.2520499 -1.7608948
-1.2920605 -7.2904663 -1.7621381
-0.94018555 -7.354774 -1.7646484
-0.76302731 -7.3806014 -1.7659136
-0.58513671 -7.4021902 -1.7671853
0.13127929 -7.4456882 -1.7723161
0.49099609 -7.4415131 -1.7748981
1.2093555 -7.3809991 -1.7800668
2.2713087 -7.1600208 -1.7877377
2.7890429 -6.9916558 -1.7914914
2.9589257 -6.9271021 -1.7927252
3.1273534 -6.8583789 -1.7939496
3.4592285 -6.7085438 -1.7963651
3.7837791 -6.5424724 -1.7987323
3.9430957 -6.4534488 -1.7998958
4.2551856 -6.2636633 -1.8021786
4.6911817 -6.2355804 -1.8571218
5.4222751 -6.2150841 -1.9629683
5.5737891 -6.0859342 -1.9640852
5.867363 -5.8163762 -1.9662535
6.0092087 -5.6761456 -1.9673034
6.1475973 -5.5324121 -1.9683294
6.2824802 -5.3852086 -1.969331
6.4137497 -5.2346506 -1.9703075
6.5413475 -5.0808306 -1.9712582
7.0130467 -4.434772 -1.974791
7.2246776 -4.0945911 -1.9763876
7.4193358 -3.7441189 -1.9778645
7.5101366 -3.5652635 -1.9785571
7.678359 -3.200928 -1.9798477
7.7557125 -3.0156436 -1.980445
7.8965235 -2.6394479 -1.9815419
8.0185452 -2.2565603 -1.982505
8.072422 -2.0628817 -1.982936
8.1214552 -1.8679193 -1.9833325
8.1656542 -1.6717242 -1.9836944
8.3274317 -0.47649717 -1.9851292
8.3415136 -0.074254759 -1.9853224
8.3356152 0.32821777 -1.9853723
8.2334175 1.3287299 -1.9848682
8.1578999 1.7239507 -1.9844166
8.0628023 2.1148643 -1.9838238
8.0080271 2.3083832 -1.983475
7.8151755 2.8796813 -1.982222
7.7415233 3.0666246 -1.9817364
7.5804687 3.43466 -1.980665
7.4931641 3.6154926 -1.9800799
7.4014745 3.794024 -1.9794629
7.3053613 3.970202 -1.9788135
7.2049508 4.1438847 -1.9781328
6.9522557 4.2249699 -1.9361788
6.1152735 4.5777006 -1.818009
6.0004492 4.7218609 -1.8172182
5.2412305 5.522089 -1.8119534
4.9633789 5.7623382 -1.8100147
4.8202538 5.8771648 -1.8090141
4.5259767 6.0958843 -1.8069525
4.375 6.1996746 -1.8058929
3.5423925 6.2156281 -1.7026609
3.3467968 6.2163858 -1.6802564
3.1561327 6.2171245 -1.6593827
2.7881541 6.2185464 -1.6219289
2.6101465 6.219234 -1.6052133
2.4356542 6.2199063 -1.5897511
2.0960741 6.2212138 -1.5623916
1.2898145 6.2243023 -1.5128171
0.82629883 6.2260685 -1.4947577
0.67393553 6.2266474 -1.4905584
0.21792968 6.1485429 -1.4642341
0.069433592 6.1451654 -1.4626034
-0.078867182 6.1457243 -1.4627644
-0.38132811 6.2345767 -1.4865631
-0.68457031 6.2357159 -1.4929785
-1.3026367 6.238029 -1.5166364
-1.4606738 6.2386189 -1.5249059
-1.6205566 6.239213 -1.534164
-1.7824805 6.2398162 -1.5444412
-1.9466504 6.2404251 -1.555765
-2.1133885 6.241044 -1.568179
-2.4554491 6.24231 -1.5964367
-2.8108983 6.2436223 -1.6295896
-2.994453 6.2442999 -1.6481494
-3.3397558 6.5540261 -1.7506747
-3.4945898 6.4671917 -1.7494998
-3.9456639 6.1857572 -1.7461832
-4.234365 5.9809504 -1.7440646
-4.3748045 5.8735809 -1.7430322
-4.7799706 5.5322795 -1.740047
-4.9093456 5.4123845 -1.7390908
-5.1592479 5.1637483 -1.7372409
-5.3968458 4.9038811 -1.7354764
-5.6216989 4.6333356 -1.7338009
-5.8333302 4.3527884 -1.7322181
-6.7495508 4.0876665 -1.8779867
-6.8435936 3.9221392 -1.8772742
-7.4503121 2.5301409 -1.8726016
-7.5073729 2.3490808 -1.8721507
-7.6086717 1.9833179 -1.87134
-7.7281151 1.4270825 -1.8703556
-7.8260055 0.67538327 -1.8694808
-7.8484373 0.29704833 -1.8692334
-7.8531151 -0.081917726 -1.869113
-7.8400388 -0.46064147 -1.8691201
-7.8268747 -0.64969236 -1.8691711
-7.7872458 -1.0265973 -1.8693693
-7.7608299 -1.214287 -1.8695158
-7.6552539 -1.772994 -1.8701456
-7.5106344 -2.323138 -1.8710573
-7.258203 -3.0387797 -1.8727046
-7.1069531 -3.3872075 -1.8737102
-6.7560058 -4.0614181 -1.8760742
-6.6583786 -4.224741 -1.8767374
-6.3426852 -4.7006235 -1.8788935
-5.9937501 -5.1536179 -1.8812937
-5.7434278 -5.4417682 -1.883024
-5.6131444 -5.5814381 -1.8839266
-5.4795017 -5.7180357 -1.8848544
-5.3426952 -5.8515368 -1.8858056
-4.6519041 -6.2031212 -1.8453342
-4.4263673 -6.2090364 -1.8147854
-6.2894235 -3.4551311 -1.8795611
-5.5250683 -4.6102676 -1.8847811
-5.4144139 -4.7441568 -1.8855444
-5.3006153 -4.8754349 -1.8863311
-5.1836524 -5.0040545 -1.8871408
-5.063652 -5.1299243 -1.8879733
-3.1186132 -6.2128525 -1.8208008
-2.9350488 -6.2168741 -1.8006964
-2.5790918 -6.2241797 -1.7646774
-2.4138963 -6.247735 -1.7543271
-2.1122949 -6.3646512 -1.7564645
-1.8050488 -6.4671569 -1.7586455
-1.6495312 -6.5129175 -1.7597512
-1.4928613 -6.5549674 -1.7608657
-1.3351171 -6.5932813 -1.7619891
-1.0168164 -6.658576 -1.7642578
-0.69532228 -6.7085919 -1.7665533
-0.37137693 -6.7431579 -1.7688702
-0.045722656 -6.7621269 -1.7712026
0.11751953 -6.7657309 -1.772373
0.44432616 -6.7611241 -1.7747192
0.77100587 -6.7407303 -1.7770681
0.93402344 -6.7246017 -1.7782414
1.2589746 -6.6805048 -1.7805835
1.4207226 -6.6525407 -1.7817504
1.9018555 -6.5451136 -1.7852273
2.0605371 -6.5015068 -1.7863759
2.2182128 -6.4540238 -1.7875183
2.684248 -6.2885685 -1.7909003
2.8429394 -6.238977 -1.795794
3.8003514 -6.2235041 -1.909971
4.1908593 -6.1724558 -1.9541419
4.3409958 -6.0729613 -1.9552419
4.77666 -5.7524967 -1.9584414
4.9166403 -5.6385422 -1.9594721
5.0538669 -5.5211258 -1.9604838
5.814199 -4.7478538 -1.9661168
5.9296484 -4.6082053 -1.966977
6.1501756 -4.3204145 -1.9686254
6.3564453 -4.0218687 -1.970174
6.454072 -3.8687582 -1.9709097
6.723906 -3.3953829 -1.9729544
6.88415 -3.0689731 -1.9741789
7.3145118 -1.8712485 -1.9775412
7.3988376 -1.5167489 -1.9782275
7.4655075 -1.1583935 -1.9787881
7.5320215 -0.6156134 -1.9793898
7.5538473 -0.25158203 -1.9796298
7.5579977 -0.06926208 -1.9797012
7.5576267 0.11311584 -1.9797403
7.5433006 0.4775531 -1.9797211
7.5293746 0.65938842 -1.9796628
7.4879785 1.021726 -1.9794487
7.4605465 1.2019964 -1.9792932
7.4286914 1.3815149 -1.9791055
7.3516307 1.7378497 -1.9786342
7.2570605 2.0898302 -1.9780363
7.1451855 2.4365845 -1.9773129
7.0828514 2.6077259 -1.9769049
7.0163083 2.7772374 -1.9764662
6.7919335 3.274929 -1.9749701
6.6222067 3.5966704 -1.9738258
6.5314646 3.7542326 -1.9732108
6.4368749 3.9094462 -1.9725677
6.3385348 4.0622306 -1.9718969
6.236445 4.2124834 -1.9711988
5.4410448 4.2793546 -1.8131027
5.2239356 4.5330925 -1.811603
5.1108494 4.6557975 -1.8108195
4.9948044 4.7756219 -1.8100142
4.8758984 4.8925052 -1.8091879
4.7542186 5.0063772 -1.8083407
4.2412305 5.4304399 -1.8047568
4.1068068 5.5282965 -1.8038146
3.8312402 5.7138371 -1.8018799
3.402246 5.9659467 -1.7988592
3.2554491 6.0428143 -1.7978232
2.9566796 6.1855435 -1.7957122
2.8048925 6.2513361 -1.794638
2.4970117 6.3716154 -1.7924563
1.6079004 6.2229486 -1.6834559
1.1356933 6.2247553 -1.6573137
0.67557615 6.2265091 -1.640429
0.37297851 6.2276554 -1.634082
-0.077246092 6.1455865 -1.6097903
-0.22564453 6.1461453 -1.6108935
-0.37967771 6.2344365 -1.6359603
-0.53095704 6.2350054 -1.6389947
-0.68291014 6.2355752 -1.6429986
-1.1444726 6.2373028 -1.6609595
-1.3755273 6.5959439 -1.7648025
-1.845371 6.4664555 -1.7613357
-1.9995409 6.415884 -1.760192
-2.4537303 6.2427716 -1.756902
-2.748662 6.1096597 -1.754755
-3.0365527 5.9628143 -1.7526556
-3.1776659 5.8843498 -1.7516252
-3.5887499 5.6294317 -1.7486169
-3.9799414 5.3463469 -1.7457449
-4.2287793 5.1427217 -1.7439129
-4.3494043 5.0366287 -1.7430229
-4.467422 4.9277592 -1.7421511
-4.5827441 4.8161807 -1.7412981
-4.6953712 4.7019525 -1.7404639
-4.8052049 4.5851555 -1.7396487
-4.9121876 4.4658442 -1.7388537
-5.6969433 4.2533588 -1.8621725
-5.9633789 4.0193353 -1.8836125
-6.1458302 3.7242572 -1.8822356
-6.2317381 3.5736578 -1.8815848
-6.314043 3.4211218 -1.8809592
-6.3927145 3.2667456 -1.8803593
-6.4676657 3.1106145 -1.8797858
-6.6064548 2.7934051 -1.8787173
-6.6701756 2.6325066 -1.8782232
-6.7300682 2.4701984 -1.8777561
-6.8382907 2.14169 -1.8769042
-6.9309177 1.8086102 -1.8761632
-7.0930467 0.96060115 -1.8748057
-7.1134763 0.78911191 -1.87462
-7.1298437 0.61720216 -1.8744632
-7.1421871 0.44496948 -1.8743352
-7.1548533 -0.072734982 -1.8741256
-7.1509666 -0.24533813 -1.874114
-7.1150293 -0.76194882 -1.8742535
-7.0949707 -0.93344116 -1.8743582
-7.070879 -1.104422 -1.8744918
-7.0428123 -1.2748089 -1.8746542
-6.9746289 -1.6134241 -1.875066
-6.7352438 -2.4431031 -1.8765937
-6.6757126 -2.6054316 -1.8769836
-6.3215528 -3.394213 -1.8793443
-5.8765526 -4.1370029 -1.8823675
-5.7771091 -4.27913 -1.8830485
-5.6742868 -4.4189239 -1.8837543
-5.5681934 -4.5563068 -1.8844841
-5.3462696 -4.8235278 -1.8860153
-5.2305565 -4.9532075 -1.886816
-4.9899316 -5.2043595 -1.8884851
-4.8651462 -5.3256845 -1.8893527
-4.7374511 -5.4440818 -1.890242
-4.3377051 -5.7809806 -1.8930331
-4.1991115 -5.8869677 -1.8940034
-4.0579882 -5.9896898 -1.8949926
-3.9143748 -6.0890923 -1.8960003
-3.5764453 -6.2021098 -1.8752213
-3.3822753 -6.2067862 -1.8514166
-3.1927831 -6.2111802 -1.8292086
-3.0075781 -6.2153049 -1.8085208
-2.6487987 -6.2228012 -1.7714146
-2.4745507 -6.2261972 -1.7548692
-2.3237402 -6.2844315 -1.7549657
-2.0203416 -6.3970451 -1.7571169
-1.8665723 -6.4479289 -1.7582086
-1.7115332 -6.4951577 -1.7593102
-1.0804003 -6.6467986 -1.7638043
-0.59801757 -6.7206335 -1.7672487
-0.43596679 -6.7375212 -1.7684078
0.37932616 -6.7632976 -1.7742523
0.54273438 -6.7566495 -1.7754263
1.517832 -6.6338072 -1.7824514
1.6785253 -6.5995488 -1.7836124
1.8384668 -6.5613823 -1.7847689
1.9974999 -6.5193205 -1.7859197
2.1555955 -6.4733734 -1.7870647
2.3126268 -6.423573 -1.7882028
2.9524219 -6.2374301 -1.807507
3.1374218 -6.2346826 -1.8281196
4.1304884 -6.2109904 -1.9536999
4.2815528 -6.1129947 -1.9548062
4.4302635 -6.011261 -1.9558966
5.2677245 -5.325954 -1.962063
5.3973241 -5.1998601 -1.9630218
5.6472068 -4.9380937 -1.9648749
5.767334 -4.8025904 -1.9657677
5.8841209 -4.6641073 -1.9666375
6.1074414 -4.37854 -1.9683055
6.2138281 -4.2316256 -1.9691027
6.3165722 -4.0820704 -1.969874
6.4156442 -3.9299796 -1.9706198
6.5109959 -3.77542 -1.9713393
6.6024804 -3.6185026 -1.9720318
6.773828 -3.2979641 -1.9733348
6.8535547 -3.1345389 -1.9739443
6.9292188 -2.9691455 -1.9745251
