# .PCD v0.7 - Point Cloud Data file format
VERSION 0.7
FIELDS x y z
SIZE 4 4 4
TYPE F F F
COUNT 1 1 1
WIDTH 1495
HEIGHT 1
VIEWPOINT 0 0 0 1 0 0 0
POINTS 1495
DATA ascii
4.3840919 -3.1906519 -1.9562559
4.4610934 -3.0848937 -1.9568347
4.7427244 -2.6435828 -1.9589636
4.8062887 -2.5290475 -1.9594476
4.9249606 -2.2953436 -1.9603556
4.9799705 -2.1763558 -1.9607791
5.127295 -1.8116134 -1.9619234
5.1704102 -1.6876898 -1.9622623
5.2474217 -1.4368097 -1.9628741
5.2812696 -1.3100067 -1.963147
5.3396287 -1.0540051 -1.9636258
5.3640528 -0.92500728 -1.9638312
2.6737988 -0.13418885 -0.96588552
-2.3189549 -4.3579512 -1.9077219
-2.2140234 -4.4143381 -1.9084643
-2.1077149 -4.4682231 -1.9092176
-1.8912988 -4.5683522 -1.9107531
-1.5579394 -4.6989746 -1.9131236
-1.3306249 -4.7726822 -1.9147437
-0.98327148 -4.8626952 -1.9172239
-0.8660742 -4.8871355 -1.9180624
-0.62993163 -4.9275637 -1.9197536
-0.51109374 -4.9435163 -1.9206055
-0.391875 -4.956615 -1.9214611
-0.1525 -4.9741955 -1.9231807
-0.032490235 -4.9786592 -1.9240439
0.20786132 -4.9789062 -1.9257745
0.32805663 -4.9746814 -1.9266409
0.44816405 -4.9675522 -1.9275073
0.68784177 -4.9445939 -1.9292386
0.80727535 -4.9287701 -1.9301022
1.0449902 -4.8884544 -1.9318231
1.2806543 -4.8366413 -1.9335321
1.5137695 -4.7734232 -1.9352251
1.6291894 -4.7375727 -1.9360642
2.0815918 -4.566328 -1.9393612
2.1920507 -4.5166645 -1.9401679
2.3013184 -4.4643121 -1.9409667
2.6212597 -4.2913904 -1.9433101
2.9281054 -4.0953608 -1.9455645
3.2201366 -3.877192 -1.9477174
3.3138964 -3.7997367 -1.9484103
3.4957128 -3.6380043 -1.9497564
3.583662 -3.5538063 -1.9504091
3.6695311 -3.4674635 -1.9510473
3.7533202 -3.3790166 -1.9516708
3.8349218 -3.2885196 -1.952279
3.9143262 -3.1960258 -1.9528719
4.0662889 -3.0052719 -1.95401
4.1387501 -2.9071188 -1.9545541
4.2087989 -2.8071969 -1.9550815
4.3415232 -2.6022735 -1.9560843
4.4041014 -2.4973924 -1.9565588
4.4640918 -2.390986 -1.957015
4.5762205 -2.1738524 -1.9578723
4.6186132 2.0903254 -1.9591541
4.5107617 2.3097899 -1.9584278
4.3291893 2.628263 -1.9571933
4.263545 2.7312994 -1.9567441
4.1954298 2.8326714 -1.956277
4.0518751 3.0301886 -1.9552885
3.8190136 3.3125157 -1.9536765
3.7369041 3.4026794 -1.9531057
3.6526463 3.4907806 -1.9525192
3.5662498 3.5767729 -1.9519168
3.4778416 3.6605992 -1.9512994
3.3874414 3.742213 -1.950667
3.1048241 3.9733202 -1.9486849
3.0070117 4.0456309 -1.9479975
2.9075196 4.1155052 -1.9472969
2.8063574 4.1829123 -1.9465839
2.2859571 4.2402477 -1.8615928
2.1576562 4.2443995 -1.8400222
1.9097656 4.2529078 -1.8016349
1.7931738 4.2657676 -1.7882338
1.5828418 4.3404136 -1.7854059
1.2632226 4.4378343 -1.7831266
1.0468163 4.4896984 -1.7815802
0.93779296 4.5116663 -1.7808001
0.38723633 4.5815463 -1.7768518
0.27648437 4.5874972 -1.7760557
0.054873046 4.5913658 -1.7744607
-0.055878904 4.5892897 -1.7736627
-0.16649413 4.5845423 -1.7728653
-0.49688476 4.5543628 -1.7704791
-0.6063574 4.5390196 -1.7696874
-0.71535152 4.5210595 -1.7688986
-0.8238281 4.5004869 -1.7681128
-0.93173826 4.4773254 -1.7673304
-1.1455859 4.4232874 -1.7657782
-1.2513964 4.3924522 -1.7650092
-1.356416 4.3590956 -1.7642453
-1.4605469 4.3232532 -1.7634872
-1.5637305 4.284935 -1.7627356
-1.7915624 4.2591648 -1.7856402
-1.9123437 4.2560596 -1.8031585
-2.0355272 4.2527084 -1.822018
-2.1612988 4.2491016 -1.8422792
-2.2898633 4.2452235 -1.8640115
-2.4214647 4.2410607 -1.8872896
-2.6509764 4.1629748 -1.9072825
-2.8465233 4.027235 -1.9058435
-3.2166796 3.7288806 -1.9031097
-3.3045409 3.6489563 -1.9024588
-3.636035 3.3092992 -1.8999939
-3.7891307 3.128195 -1.8988501
-3.8623729 3.0350053 -1.8983014
-3.9333594 2.9401281 -1.8977685
-4.1323829 2.645921 -1.896268
-4.193965 2.5448394 -1.8958013
-4.2531247 2.4423511 -1.8953518
-4.309824 2.3385139 -1.8949199
-4.3640332 2.2333832 -1.8945053
-4.4648438 2.0194781 -1.8937304
-4.5113864 1.910827 -1.8933703
-4.6354003 1.5787945 -1.8924013
-4.7047653 1.3530011 -1.8918502
-4.7354102 1.2389556 -1.8916034
-4.8307323 0.77662045 -1.8908111
-4.8618555 0.54264647 -1.8905334
-4.8818455 0.30749449 -1.8903357
-4.8906932 0.071674801 -1.8902179
-4.8883691 -0.16428283 -1.8901806
-4.863945 -0.51736873 -1.8902755
-4.8145018 -0.86784178 -1.8905514
-4.677207 -1.4415166 -1.8914084
-4.6034083 -1.665845 -1.8918885
-4.3730469 -2.2094572 -1.8934228
-4.2630858 -2.4187512 -1.8941668
-4.2043848 -2.5214145 -1.8945659
-4.0797071 -2.7224801 -1.8954177
-4.0138087 -2.8207746 -1.8958697
-3.8750389 -3.0125916 -1.896825
-3.6500487 -3.287611 -1.8983821
-3.5707226 -3.3756785 -1.8989331
-3.4892774 -3.4618611 -1.8994998
-3.4058201 -3.5461071 -1.9000814
-3.3203223 -3.6283715 -1.9006784
-3.2328906 -3.7086031 -1.9012896
-3.1435058 -3.7867556 -1.9019152
-3.0522754 -3.8627782 -1.9025549
-2.9592383 -3.9366305 -1.9032077
-2.6696777 -4.1447382 -1.9052451
-2.261328 -4.3893137 -1.9081296
-2.0486329 -4.4968162 -1.9096365
-1.9403515 -4.5467539 -1.9104046
-1.8308495 -4.5941062 -1.9111825
-1.7202051 -4.6388426 -1.9119688
-1.6084667 -4.6809306 -1.912764
-0.91880858 -4.876502 -1.917685
-0.68315428 -4.919467 -1.9193721
-0.56453127 -4.9367008 -1.9202223
-0.44546875 -4.951087 -1.9210763
-0.20635742 -4.9712486 -1.9227935
0.39420897 -4.9711156 -1.9271181
0.51422852 -4.962389 -1.9279842
0.75366211 -4.9362383 -1.9297143
0.87289059 -4.9188209 -1.9305769
1.3451366 -4.820365 -1.9339999
1.919541 -4.6334734 -1.938179
2.5741308 -4.3187823 -1.9429644
2.6786132 -4.2571106 -1.9437311
2.781621 -4.1928859 -1.9444875
2.8830469 -4.1261501 -1.9452331
2.9828711 -4.0569382 -1.9459677
3.0810156 -3.9852858 -1.9466908
3.1774023 -3.9112327 -1.9474019
3.3647461 -3.7561002 -1.9487863
3.5444043 -3.5919025 -1.9501177
3.8789356 -3.2378237 -1.9526076
3.9570897 -3.1442568 -1.9531918
4.1064744 -2.9514368 -1.9543117
4.2463279 -2.7514315 -1.9553645
4.3763084 -2.5447052 -1.9563478
4.5359278 2.2609656 -1.9585977
4.4198146 2.476104 -1.9578109
4.2933397 2.6852124 -1.9569482
4.2263279 2.7873383 -1.956489
4.1568556 2.8877673 -1.9560119
4.0849705 2.9864428 -1.9555166
4.0106735 3.0833056 -1.955004
3.9340625 3.1782908 -1.9544741
3.7740624 3.3624206 -1.9533643
3.4283006 3.7058227 -1.950953
3.3368163 3.7861974 -1.9503126
3.2434278 3.8642883 -1.9496582
3.1481934 3.9400561 -1.9489899
2.7499804 4.2189612 -1.9461862
2.6132324 4.228827 -1.9210882
2.344502 4.2382898 -1.8717793
2.0882714 4.2465663 -1.8287733
1.4184473 4.3936939 -1.7842343
1.3115039 4.4247389 -1.7834713
1.0956347 4.4789648 -1.7819293
0.9868359 4.5021214 -1.7811513
0.76788086 4.5404773 -1.7795835
0.54751951 4.5681715 -1.7780029
0.43695313 4.5780005 -1.7772089
0.32624999 4.585156 -1.7764136
0.21545897 4.5896335 -1.7756168
0.10462891 4.5914307 -1.774819
-0.0061328122 4.5905542 -1.7740213
-0.1168164 4.5870056 -1.7732235
-0.22732422 4.5807934 -1.7724264
-0.33761719 4.5719223 -1.7716302
-0.77514648 4.5100513 -1.7684654
-0.88333005 4.488049 -1.7676814
-0.99088866 4.4634657 -1.7669013
-1.0977734 4.4363132 -1.7661253
-1.2039551 4.4066172 -1.7653539
-1.3093359 4.3743906 -1.7645879
-1.5174901 4.3024573 -1.7630725
-1.6236132 4.271915 -1.7660974
-1.7380078 4.2604847 -1.7781898
-1.8578027 4.257483 -1.7951273
-2.3619628 4.2429676 -1.8766356
-2.4953418 4.2386451 -1.9008007
-2.6061621 4.1921864 -1.907612
-2.8991797 3.9882457 -1.9054552
-3.2653222 3.685122 -1.9027494
-3.3521092 3.6040587 -1.9021057
-3.6790624 3.2601507 -1.8996729
-3.7554979 3.169497 -1.8991015
-3.829746 3.0770831 -1.8985457
-3.9714842 2.8871813 -1.8974818
-4.038877 2.7897942 -1.8969741
-4.1039453 2.6908538 -1.8964831
-4.1666112 2.5904284 -1.8960088
-4.2268653 2.4885681 -1.8955514
-4.2846484 2.3853314 -1.8951117
-4.3928123 2.1749499 -1.8942847
-4.4430957 2.067929 -1.8938982
-4.4907908 1.9597729 -1.8935299
-4.5784373 1.7402802 -1.8928485
-4.6901364 1.4040009 -1.8919672
-4.7511425 1.1758581 -1.8914757
-4.7775779 1.06078 -1.8912591
-4.80125 0.94512939 -1.891062
-4.8222165 0.82896054 -1.8908844
-4.8404002 0.71233946 -1.8907269
-4.8558202 0.59532899 -1.890589
-4.8783298 0.36039245 -1.8903732
-4.8854098 0.24260497 -1.890295
-4.8896971 0.12468567 -1.8902372
-4.889863 -0.11129577 -1.890182
-4.8788767 -0.34700501 -1.8902072
-4.8567286 -0.5819397 -1.8903128
-4.8234763 -0.81558961 -1.8904986
-4.7792087 -1.0474206 -1.8907645
-4.657959 -1.5036267 -1.8915329
-4.5389061 -1.8372692 -1.8923138
-4.446455 -2.0547082 -1.8929298
-4.3963771 -2.1617508 -1.8932658
-4.2310448 -2.4754601 -1.8943844
-4.1710157 -2.5773571 -1.8947934
-4.0437107 -2.7768075 -1.8956643
-3.9765136 -2.8742397 -1.896126
-3.907002 -2.9700716 -1.8966044
-3.7612011 -3.1567261 -1.8976116
-3.6849999 -3.2474453 -1.8981396
-3.6066113 -3.336344 -1.8986838
-3.3589745 -3.5916591 -1.9004083
-3.1838963 -3.751904 -1.9016323
-3.0935156 -3.8288884 -1.9022655
-3.0012403 -3.9037225 -1.9029129
-2.9072168 -3.9763589 -1.9035733
-2.7140136 -4.1148877 -1.9049326
-2.614912 -4.1806889 -1.9056312
-2.2032812 -4.4199204 -1.9085406
-1.9891504 -4.5246363 -1.9100583
-1.658789 -4.6623497 -1.9124056
-1.5464941 -4.702971 -1.913205
-1.2038964 -4.8086214 -1.9156479
-0.61787111 -4.9293108 -1.9198401
-0.49902344 -4.9449754 -1.9206921
-0.37975585 -4.9577827 -1.9215481
-0.26017576 -4.9677191 -1.9224067
-0.14034179 -4.9747796 -1.9232681
-0.020292968 -4.9789495 -1.9241314
0.22006835 -4.9786081 -1.9258624
0.46033201 -4.9666667 -1.9275951
0.58026367 -4.9563432 -1.9284613
1.0569922 -4.8861012 -1.93191
1.1750586 -4.8613367 -1.932766
1.5255176 -4.7699137 -1.9353104
1.7553124 -4.69484 -1.9369824
1.8688476 -4.6531177 -1.9378093
2.3123338 -4.4588494 -1.9410473
2.7355468 -4.2220497 -1.944149
2.9382226 -4.0883365 -1.945639
3.2297168 -3.8694375 -1.947788
3.504746 -3.6295593 -1.9498234
3.8430858 -3.2792256 -1.95234
3.9222558 -3.1865346 -1.9529312
4.1459665 -2.8970592 -1.9546084
4.3479881 -2.5917063 -1.9561331
4.4103026 -2.4866629 -1.9566058
4.4700489 -2.3801074 -1.9570605
4.5816307 -2.162693 -1.9579138
4.6334081 -2.051966 -1.958312
4.5050001 2.3207793 -1.9583888
4.2567477 2.7416637 -1.9566977
3.7284276 3.4117107 -1.9530468
3.6439745 3.4996002 -1.9524587
3.4687793 3.6689806 -1.9512361
3.3781445 3.7503662 -1.9506021
3.0949707 3.9807689 -1.9486158
2.9970117 4.0528345 -1.9479269
2.6755762 4.2265234 -1.9331049
2.4036913 4.2362719 -1.882282
2.2727735 4.2406821 -1.8593343
2.0196581 4.2486534 -1.8179556
1.3618262 4.4178696 -1.7865477
1.1443359 4.4676991 -1.7822773
1.0357813 4.4920483 -1.7815013
0.81720704 4.5327892 -1.7799368
0.59710938 4.5628834 -1.7783587
0.48665038 4.5739169 -1.7775658
-0.17771484 4.5839133 -1.7727844
-0.28810546 4.5762339 -1.7719876
-0.50801754 4.552927 -1.7703989
-0.72637695 4.5190916 -1.7688186
-0.83480465 4.4982519 -1.7680331
-0.94266599 4.4748292 -1.7672511
-1.3670214 4.355576 -1.764168
-1.5741405 4.2809119 -1.7626595
-1.6862597 4.2652636 -1.7724535
-1.8037109 4.2588611 -1.787359
-2.0481834 4.2523546 -1.8240087
-2.3030565 4.244813 -1.8663001
-2.6610644 4.156311 -1.9072083
-2.8562596 4.0201049 -1.9057717
-3.0446289 3.8748376 -1.904382
-3.3133495 3.6407347 -1.9023933
-3.4827929 3.4743884 -1.9011352
-3.5644433 3.3882866 -1.9005275
-3.6440136 3.3002875 -1.8999343
-3.7214258 3.2104492 -1.8993564
-3.8696678 3.025454 -1.8982465
-4.0088673 2.8337419 -1.8972002
-4.1387596 2.6357257 -1.8962197
-4.3693943 2.2226477 -1.8944644
-4.4208007 2.1161559 -1.8940698
-4.5159764 1.8997424 -1.8933346
-4.5596681 1.7899346 -1.8929952
-4.8325782 0.76478636 -1.8907951
-4.8492575 0.64794189 -1.8906482
-4.8631444 0.53074521 -1.8905215
-4.8825879 0.29554138 -1.8903277
-4.8908396 0.059708249 -1.8902141
-4.8907909 -0.058283079 -1.8901874
-4.887959 -0.17625122 -1.8901809
-4.8626757 -0.52927369 -1.8902819
-4.8486814 -0.64643615 -1.8903559
-4.8319139 -0.76324707 -1.8904499
-4.8124022 -0.87963134 -1.890564
-4.7650781 -1.1108844 -1.8908515
-4.6737304 -1.4529809 -1.891431
-4.5993748 -1.6771374 -1.8919152
-4.5582423 -1.7878457 -1.8921859
-4.4191895 -2.1138036 -1.8931124
-4.3677149 -2.2202051 -1.8934588
-4.3137207 -2.3253634 -1.8938235
-4.1369042 -2.632869 -1.8950263
-4.0069823 -2.8306601 -1.8959166
-3.9385252 -2.9272206 -1.8963873
-3.7947361 -3.1153924 -1.8973798
-3.7194922 -3.2069118 -1.8979007
-3.6420801 -3.296633 -1.8984373
-3.5625584 -3.3845117 -1.8989898
-3.4809277 -3.4705009 -1.8995581
-3.3972363 -3.5545421 -1.9001414
-3.3115234 -3.6366088 -1.9007397
-2.9496875 -3.9439986 -1.9032748
-2.6596289 -4.1514153 -1.905316
-2.4581347 -4.2780485 -1.9067378
-2.1448534 -4.4497681 -1.9089544
-2.0376854 -4.5020008 -1.9097143
-1.9292773 -4.5516763 -1.9104834
-1.7088964 -4.6432338 -1.9120492
-1.5970703 -4.6850543 -1.912845
-1.4842187 -4.7241988 -1.9136486
-1.3704101 -4.760643 -1.9144598
-1.0238965 -4.8535395 -1.9169335
-0.90692383 -4.8789539 -1.91777
-0.6711328 -4.9213462 -1.9194583
-0.43337891 -4.9523826 -1.921163
-0.31393555 -4.9636111 -1.9220206
0.16606446 -4.9796968 -1.9254733
0.40639648 -4.9703598 -1.9272059
0.526416 -4.9613395 -1.9280722
0.64622068 -4.9494181 -1.9289377
0.76578122 -4.9346008 -1.9298019
0.88498044 -4.9168906 -1.9306643
1.0037793 -4.8962913 -1.9315246
1.1220801 -4.872817 -1.9323819
1.2398437 -4.8464732 -1.9332359
1.3569921 -4.8172741 -1.934086
1.4734374 -4.7852325 -1.9349319
1.5891503 -4.7503572 -1.935773
1.7040136 -4.7126775 -1.9366088
1.930957 -4.6289592 -1.9382621
2.1537793 -4.5342422 -1.9398882
2.3719041 -4.4287271 -1.9414831
2.4790332 -4.3719921 -1.9422675
2.5848045 -4.3126411 -1.9430429
2.6891601 -4.2507048 -1.9438086
2.7919824 -4.1862259 -1.9445635
2.8932519 -4.1192398 -1.9453082
2.9929199 -4.0497794 -1.9460417
3.1870995 -3.903583 -1.9474734
3.4646678 -3.6667717 -1.9495263
3.5533006 -3.5833387 -1.9501836
3.8067968 -3.3202224 -1.9520692
3.8869531 -3.22842 -1.9526675
4.0405273 -3.0389779 -1.9538168
4.1847167 -2.8421466 -1.9549
4.2531738 -2.7411003 -1.9554162
4.3191404 -2.6383815 -1.9559147
4.6607618 -1.9904296 -1.958523
4.530293 2.2720177 -1.9585599
4.4732909 2.3801653 -1.9581741
4.4136524 2.4868622 -1.9577692
4.3514357 2.5920539 -1.9573452
4.2194042 2.7976074 -1.9564416
4.0775194 2.9963524 -1.9554653
4.0030079 3.0930309 -1.9549512
3.8470507 3.2806823 -1.953871
3.6821678 3.4603734 -1.9527248
3.5965428 3.547111 -1.9521281
3.5088184 3.6316943 -1.9515159
3.3274219 3.7942297 -1.9502468
3.138418 3.9476135 -1.9489212
2.9423144 4.0914841 -1.947542
2.8417089 4.1597509 -1.9468331
2.738662 4.224154 -1.9454831
2.4635937 4.2341905 -1.8931117
2.3312304 4.2387376 -1.8694507
2.2019727 4.2429857 -1.847355
1.9518163 4.2506638 -1.8075579
1.8335546 4.2614012 -1.7927889
1.7240722 4.2890782 -1.786411
1.6194335 4.3276124 -1.7856663
1.3006152 4.4277415 -1.7833936
1.1929101 4.4559045 -1.7826245
0.97577149 4.5043249 -1.781072
0.86645508 4.5245619 -1.7802895
0.64665037 4.5570493 -1.7787141
0.53629881 4.5692868 -1.7779225
0.42572266 4.5788474 -1.7771282
0.31500977 4.5857334 -1.7763326
0.20419921 4.5899363 -1.7755357
0.093378901 4.5914621 -1.7747381
-0.017373046 4.5903172 -1.7739404
-0.34880859 4.5708714 -1.7715493
-0.45874023 4.559082 -1.7707549
-0.56832027 4.5446544 -1.7699628
-1.2147461 4.4034595 -1.7652755
-1.3199804 4.3709826 -1.7645105
-1.4244238 4.3360009 -1.7637503
-1.6351172 4.2707105 -1.7672476
-1.7500683 4.2601905 -1.7798519
-1.8700683 4.2571669 -1.7969172
-1.9924023 4.2539039 -1.8153032
-2.2448046 4.2466016 -1.8562816
-2.5090625 4.2381897 -1.9033456
-2.6163085 4.1856308 -1.9075375
-2.7154686 4.11973 -1.9068083
-2.8129981 4.0515003 -1.9060904
-2.908828 3.9809899 -1.9053842
-3.0952051 3.8332922 -1.9040082
-3.1856542 3.7561924 -1.9033394
-3.3608203 3.5957208 -1.9020413
-3.5280273 3.4272058 -1.9007986
-3.686914 3.2510357 -1.8996142
-3.8371484 3.0676098 -1.8984903
-4.1104102 2.6807306 -1.8964342
-4.3980174 2.1641419 -1.8942448
-4.4954982 1.9487365 -1.8934934
-4.6222262 1.6177191 -1.8925052
-4.7250586 1.2787012 -1.8916872
-4.7539454 1.164212 -1.8914529
-4.7801075 1.0490668 -1.8912381
-4.8421092 0.70048457 -1.8907119
-4.8695993 0.46606323 -1.8904601
-4.8859863 0.23064147 -1.8902884
-4.8899608 0.11271301 -1.8902324
-4.8895898 -0.12326477 -1.8901812
-4.8851953 -0.24117614 -1.8901858
-4.8780079 -0.35894775 -1.8902105
-4.8680563 -0.47652525 -1.8902553
-4.8397946 -0.71081477 -1.8904052
-4.8214841 -0.82739991 -1.8905102
-4.8004489 -0.94352412 -1.8906351
-4.7766795 -1.0591259 -1.89078
-4.7501464 -1.1741509 -1.8909446
-4.7208886 -1.2885175 -1.8911291
-4.5770602 -1.7382287 -1.8920617
-4.5344629 -1.8484036 -1.8923434
-4.4892673 -1.9575546 -1.8926437
-4.3911619 -2.1725457 -1.8933009
-4.3382812 -2.2782755 -1.8936574
-4.2250781 -2.4858658 -1.894425
-4.0369921 -2.7867663 -1.8957106
-3.9695506 -2.8840375 -1.8961738
-3.8998339 -2.9797058 -1.896654
-3.8278222 -3.0737133 -1.897151
-3.7535937 -3.1660116 -1.8976644
-3.5985546 -3.3452616 -1.8987396
-3.3502831 -3.5999844 -1.9004691
-2.991787 -3.9111962 -1.9029793
-2.8975878 -3.9836061 -1.903641
-2.6047754 -4.1872354 -1.9057028
-2.0859962 -4.4788489 -1.9093716
-1.9781348 -4.5296793 -1.9101367
-1.7587988 -4.6235828 -1.9116943
-1.3073437 -4.779552 -1.9149096
-1.1921874 -4.8117642 -1.9157313
-0.84222656 -4.8917546 -1.9182332
-0.72430664 -4.9128065 -1.9190774
-0.36765623 -4.9589219 -1.9216348
-0.2480371 -4.9685678 -1.9224942
-0.0080957031 -4.9792113 -1.9242194
0.47251952 -4.9657521 -1.9276832
0.95044917 -4.9059033 -1.9311383
1.0690039 -4.883719 -1.9319972
1.1870117 -4.8586645 -1.9328526
1.3044336 -4.8307433 -1.9337045
1.4212109 -4.7999778 -1.9345524
1.7668847 -4.6907306 -1.9370666
1.8803222 -4.6487284 -1.937893
2.1040916 -4.5564694 -1.9395254
2.2143164 -4.5062537 -1.9403306
2.3233299 -4.4533572 -1.9411279
2.537451 -4.3396254 -1.9426956
2.642451 -4.2788501 -1.9434657
3.04708 -4.0104795 -1.9464407
3.2393162 -3.8616612 -1.947859
3.3326952 -3.7837393 -1.9485492
3.6012402 -3.5364604 -1.9505395
3.6867187 -3.4496799 -1.9511749
3.8512206 -3.2699096 -1.9524008
3.9301758 -3.1770215 -1.9529904
4.0068359 -3.0821996 -1.9535643
4.289834 -2.684732 -1.955693
4.4164939 -2.4759178 -1.9566528
4.4759669 -2.3692114 -1.9571055
4.6384959 -2.0406582 -1.9583511
4.6585841 2.001405 -1.9594216
4.6081638 2.1128399 -1.9590842
4.440752 2.4391112 -1.9579535
4.3796873 2.5449805 -1.957538
4.2499413 2.7520103 -1.956651
4.1102247 2.9523265 -1.9556909
4.036777 3.0498247 -1.9551843
3.9609764 3.1454747 -1.9546603
3.8025196 3.3309777 -1.9535617
3.4596484 3.67734 -1.9511722
3.3688672 3.7585008 -1.9505371
3.1815233 3.9139671 -1.9492238
2.8871191 4.1293845 -1.9471533
2.5241308 4.2320509 -1.9042746
2.0070996 4.2490306 -1.8160089
1.455459 4.3822837 -1.7844982
1.3487793 4.414237 -1.7837373
1.2413769 4.4435763 -1.7829707
1.1333398 4.4702907 -1.7821988
0.9156152 4.5157981 -1.7806414
0.80606443 4.534574 -1.779857
0.58591795 4.5641222 -1.7782785
0.47543943 4.5748839 -1.7774854
0.36476561 4.5829749 -1.7766904
0.25399414 4.5883799 -1.7758939
0.032382812 4.5911622 -1.7742988
-0.078359373 4.588541 -1.7735008
-0.29929686 4.5753088 -1.7719069
-0.51915038 4.5514646 -1.7703183
-0.62850583 4.5355883 -1.7695272
-0.7374121 4.5170932 -1.7687389
-1.3776269 4.352025 -1.764091
-1.4815429 4.3156738 -1.7633343
-1.584541 4.2768602 -1.7625837
-1.8158886 4.2585545 -1.7890898
-2.0608497 4.251997 -1.8260134
-2.1871386 4.2483349 -1.8465677
-2.6711328 4.1496229 -1.9071344
-2.7693944 4.0824389 -1.9064114
-2.8659766 4.0129528 -1.9057001
-2.9608691 3.9411962 -1.9050002
-3.0539844 3.8672326 -1.904313
-3.1452539 3.7910974 -1.9036382
-3.3221581 3.632489 -1.902328
-3.407666 3.5501044 -1.9016933
-3.5726268 3.3794403 -1.9004666
-3.6519725 3.2912536 -1.899875
-3.8041699 3.1094196 -1.8987374
-4.1450782 2.6255193 -1.8961718
-4.2648535 2.4213867 -1.8952626
-4.3210349 2.3172839 -1.8948343
-4.4258986 2.1052814 -1.8940306
-4.5205173 1.8886437 -1.8932995
-4.5639548 1.7787366 -1.8929617
-4.6429005 1.5560315 -1.8923422
-4.7112107 1.3299139 -1.8917986
-4.7413087 1.21573 -1.8915555
-4.7933397 0.98541379 -1.8911282
-4.8885255 0.16570556 -1.8902551
-4.8875098 -0.18821594 -1.8901812
-4.8102536 -0.89141601 -1.8905767
-4.7623925 -1.1225463 -1.8908682
-4.734375 -1.237221 -1.8910437
-4.7036524 -1.3512018 -1.8912389
-4.6702051 -1.4644318 -1.8914536
-4.5953321 -1.6884073 -1.8919417
-4.5099025 -1.9086478 -1.8925064
-4.4140821 -2.124656 -1.8931468
-4.3623633 -2.2309213 -1.8934948
-4.3080955 -2.3359637 -1.8938617
-4.2513475 -2.4396989 -1.8942465
-4.0665331 -2.7425473 -1.8955079
-4.0001755 -2.840533 -1.8959634
-3.9314451 -2.9369271 -1.8964361
-3.8604491 -3.0316865 -1.8969256
-3.7117577 -3.2160945 -1.8979541
-2.9401269 -3.9513495 -1.9033421
-2.7480664 -4.0914588 -1.904693
-2.4477637 -4.2842164 -1.9068111
-2.1340234 -4.4551845 -1.909031
-1.585664 -4.689146 -1.9129261
-1.2440332 -4.7976274 -1.9153613
-1.128418 -4.8283215 -1.9161868
-1.0120703 -4.856246 -1.9170181
-0.89502931 -4.8813739 -1.9178551
-0.6591211 -4.9231949 -1.9195443
-0.54042965 -4.9398465 -1.9203951
-0.30182618 -4.9645867 -1.9221077
-0.182041 -4.9726501 -1.9229684
0.058046874 -4.980113 -1.9246954
0.17824218 -4.9795032 -1.9255608
0.77789062 -4.9329352 -1.9298894
1.0157909 -4.8940439 -1.9316115
1.2517675 -4.8436422 -1.9333224
1.4852148 -4.7818251 -1.9350175
1.8294531 -4.6679459 -1.9375223
1.9423535 -4.6244187 -1.9383453
2.0541992 -4.5781493 -1.9391613
2.1649511 -4.5291514 -1.9399699
2.3828125 -4.4230938 -1.941563
2.6996484 -4.2442832 -1.9438854
3.0029297 -4.042594 -1.9461154
3.196748 -3.8959181 -1.9475447
3.3833106 -3.7398534 -1.9489239
3.4737597 -3.6584082 -1.9495937
3.5621777 -3.5747573 -1.9502496
3.6485643 -3.4889333 -1.9508914
3.8949609 -3.2189937 -1.9527273
4.0480566 -3.0291729 -1.9538733
4.1211133 -2.9314601 -1.9544216
4.1917577 -2.8319781 -1.954953
4.388916 -2.5233788 -1.9564434
4.4495606 -2.417335 -1.9569045
4.5075879 -2.30983 -1.9573469
4.5629883 -2.200896 -1.9577708
4.6657028 -1.9790652 -1.9585612
4.6311717 2.0629151 -1.9592383
4.579248 2.1736505 -1.9588897
4.3449802 2.6026208 -1.9573011
3.995332 3.1027222 -1.954898
3.757334 3.3806524 -1.9532478
3.6736035 3.4692724 -1.9526652
3.587744 3.5557795 -1.9520669
3.4998338 3.6401451 -1.9514532
3.4098926 3.7223155 -1.9508243
3.3180175 3.8022277 -1.9501809
3.2242479 3.8798535 -1.9495236
3.0312696 4.028038 -1.9481678
2.9321778 4.0985227 -1.9474705
2.7243261 4.2246962 -1.9426553
2.3179784 4.239182 -1.8671377
2.1890137 4.243402 -1.8451996
2.0628808 4.2473474 -1.8247375
1.9393749 4.2510252 -1.8056902
1.7135156 4.2931027 -1.7863358
1.5032421 4.3670835 -1.7848388
1.2897069 4.4307151 -1.7833157
1.1819531 4.4586143 -1.782546
0.96470702 4.5064988 -1.7809929
0.85533202 4.5264707 -1.7802099
0.52508789 4.5703797 -1.7778419
0.3037793 4.5862818 -1.7762519
0.19296874 4.5902133 -1.775455
-0.13926758 4.5859618 -1.7730616
-0.24975586 4.5792089 -1.7722644
-0.35997069 4.5697961 -1.7714688
-0.46989256 4.5577402 -1.7706743
-0.68854493 4.5257297 -1.7690927
-0.90521485 4.4832716 -1.7675227
-1.1193848 4.4304957 -1.7659684
-1.5383886 4.2946033 -1.7629201
-1.8823925 4.2568469 -1.7987213
-2.2579002 4.2462049 -1.8585141
-2.3887401 4.2421155 -1.8814073
-2.6264257 4.1790586 -1.9074631
-2.822793 4.0444579 -1.9060184
-3.2830663 3.6688402 -1.9026179
-3.694746 3.2419086 -1.8995556
-3.770752 3.1508911 -1.8989875
-3.8445213 3.0581322 -1.898435
-3.9160838 2.9636621 -1.8978982
-4.2387891 2.4677343 -1.8954607
-4.2960935 2.3642144 -1.8950245
-4.403213 2.1533349 -1.8942049
-4.4529686 2.0460906 -1.893822
-4.5447755 1.8282409 -1.8931112
-4.6627927 1.4941076 -1.8921847
-4.7281055 1.2671161 -1.8916626
-4.8261423 0.80533749 -1.8908508
-4.8437791 0.68862182 -1.8906971
-4.858623 0.5715521 -1.8905634
-4.8707128 0.45414856 -1.8904493
-4.8864942 0.21869141 -1.8902818
-4.8902245 0.10074402 -1.8902279
-4.8845897 -0.25311095 -1.8901875
-4.8771386 -0.37087891 -1.8902141
-4.8668942 -0.48844481 -1.8902609
-4.8538671 -0.60570371 -1.890328
-4.7981739 -0.95526856 -1.8906487
-4.7740917 -1.0708239 -1.8907958
-4.7473044 -1.1857684 -1.8909625
-4.6855664 -1.4136388 -1.8913549
-4.6130662 -1.6384021 -1.8918253
-4.5728416 -1.7494348 -1.8920895
-4.4845409 -1.9685528 -1.8926754
-4.4365134 -2.0765164 -1.8929964
-4.3327832 -2.2889166 -1.8936948
-4.2771583 -2.39325 -1.8940713
-4.0955958 -2.6980324 -1.8953089
-3.9625976 -2.8938103 -1.8962215
-3.82041 -3.0831511 -1.8972023
-3.7459178 -3.1752815 -1.8977176
-3.6692674 -3.2656186 -1.8982487
-3.509541 -3.440798 -1.8993587
-3.4265721 -3.5255296 -1.8999368
-3.2546289 -3.6890206 -1.9011377
-3.1657031 -3.7676952 -1.9017596
-3.0749218 -3.8442378 -1.9023958
-2.8879297 -3.9908297 -1.9037088
-2.594619 -4.1937437 -1.9057745
-2.4936132 -4.2567091 -1.9064872
-2.3911133 -4.3172679 -1.9072115
-2.2871583 -4.3753705 -1.9079467
-1.523584 -4.7108841 -1.9133682
-1.2956933 -4.7829461 -1.9149927
-0.94771481 -4.870429 -1.9174783
-0.59380859 -4.9327173 -1.9200125
-0.47485352 -4.9477987 -1.9208655
-0.23588866 -4.9693842 -1.9225813
0.24442382 -4.9779267 -1.926038
0.36459962 -4.9728208 -1.9269046
0.48468748 -4.9648075 -1.927771
0.84353513 -4.9233813 -1.9303646
1.080996 -4.8813081 -1.932084
1.3163183 -4.827754 -1.9337908
1.4330078 -4.7967033 -1.934638
1.5489843 -4.7628102 -1.9354811
1.6641308 -4.7261038 -1.9363186
1.7784082 -4.6866031 -1.9371505
2.4419239 -4.3920274 -1.9419959
2.5481834 -4.3335767 -1.9427743
2.7563868 -4.2089453 -1.944302
2.9584179 -4.0742221 -1.9457877
3.0569823 -4.0031595 -1.9465137
3.3420606 -3.7757175 -1.9486185
3.4333594 -3.6952767 -1.9492944
3.7783689 -3.3516965 -1.9518574
3.9380369 -3.1674838 -1.9530493
4.2296386 -2.7764428 -1.9552386
4.296504 -2.6742935 -1.9557436
4.3608298 -2.5705233 -1.9562304
4.4226365 -2.4651673 -1.9566995
4.4818454 -2.358321 -1.9571506
4.5384178 -2.2500129 -1.9575827
4.6435838 -2.0293465 -1.9583905
-2.1734374 -4.0844679 -1.9088322
-2.0750196 -4.1372175 -1.9095287
-1.9753612 -4.1876154 -1.9102349
-1.3538085 -4.4389939 -1.9146529
-0.70104492 -4.5990248 -1.9193166
-0.59015626 -4.6165075 -1.9201111
-0.4788281 -4.6313238 -1.9209094
-0.1428711 -4.6596708 -1.9233221
0.30726561 -4.6595964 -1.9265634
0.41976562 -4.6527882 -1.927375
0.75604492 -4.6160669 -1.9298049
0.86754882 -4.5984092 -1.9306118
1.0892285 -4.5550036 -1.932218
1.1992871 -4.5292749 -1.9330164
1.3087207 -4.5008764 -1.9338109
1.4175 -4.4698238 -1.9346012
1.6327538 -4.399816 -1.9361672
1.8445019 -4.3193889 -1.9377105
2.0522852 -4.2287083 -1.9392276
2.1545312 -4.1795835 -1.9399749
2.2556055 -4.1279693 -1.9407147
2.4538965 -4.0173831 -1.9421678
2.5510254 -3.9584727 -1.9428806
2.9246874 -3.6995025 -1.9456308
3.0140917 -3.6291063 -1.9462905
3.1017871 -3.5565257 -1.9469388
3.1877246 -3.481811 -1.9475746
3.3540525 -3.3261185 -1.948808
3.4343555 -3.2452381 -1.9494046
3.5127051 -3.162395 -1.9499878
3.5890136 -3.0776384 -1.9505566
3.6632421 -2.9910173 -1.9511111
3.8730567 -2.72049 -1.9526837
4.0017481 -2.5317857 -1.9536537
4.0626073 -2.4350934 -1.9541141
4.1771874 -2.2373128 -1.9549844
4.2308202 -2.1363492 -1.9553937
4.2723045 2.0591638 -1.9566534
3.9895701 2.5557768 -1.9547311
3.9258885 2.6506755 -1.9542944
3.8599021 2.7439678 -1.9538406
3.7916698 2.8355944 -1.9533703
3.4971776 3.1843915 -1.9513295
3.4183886 3.2669036 -1.9507812
2.9958887 3.6489635 -1.9478265
2.906074 3.718966 -1.9471956
2.7215037 3.8522241 -1.9458972
2.6268749 3.9154112 -1.94523
2.1328223 4.1955028 -1.9417368
2.0221581 4.227263 -1.9332922
1.6623925 4.2379222 -1.8781184
1.5466113 4.2409754 -1.8623915
1.3202929 4.2463903 -1.8346368
0.9916113 4.2528954 -1.8016583
0.67408204 4.2666564 -1.7821075
0.56967771 4.2720346 -1.7780948
0.051367186 4.3005114 -1.7743689
-0.052353516 4.2986903 -1.7736217
-0.36259764 4.2782407 -1.771383
-0.67436522 4.262157 -1.7802938
-0.88576168 4.2565894 -1.7937444
-1.1015429 4.2533326 -1.8126751
-1.2111719 4.2514038 -1.8237777
-1.6649121 4.241538 -1.8798919
-1.782871 4.2384958 -1.897058
-1.9001367 4.2288499 -1.9127042
-2.0008202 4.180171 -1.911968
-2.1984277 4.0757189 -1.9105211
-2.2952344 4.0200071 -1.9098114
-2.484668 3.9017859 -1.9084203
-2.931035 3.5682929 -1.9051297
-3.0152636 3.4954064 -1.9045064
-3.0977147 3.4205589 -1.9038955
-3.1783299 3.3437884 -1.9032977
-3.2570801 3.2651446 -1.9027125
-3.3338768 3.1846728 -1.9021411
-3.4087305 3.102412 -1.9015832
-3.4815722 3.0184216 -1.9010394
-3.5523729 2.9327428 -1.9005101
-3.6877148 2.7565265 -1.8994952
-3.7521875 2.6660876 -1.8990103
-3.8144531 2.5741663 -1.8985407
-3.8745313 2.4808111 -1.8980868
-3.9323437 2.3860748 -1.8976489
-4.140449 1.9944286 -1.8960606
-4.2302732 1.7917571 -1.8953674
-4.2375779 -1.7689865 -1.8944992
-4.1943259 -1.8709738 -1.8947872
-4.1005468 -2.0717785 -1.8954165
-4.0501366 -2.1704826 -1.8957571
-3.9422362 -2.3642068 -1.8964895
-3.8848436 -2.4591184 -1.8968811
-3.6993456 -2.7354317 -1.8981537
-3.5648534 -2.9120898 -1.8990817
-3.3476171 -3.1647537 -1.900588
-3.0306346 -3.4766064 -1.902799
-2.9468067 -3.5497959 -1.9033859
-2.6849999 -3.7572086 -1.9052236
-2.5023437 -3.8849533 -1.9065096
-2.2172167 -4.0600104 -1.9085226
-2.1193945 -4.1138077 -1.9092146
-1.8184179 -4.2610478 -1.9113482
-1.7157519 -4.3053141 -1.9120773
-1.5072851 -4.3864532 -1.9135598
-1.4015918 -4.4232726 -1.9143124
-0.97041988 -4.5450282 -1.9173892
-0.86086911 -4.5689812 -1.9181727
-0.64002931 -4.6089811 -1.9197537
-0.52889645 -4.6249976 -1.9205502
-0.41734374 -4.638341 -1.9213507
-0.30547851 -4.6490016 -1.9221536
-0.1933203 -4.6569705 -1.9229594
-0.080957033 -4.6622357 -1.9237672
0.1441211 -4.6646404 -1.9253874
0.36922851 -4.6561847 -1.9270104
0.48164061 -4.6478758 -1.9278218
0.70583981 -4.6231217 -1.9294418
0.81749022 -4.6066775 -1.9302496
0.92876953 -4.5875292 -1.9310553
1.0395995 -4.565691 -1.9318582
1.1499023 -4.5411649 -1.9326581
1.2596191 -4.5139618 -1.9334543
1.5846777 -4.4164548 -1.9358174
1.7972851 -4.338356 -1.9373661
2.0059764 -4.2499628 -1.9388891
2.1087499 -4.2019615 -1.9396402
2.5075586 -3.9852359 -1.9425616
2.6988084 -3.8624499 -1.943967
2.7921679 -3.7975693 -1.9446539
2.8839648 -3.7304089 -1.9453305
3.0626073 -3.5894005 -1.946649
3.1493359 -3.5156398 -1.9472903
3.2342479 -3.4397616 -1.9479192
3.3173437 -3.3618047 -1.9485353
3.398535 -3.2818222 -1.9491384
3.554961 -3.1159499 -1.9503027
3.6301563 -3.0301614 -1.950864
3.8429101 -2.761986 -1.9524572
3.9094043 -2.6691689 -1.9529572
4.0951171 -2.3812053 -1.9543604
4.1523046 -2.2822313 -1.9547949
4.2070408 -2.1818733 -1.955212
4.1911325 2.2168932 -1.956105
4.0777245 2.4155023 -1.9553338
3.9547656 2.6082366 -1.9544926
3.7531445 2.8853276 -1.9531043
3.6815331 2.9742663 -1.9526089
3.6077635 3.0614045 -1.9520978
3.531914 3.1466913 -1.951571
3.3741503 3.3115129 -1.9504728
3.2923143 3.3909442 -1.9499017
3.1230469 3.543632 -1.9487177
2.9466209 3.6877928 -1.9474804
2.8558495 3.756566 -1.9468426
2.7635057 3.8230846 -1.9461929
2.66958 3.8873096 -1.9455312
2.3789842 4.0658798 -1.9434795
2.2793846 4.1205883 -1.9427749
1.9545507 4.2293983 -1.9222198
1.8336718 4.2330627 -1.9032245
1.4836328 4.242557 -1.8542669
1.3706055 4.2452512 -1.8404547
0.82647461 4.2594142 -1.7900616
0.6164453 4.2689905 -1.7795047
0.5127539 4.2782407 -1.7776861
0.40929687 4.2875719 -1.7769433
0.30558592 4.2943954 -1.776198
-0.1094043 4.2966175 -1.7732104
-0.21293944 4.2909155 -1.7724637
-0.41935545 4.2724962 -1.7711542
-0.5232324 4.2688169 -1.7743454
-0.73205078 4.2592115 -1.782969
-1.0527148 4.2541332 -1.8080469
-1.2721679 4.2502537 -1.8303738
-1.3839941 4.2479978 -1.8432486
-1.4974023 4.2455273 -1.8573114
-1.8487402 4.2367139 -1.9070873
-1.9557226 4.2023387 -1.912298
-2.055742 4.1523461 -1.9115663
-2.1544824 4.0999985 -1.9108431
-2.251914 4.045321 -1.9101291
-2.442627 3.9291198 -1.9087292
-2.6273925 3.804033 -1.90737
-2.8058691 3.6703479 -1.9060544
-2.8926172 3.6003864 -1.9054137
-2.9776464 3.528399 -1.9047849
-3.0608983 3.4544299 -1.9041685
-3.2219434 3.300705 -1.9029738
-3.3753417 3.1395886 -1.9018322
-3.5208299 2.9714372 -1.9007461
-3.723496 2.7069073 -1.8992262
-3.8478222 2.5229235 -1.8982888
-3.9631834 2.3333337 -1.8974147
-4.069365 2.1385632 -1.8966055
-4.1189647 2.0393627 -1.8962256
-4.166162 1.9390411 -1.8958627
-4.2109375 1.8376471 -1.8955171
-4.2959571 -1.6194417 -1.8941131
-4.2562108 -1.7228464 -1.8943757
-4.2140427 -1.8252792 -1.8946558
-4.0730662 -2.1262884 -1.8956021
-3.9672852 -2.3211334 -1.8963193
-3.8522949 -2.5108097 -1.8971037
-3.5263672 -2.959609 -1.8993478
-3.381289 -3.1279016 -1.9003539
-3.2283008 -3.2891805 -1.9014187
-3.1489551 -3.367074 -1.9019721
-3.0677049 -3.443089 -1.9025397
-2.9846776 -3.5171576 -1.9031206
-2.8998828 -3.5892503 -1.9037145
-2.7251563 -3.7273326 -1.9049413
-2.6353416 -3.7932463 -1.9055729
-2.5439258 -3.8570137 -1.9062167
-2.4509668 -3.9186013 -1.9068719
-2.3565624 -3.9779727 -1.9075379
-2.2607129 -4.0350928 -1.9082153
-2.1635058 -4.0899291 -1.9089025
-2.0649805 -4.1424379 -1.9095999
-1.8641796 -4.2403703 -1.9110235
-1.7620214 -4.2857285 -1.9117486
-1.5544434 -4.3690934 -1.9132243
-1.4491894 -4.4070435 -1.9139733
-1.1280664 -4.5056829 -1.9162632
-0.91019529 -4.5585437 -1.9178201
-0.80028319 -4.5810513 -1.9186062
-0.68982422 -4.6009164 -1.9193971
-0.1314746 -4.6602035 -1.9234041
-0.019003905 -4.6639795 -1.9242129
0.093535155 -4.6650467 -1.9250232
0.20613281 -4.6633973 -1.9258343
0.31868163 -4.6590271 -1.9266458
0.43116209 -4.6519461 -1.9274572
0.65558594 -4.6296258 -1.9290783
0.76739258 -4.6143994 -1.9298871
0.98987305 -4.5758352 -1.9314978
1.1004394 -4.5525122 -1.9322991
1.2104101 -4.5265136 -1.9330972
1.6435839 -4.3959832 -1.9362462
1.7498339 -4.356801 -1.9370202
1.9594629 -4.2707076 -1.9385494
2.0627246 -4.2238374 -1.9393038
2.2657714 -4.122592 -1.9407889
2.3654492 -4.0682678 -1.9415191
2.5608106 -3.9523611 -1.9429525
2.6563573 -3.8908467 -1.9436545
3.0230761 -3.6218383 -1.9463568
3.1105957 -3.5490422 -1.9470037
3.1963379 -3.4741113 -1.9476382
3.2802441 -3.397083 -1.9482602
3.8798144 -2.7110717 -1.9527346
4.0686426 -2.4252009 -1.9541599
4.126904 -2.3268714 -1.9546016
4.182744 -2.2271307 -1.9550269
4.2671776 2.0695813 -1.9566189
4.2152734 2.1715229 -1.9562684
4.104043 2.3713787 -1.9555132
4.0448146 2.4691815 -1.955109
3.9832225 2.5654786 -1.9546876
3.853076 2.7533386 -1.9537936
3.7846289 2.8447919 -1.9533217
3.7139745 2.9345293 -1.9528335
3.5662401 3.1086066 -1.9518096
3.4892676 3.1928508 -1.9512745
3.4102635 3.2751629 -1.9507246
3.1616991 3.5100627 -1.9489886
2.7119629 3.8587389 -1.94583
2.6172071 3.9216907 -1.9451621
2.5209668 3.9822862 -1.9444828
2.1224902 4.2005515 -1.9416635
2.0096483 4.2276635 -1.9312197
1.8877343 4.2314477 -1.9115841
1.7680664 4.2349706 -1.8933537
1.6505078 4.2382421 -1.876465
1.4211524 4.2440696 -1.8465118
1.088877 4.2511411 -1.8104913
0.98070312 4.2530832 -1.8007165
0.76844722 4.2623549 -1.7868494
0.66345704 4.2671046 -1.7816108
0.55919921 4.2732334 -1.7780194
0.45577148 4.2836914 -1.7772772
0.35210937 4.2916393 -1.7765324
0.040820312 4.3004394 -1.7742928
-0.062822267 4.2983665 -1.7735461
-0.16640624 4.2937889 -1.7727994
-0.47652343 4.2705612 -1.7728198
-0.58056641 4.2664695 -1.7764211
-0.68499023 4.261632 -1.7807689
-0.79017574 4.2577977 -1.7866148
-0.89663082 4.2564425 -1.7946019
-1.2223926 4.2511988 -1.8249667
-1.3335937 4.2490392 -1.8373193
-1.44625 4.2466636 -1.8508439
-1.9103906 4.2240186 -1.9126294
-2.010957 4.1750998 -1.9118938
-2.2083204 4.0701747 -1.9104487
-2.3050001 4.0142283 -1.9097396
-2.4002733 3.9560058 -1.9090403
-2.6771972 3.7680652 -1.9070034
-2.9396679 3.5609894 -1.9050659
-3.0237207 3.4879026 -1.904444
-3.1059766 3.4128575 -1.9038343
-3.264951 3.2570581 -1.9026541
-3.4888475 3.0098071 -1.9009851
-3.5594628 2.9239526 -1.9004571
-3.627959 2.8364739 -1.8999438
-3.6943748 2.7474201 -1.8994452
-3.8804979 2.4712567 -1.8980416
-4.0463376 2.1827416 -1.8967814
-4.0969725 2.0840783 -1.8963943
-4.1452441 1.9842486 -1.8960239
-4.2333007 -1.779382 -1.8945277
-4.143877 -1.9821072 -1.895125
-4.0955372 -2.0818524 -1.8954504
-4.0448728 -2.1804323 -1.8957928
-3.8789062 -2.4686749 -1.8969216
-3.6927342 -2.7445452 -1.898199
-3.6263378 -2.8335052 -1.8986568
-3.5578027 -2.9208832 -1.8991302
-3.4872069 -3.0066357 -1.8996191
-3.4145801 -3.0906992 -1.9001226
-3.339951 -3.173027 -1.9006411
-3.1044238 -3.409178 -1.902283
-3.022207 -3.4841256 -1.9028579
-2.7649803 -3.6970367 -1.9046615
-2.675869 -3.7639024 -1.9052877
-2.5851758 -3.8286328 -1.9059261
-2.4929199 -3.891206 -1.9065759
-2.3039551 -4.0097103 -1.9079095
-1.808037 -4.2656512 -1.9114219
-1.7052832 -4.3096714 -1.9121517
-1.601416 -4.3512297 -1.9128901
-1.496582 -4.3903046 -1.913636
-1.3908007 -4.4268699 -1.9143893
-1.2841406 -4.4609003 -1.9151495
-0.95935547 -4.5475788 -1.9174685
-0.84972656 -4.5712671 -1.9182525
-0.62877929 -4.6107292 -1.9198344
-0.51760739 -4.6264739 -1.9206314
-0.4060156 -4.6395459 -1.9214319
-0.18192382 -4.6576276 -1.9230413
-0.069531247 -4.6626196 -1.9238495
0.268125 -4.6613288 -1.9262811
0.38067383 -4.6554642 -1.9270929
0.94004881 -4.5854349 -1.9311367
1.0508106 -4.5633206 -1.9319394
1.4880469 -4.4481473 -1.9351143
1.5955468 -4.4127417 -1.9358965
1.7022167 -4.3747272 -1.9366733
2.0164647 -4.2452054 -1.9389657
2.1191113 -4.1969543 -1.939716
2.6136131 -3.9187727 -1.9433404
2.8015528 -3.7908566 -1.9447231
2.8931932 -3.7234697 -1.9453982
2.9831934 -3.6538353 -1.9460623
3.0714941 -3.5820141 -1.9467148
3.1580272 -3.5080366 -1.9473547
3.4066601 -3.273591 -1.9491987
3.562705 -3.1073294 -1.9503604
3.7812402 -2.843955 -1.9519943
3.849746 -2.7526424 -1.9525084
3.9160352 -2.6596587 -1.9530071
4.0417089 -2.4688971 -1.9539557
4.157949 -2.2721102 -1.9548379
4.2124414 -2.1716149 -1.9552532
4.2644825 -2.0697927 -1.9556514
4.1856055 2.2271025 -1.9560674
4.0717087 2.4254291 -1.9552928
4.0111618 2.5224054 -1.9548792
3.9482908 2.6178496 -1.9544482
3.7459764 2.8944335 -1.9530548
3.5241015 3.1552398 -1.9515169
3.2839062 3.3988879 -1.9498429
3.1999903 3.4760675 -1.9492564
3.1142578 3.5511534 -1.9486563
2.9374707 3.6948743 -1.9474163
2.8465722 3.7634227 -1.9467773
2.0652442 4.2258739 -1.9405133
1.9421679 4.2297816 -1.9202279
1.5866406 4.2399411 -1.8677179
1.3591698 4.2455139 -1.8391196
1.2478223 4.2479649 -1.8266082
1.137871 4.250205 -1.8152374
0.60583007 4.2693958 -1.7790501
0.39872068 4.2883811 -1.7768674
0.087499999 4.3005576 -1.7746291
-0.11995117 4.2961497 -1.7731345
-0.22338867 4.2902002 -1.7723881
-0.3266699 4.2817578 -1.7716424
-0.42988279 4.2721543 -1.7714441
-0.74258786 4.2583447 -1.783362
-1.1729199 4.2520995 -1.8197906
-1.6243359 4.2425389 -1.8742296
-1.7415918 4.2395811 -1.8909378
-1.9659277 4.1973729 -1.9122232
-2.0658202 4.1471434 -1.9114925
-2.3576465 3.9824426 -1.9093533
-2.5451367 3.861311 -1.9079756
-2.6366112 3.7974536 -1.9073023
-2.8147557 3.663347 -1.9059887
-2.9861815 3.5209813 -1.9047217
-3.2299023 3.2927063 -1.9029146
-3.7300291 2.6977136 -1.8991771
-3.7930369 2.6063037 -1.8987024
-3.8538866 2.5134325 -1.898243
-3.9688084 2.3235693 -1.8973718
-4.0228224 2.2266767 -1.8969607
-4.0745215 2.1285503 -1.8965662
-4.1238475 2.0292315 -1.8961881
-4.1708202 1.9287994 -1.8958269
-4.2153611 1.8273022 -1.8954828
-4.2574801 1.7247882 -1.8951563
-4.2971387 1.6213244 -1.8948469
-4.2920213 -1.6299869 -1.8941391
-4.2520509 -1.733283 -1.8944033
-4.2096481 -1.8356183 -1.8946851
-4.1175489 -2.0371735 -1.8953021
-3.9050682 -2.4262636 -1.8967429
-3.8462207 -2.5202882 -1.8971454
-3.6564257 -2.7937322 -1.8984493
-3.5888574 -2.8818271 -1.8989156
-3.4474609 -3.0531411 -1.8998944
-3.2980175 -3.2176189 -1.900933
-3.2203319 -3.2971704 -1.9014742
-3.1408007 -3.3748772 -1.902029
-3.0593944 -3.4506929 -1.9025979
-2.9761522 -3.5245647 -1.9031804
-2.8044727 -3.6663222 -1.9043841
-2.5345604 -3.8633657 -1.9062827
-2.3468945 -3.9838727 -1.9076061
-2.1535547 -4.0953627 -1.9089729
-2.0549023 -4.1476359 -1.9096713
-1.5438379 -4.3730583 -1.9132998
-1.3321582 -4.4459286 -1.9148072
-1.1170801 -4.5086145 -1.9163418
-1.0083886 -4.5360837 -1.9171178
-0.89904296 -4.5609488 -1.9178997
-0.56759763 -4.6197314 -1.9202728
-0.45618162 -4.6340051 -1.9210719
-0.23234375 -4.6545086 -1.9226791
0.10496093 -4.6650019 -1.9251055
0.21754882 -4.6630769 -1.9259164
0.55489254 -4.640996 -1.9283508
0.6669336 -4.6282043 -1.9291605
0.77872068 -4.6127014 -1.9299688
1.0011133 -4.5735888 -1.9315792
1.1116016 -4.5499964 -1.9323802
1.2215625 -4.5237274 -1.9331781
1.3308495 -4.4947891 -1.9339716
1.4394727 -4.463201 -1.934761
1.865791 -4.3106537 -1.9378659
2.0731444 -4.2189407 -1.9393798
2.1751366 -4.1693082 -1.9401258
2.2759473 -4.1171918 -1.9408636
2.5705566 -3.946224 -1.943024
2.8522265 -3.7540228 -1.9450964
3.1193848 -3.5415366 -1.9470687
3.2886522 -3.3891494 -1.9483224
3.3705175 -3.3098688 -1.94893
3.4504199 -3.2285821 -1.9495242
3.749707 -2.8844495 -1.9517579
3.9515722 -2.6077559 -1.953275
4.014287 -2.5122876 -1.9537485
4.0746679 -2.4152887 -1.9542054
4.2620311 2.0799847 -1.9565841
4.038672 2.4790239 -1.955067
3.976836 2.5751636 -1.9546438
3.9126854 2.6697388 -1.9542037
3.7775488 2.8539765 -1.9532727
3.7066796 2.9435358 -1.9527829
3.6336522 3.0313072 -1.9522772
3.5585351 3.1172423 -1.9517559
3.481328 3.2012928 -1.9512194
3.4021387 3.283407 -1.950668
3.2379198 3.4416528 -1.9495218
3.0662889 3.5915966 -1.9483199
2.8876171 3.732904 -1.9470659
2.7958105 3.8002086 -1.9464202
2.7024219 3.8652344 -1.9457626
2.6075096 3.927943 -1.9450936
2.5111327 3.9883044 -1.9444134
2.2137499 4.1549473 -1.9423103
2.1120996 4.2055759 -1.94159
1.8754296 4.2318201 -1.9096713
1.2976562 4.2468905 -1.8320861
1.1870996 4.2492247 -1.8202065
0.86323237 4.2574353 -1.7922113
0.65283203 4.2675438 -1.7811215
0.44527343 4.2846117 -1.7772018
0.3416211 4.2923059 -1.7764572
0.23790039 4.2974939 -1.7757113
0.13412109 4.3001709 -1.7749648
-0.59114254 4.2660141 -1.7768278
-0.90749019 4.2562938 -1.7954712
-1.0150585 4.2547255 -1.8046153
-1.1237109 4.2529578 -1.8148382
-1.3449609 4.2488074 -1.8386377
-1.4577734 4.2464123 -1.8522836
-1.6886621 4.2409372 -1.8832687
-1.9206445 4.2191601 -1.9125543
-2.0210741 4.1700034 -1.9118198
-2.1202831 4.1184726 -1.9110937
-2.2181737 4.0646033 -1.9103765
-2.3147364 4.0084214 -1.9096682
-2.5035448 3.8892906 -1.9082816
-2.6862988 3.7613683 -1.9069362
-2.7753124 3.6941991 -1.9062799
-3.0321581 3.480376 -1.9043814
-3.2728026 3.2489581 -1.9025955
-3.3492088 3.1681213 -1.9020269
-3.4236717 3.0855072 -1.9014719
-3.6348045 2.8275115 -1.8998926
-3.7009861 2.7382965 -1.8993953
-3.7650096 2.6475561 -1.8989135
-3.8268261 2.5553386 -1.8984473
-3.943789 2.3666883 -1.8975619
-3.9988573 2.2703638 -1.8971435
-4.1500096 1.9740546 -1.8959872
-4.2796388 1.6679224 -1.8949835
-4.2289939 -1.7897677 -1.8945563
-4.1852145 -1.8915472 -1.8948481
-4.1390624 -1.9922769 -1.8951575
-4.0905075 -2.0919006 -1.8954843
-3.9863281 -2.2876112 -1.8961896
-3.9307714 -2.3835759 -1.8965677
-3.4799511 -3.0152354 -1.8996693
-3.3322656 -3.1812856 -1.9006947
-3.0137596 -3.4916191 -1.9029171
-2.9295702 -3.5644054 -1.9035066
-2.8436425 -3.6351864 -1.9041091
-2.666748 -3.7705603 -1.9053519
-2.5758691 -3.8350832 -1.9059914
-2.4834764 -3.8974311 -1.9066424
-2.38958 -3.9575779 -1.907305
-2.294209 -4.0154858 -1.9079783
-1.8994335 -4.2240238 -1.9107733
-1.797666 -4.2702284 -1.9114956
-1.5908495 -4.3553061 -1.9129653
-1.2732519 -4.4642134 -1.9152272
-1.1656933 -4.4954243 -1.9159946
-0.83859372 -4.5735211 -1.9183322
-0.50628906 -4.6279216 -1.9207126
0.27955076 -4.6608591 -1.9263635
0.39206055 -4.6547184 -1.927175
0.84010738 -4.6030116 -1.9304131
0.95130855 -4.5833178 -1.9312185
1.062041 -4.5609303 -1.9320208
1.1722168 -4.5358605 -1.9328201
1.606416 -4.4090018 -1.9359756
1.9233007 -4.2864156 -1.9382855
2.1294725 -4.1919146 -1.9397917
2.2308006 -4.1409178 -1.940533
2.8109374 -3.7841222 -1.9447922
2.9023829 -3.7165098 -1.9454662
2.9922168 -3.6466548 -1.946129
3.0803516 -3.5746038 -1.9467801
3.1666992 -3.500417 -1.9474188
3.2512693 -3.4241092 -1.9480453
3.4147754 -3.2653503 -1.949259
3.4935839 -3.1829808 -1.9498454
3.7177832 -2.9245465 -1.951519
3.7882812 -2.834774 -1.9520471
3.8565819 -2.743283 -1.9525599
3.922627 -2.6501412 -1.9530567
4.106904 -2.3612375 -1.95445
4.2336035 2.1362152 -1.9563923
4.1240721 2.3370264 -1.9556495
3.9417577 2.6274481 -1.9544033
3.7387989 2.9035046 -1.9530051
3.6667285 2.9920917 -1.9525064
3.5925391 3.0788641 -1.9519922
3.4379687 3.2467577 -1.9509176
3.3576953 3.3277812 -1.9503579
3.105459 3.5586493 -1.9485946
2.9283495 3.7019188 -1.9473523
2.5546093 3.961477 -1.9447204
2.358916 4.0771751 -1.9433377
2.2590234 4.1313901 -1.9426309
2.0526268 4.2262831 -1.9383878
1.9298534 4.2301612 -1.9182538
1.6912206 4.2371302 -1.8821899
1.5749707 4.2402453 -1.8661499
1.1267675 4.2504196 -1.8141454
1.0181934 4.2524304 -1.8039944
0.80507809 4.2605238 -1.7888507
0.69993162 4.2655382 -1.7833465
0.38822263 4.2891603 -1.7767919
0.28449219 4.2954745 -1.7760464
-0.026816405 4.2993689 -1.7738059
-0.13042969 4.2956638 -1.7730588
-0.44040039 4.2718077 -1.7717416
-0.54432619 4.2679782 -1.7750833
-0.96659178 4.255455 -1.8003753
-1.1840625 4.2518992 -1.8209388
-1.4068848 4.2475157 -1.8460032
-1.7536132 4.239265 -1.8927062
-1.8731836 4.2360349 -1.9108877
-2.1743653 4.0890956 -1.9106976
-2.2715235 4.0339475 -1.9099853
-2.3672948 3.9765124 -1.9092827
-2.461621 3.9168322 -1.9085897
-2.5544922 3.8549316 -1.9079068
-2.7355175 3.7246399 -1.9065734
-2.9100194 3.5859466 -1.905285
-3.0775683 3.439184 -1.9040449
-3.1586328 3.3628795 -1.9034438
-3.4637988 3.0392804 -1.9011722
-3.5351269 2.9540045 -1.9006389
-3.7365136 2.6885047 -1.8991281
-3.8599315 2.5039411 -1.8981973
-3.9182811 2.4095502 -1.8977554
-3.9743848 2.3138044 -1.8973293
-4.0281639 2.2167761 -1.89692
-4.1287303 2.0191002 -1.8961506
-4.2197461 1.8169531 -1.895449
-4.2880859 -1.6404934 -1.894165
-4.2478709 -1.7437063 -1.8944308
-4.1601171 -1.9471493 -1.8950161
-4.1126075 -2.0472848 -1.8953353
-4.0627441 -2.1462653 -1.8956716
-3.9560254 -2.3406076 -1.8963958
-3.8992088 -2.4358573 -1.896783
-3.8401268 -2.5297487 -1.897187
-3.7788379 -2.6222174 -1.8976071
-3.6496778 -2.8027279 -1.8984958
-3.5120115 -2.9769945 -1.8994473
-3.440078 -3.0616395 -1.8999456
-3.2902246 -3.2257571 -1.9009871
-3.0510449 -3.4582663 -1.9026562
-2.9676366 -3.5319467 -1.90324
-2.6168945 -3.8063512 -1.9057028
-2.5251758 -3.8696823 -1.9063488
-2.4319627 -3.9308188 -1.9070059
-2.3372266 -3.9897444 -1.9076746
-2.1436327 -4.1007643 -1.9090431
-1.8435351 -4.2497654 -1.91117
-1.7411425 -4.2946382 -1.9118969
-1.6376758 -4.3370514 -1.9126322
-1.5331933 -4.376997 -1.9133755
-1.4277148 -4.4144349 -1.9141264
-1.2141113 -4.4817214 -1.9156491
-1.106084 -4.511517 -1.9164201
-0.66734374 -4.604629 -1.919558
-0.22098632 -4.6552567 -1.9227606
0.0038085936 -4.6644139 -1.9243771
0.11637695 -4.6649308 -1.9251876
0.22896484 -4.6627307 -1.9259988
0.34152344 -4.6578112 -1.9268106
0.56624025 -4.639823 -1.9284327
0.79000974 -4.6109834 -1.9300506
1.1227734 -4.5474577 -1.9324611
1.4504395 -4.4598494 -1.9348408
1.5582422 -4.4253564 -1.935625
1.665205 -4.3882484 -1.9364036
1.7712792 -4.348537 -1.9371765
1.8763769 -4.306251 -1.9379431
1.9805077 -4.2614031 -1.9387031
2.18541 -4.1641412 -1.9402009
2.2860937 -4.1117702 -1.9409378
2.4835937 -3.9997089 -1.9423858
2.5803125 -3.9400718 -1.9430957
2.7693067 -3.8137703 -1.9444855
2.9520507 -3.6783156 -1.9458325
3.2135057 -3.4586537 -1.9477655
3.2970605 -3.3811986 -1.948385
3.3787012 -3.3017206 -1.9489911
3.4584081 -3.2202296 -1.9495834
3.7568748 -2.8753252 -1.9518118
3.8261719 -2.7846024 -1.9523315
3.8932226 -2.6922014 -1.9528354
4.0205173 -2.5025148 -1.9537954
4.0806642 -2.4053748 -1.9542509
4.1384277 -2.3067484 -1.9546893
4.1937594 -2.2067392 -1.9551108
4.2466602 -2.1053612 -1.9555148
-1.9502929 -3.8885269 -1.9104838
-1.7617188 -3.9808464 -1.9118207
-1.6657715 -4.0236173 -1.9125018
-1.3719629 -4.138052 -1.9145912
-1.2722168 -4.1714931 -1.9153018
-1.1716504 -4.2025394 -1.9160188
-1.0703515 -4.2311745 -1.9167416
-0.86569333 -4.2811365 -1.9182038
-0.76246095 -4.3024311 -1.9189423
-0.65870118 -4.3212409 -1.9196851
-0.55450195 -4.3375611 -1.9204317
0.39431641 -4.3706489 -1.9272565
0.60513669 -4.3499794 -1.9287792
0.71016598 -4.3358264 -1.9295387
0.91916013 -4.2998986 -1.9310519
1.1263379 -4.25387 -1.9325542
1.2291113 -4.2270951 -1.9333004
1.5333105 -4.1318736 -1.9355127
1.8301171 -4.0146675 -1.9376767
1.9271191 -3.9708061 -1.9383852
2.2116015 -3.8251622 -1.940467
2.3951659 -3.7166243 -1.9418138
2.5733788 -3.5992095 -1.9431239
2.6603026 -3.5372517 -1.943764
2.7457421 -3.4731753 -1.9443939
2.8296289 -3.4070153 -1.945013
2.9119141 -3.3388073 -1.9456213
2.9925194 -3.2686021 -1.9462177
3.0714061 -3.1964242 -1.9468024
3.438535 -2.8075507 -1.9495349
3.5061717 -2.7244966 -1.9500412
3.5717676 -2.6397939 -1.9505328
3.6353123 -2.5534935 -1.9510101
3.6967285 -2.4656458 -1.9514724
3.8678906 -2.1933322 -1.9527673
3.9204881 -2.0998218 -1.9531676
3.857285 2.2162218 -1.9537008
3.8019629 2.3081794 -1.9533236
