# .PCD v0.7 - Point Cloud Data file format
VERSION 0.7
FIELDS x y z
SIZE 4 4 4
TYPE F F F
COUNT 1 1 1
WIDTH 1503
HEIGHT 1
VIEWPOINT 0 0 0 1 0 0 0
POINTS 1503
DATA ascii
-10.70336 -2.6645992 -1.8489941
-10.567217 -3.1792495 -1.84984
-10.490214 -3.4341702 -1.8503268
-10.407266 -3.6872957 -1.8508557
-10.318457 -3.9385176 -1.8514268
-10.223818 -4.1876907 -1.8520395
-9.7878418 -5.1613512 -1.854902
-9.6647072 -5.3983684 -1.8557191
-9.4019232 -5.8638144 -1.8574722
-9.2624121 -6.0919929 -1.8584071
-8.1143942 -6.2220578 -1.7140955
-7.9665723 -6.4197497 -1.7150962
-7.49541 -6.9921165 -1.7182993
-7.1589646 -7.3553562 -1.7205966
-6.9842868 -7.5311565 -1.7217922
-6.8053904 -7.7029514 -1.7230188
-6.6224217 -7.8706336 -1.724275
-6.244453 -8.1932449 -1.7268755
-6.0496774 -8.3479891 -1.7282183
-5.6489744 -8.6439066 -1.7309856
-5.0168262 -8.0966406 -1.5966821
-5.2341208 -8.9211121 -1.7338574
-4.8059278 -9.1789083 -1.736828
-4.5870895 -9.3003235 -1.7383484
-3.2334082 -10.86252 -1.8998654
-2.7106152 -11.025841 -1.9033172
-2.4457128 -11.096766 -1.9048181
-1.6391015 -11.260433 -1.9075012
-1.096123 -11.347868 -1.9111198
-0.8228125 -11.381997 -1.9129666
-0.54852539 -11.409695 -1.914837
0.0024902343 -11.445577 -1.9186457
0.278916 -11.453748 -1.9205819
0.5557031 -11.455322 -1.9225377
0.83277345 -11.450343 -1.9245123
1.3870019 -11.420545 -1.9285138
1.9403613 -11.36424 -1.9325777
2.7659667 -11.230024 -1.9387709
3.0393651 -11.172041 -1.9408567
3.3115721 -11.107427 -1.9429513
3.5824511 -11.036235 -1.9450537
3.8518455 -10.958471 -1.9471624
4.1195407 -10.874139 -1.9492761
3.2552831 -8.0043535 -1.4485035
3.5264256 -8.1050415 -1.4816934
4.9111524 -10.582163 -1.9556369
5.0018845 -9.5430031 -1.8061324
5.2355075 -9.428318 -1.8078114
5.9197264 -9.0495911 -1.8127384
6.141748 -8.9120188 -1.8143405
6.360527 -8.7688808 -1.8159209
7.400166 -7.9726501 -1.8234576
7.7881832 -7.6181931 -1.8262836
7.9756737 -7.4336553 -1.827652
8.1586819 -7.2443738 -1.8289899
8.5106049 -6.8520412 -1.8315692
9.0440626 -6.2603006 -1.8438448
9.5136127 -6.2513232 -1.9082659
10.017187 -6.2415061 -1.9784855
10.406299 -5.8066697 -1.9976226
10.548985 -5.5568838 -1.9986891
10.939277 -4.7864585 -2.001626
11.368193 -3.7161484 -2.0049043
11.458545 -3.4420042 -2.0056059
11.542031 -3.1656051 -2.0062597
11.618545 -2.8870895 -2.0068643
11.688017 -2.6066775 -2.0074201
11.80583 -2.0408282 -2.0083826
11.854023 -1.7557596 -2.0087883
11.928818 -1.1823046 -2.0094483
11.95539 -0.89429259 -2.0097017
11.991474 -0.027337646 -2.0101547
11.988915 0.26197082 -2.0102026
11.979082 0.55113465 -2.0101991
11.961972 0.83994383 -2.0101438
11.937578 1.1282337 -2.0100369
11.905947 1.4157867 -2.0098789
11.565536 3.1154077 -2.007858
11.484072 3.3926501 -2.0073447
11.395683 3.6676946 -2.0067823
11.300439 3.9403424 -2.0061705
11.173467 4.2010627 -2.0010424
10.457266 4.2224422 -1.8904747
10.105644 4.3668656 -1.8454111
9.8749905 4.8452387 -1.8438882
9.7508688 5.0797882 -1.8430636
9.6209764 5.3110647 -1.8421972
9.1974611 5.9836917 -1.8393545
8.8880367 6.413095 -1.8372705
8.0446386 6.1050591 -1.6928948
7.3892188 6.1914225 -1.6160052
5.5317674 6.1987152 -1.3926975
5.0178709 6.2007279 -1.3371447
4.5423145 6.2025871 -1.2887411
4.0989842 6.204318 -1.2465178
3.6828613 6.2059402 -1.2097009
3.4836426 6.206717 -1.1931165
3.2897069 6.2074714 -1.1776582
3.0588963 6.1246796 -1.1476126
2.8767383 6.1252961 -1.1343911
2.6986327 6.125988 -1.1221293
2.5412109 6.167819 -1.1182333
2.3854101 6.211071 -1.1153133
1.7208593 6.2136407 -1.0808046
1.5606543 6.2142596 -1.0740489
1.4023242 6.2148685 -1.067994
1.0905077 6.2160687 -1.057917
0.78383785 6.2172465 -1.0504513
0.63194335 6.2178288 -1.0476673
0.17980468 6.2195597 -1.0430248
-0.12039062 6.2207074 -1.042976
-0.27067381 6.2212796 -1.0438635
-0.87697262 6.223587 -1.0535703
-1.0307617 6.2241702 -1.0575722
-1.5005175 6.2259512 -1.0735431
-2.1266992 6.1484771 -1.0905888
-2.2929981 6.145164 -1.0994946
-2.6378319 6.1464615 -1.1212121
-3.229121 6.236402 -1.1772412
-3.6216795 6.2378726 -1.2091259
-3.8262889 6.2386384 -1.2268152
-4.2546482 6.2402396 -1.2660606
-4.9540038 6.2428484 -1.3359622
-5.4666014 6.2447586 -1.3912445
-5.7394528 6.2457719 -1.4219139
-6.024785 6.2468328 -1.454832
-6.6379294 6.2491093 -1.5282376
-7.9513769 6.4675322 -1.7181545
-8.0998631 6.2697735 -1.7170461
-8.3826361 5.8646097 -1.7149533
-8.5167189 5.6573811 -1.7139573
-8.6458883 5.4472113 -1.7129955
-8.8891401 5.0184793 -1.711177
-9.0031052 4.8001628 -1.7103209
-9.1119041 4.5793586 -1.7095008
-9.2155275 4.3561978 -1.7087169
-10.400126 3.7382402 -1.8525991
-10.561172 3.230031 -1.851344
-10.632803 2.9734008 -1.8507786
-10.698388 2.7152421 -1.8502557
-10.757988 2.4557097 -1.8497751
-10.811543 2.1949401 -1.8493365
-10.859023 1.9330517 -1.848941
-10.90043 1.6701959 -1.8485882
-10.987929 0.87711787 -1.8477883
-11.015537 0.34601134 -1.8474718
-11.020146 0.080156855 -1.8473786
-10.95082 -1.2467914 -1.8475668
-10.785136 -2.297379 -1.8484994
-10.728555 -2.5573747 -1.8488402
-10.665947 -2.8160515 -1.8492242
-10.522793 -3.3288777 -1.8501202
-10.355927 -3.8347905 -1.8511854
-10.165664 -4.3327408 -1.8524178
-10.061865 -4.5784068 -1.8530962
-9.8371382 -5.0624652 -1.8545758
-8.688633 -6.2035198 -1.7896342
-8.274004 -6.2142143 -1.7346138
-8.0283108 -6.3383336 -1.714678
-7.8777633 -6.5340624 -1.7156985
-7.2300291 -7.2814407 -1.7201108
-6.879951 -7.6323376 -1.7225075
-6.3239551 -8.1279058 -1.7263279
-5.5288377 -8.7271204 -1.7318166
-4.895586 -9.1271858 -1.7362055
-4.1032224 -10.526472 -1.893896
-3.5973926 -10.73213 -1.8974277
-2.8195019 -10.994056 -1.902597
-2.5557811 -11.069033 -1.9043424
-2.0195801 -11.183332 -1.9050066
-1.7507812 -11.23916 -1.9067657
-1.4805371 -11.288686 -1.908551
-1.2088964 -11.331862 -1.9103628
-0.11173828 -11.440292 -1.9178506
1.5493066 -11.406782 -1.9296986
2.6525292 -11.252102 -1.9379106
2.9263279 -11.196843 -1.9399923
3.1990526 -11.134968 -1.9420834
3.4705174 -11.066499 -1.9441828
3.7405174 -10.991451 -1.9462888
4.0089841 -10.909836 -1.9484009
3.2580566 -8.2462101 -1.4863098
3.4017382 -8.0368881 -1.4629514
5.139111 -9.4764967 -1.8071185
5.3711524 -9.3583908 -1.808787
5.6005173 -9.2345009 -1.8104379
6.7004004 -8.5306482 -1.8183798
6.9100585 -8.3735065 -1.8198988
7.3177829 -8.0435047 -1.8228586
7.7092967 -7.6931543 -1.8257083
8.0834866 -7.3232846 -1.82844
8.2637787 -7.1312737 -1.8297591
8.4393454 -6.9347 -1.8310461
8.7758694 -6.5283599 -1.8335196
9.315361 -6.255136 -1.8809342
10.194092 -6.1533608 -1.9960425
10.345469 -5.9089551 -1.9971691
10.490664 -5.6607327 -1.9982529
10.888867 -4.8945212 -2.0012445
11.00878 -4.6325245 -2.0021527
11.328798 -3.8288989 -2.0045998
11.421982 -3.5557721 -2.0053215
11.50829 -3.2802713 -2.0059948
11.783789 -2.1584303 -2.0081997
11.915703 -1.3013092 -2.0093284
11.945273 -1.0135937 -2.009603
11.967587 -0.72518796 -2.0098267
11.982617 -0.43628845 -2.009999
11.948554 1.0089722 -2.0100875
11.919941 1.2968603 -2.0099504
11.790703 2.154737 -2.0092318
11.668798 2.7199919 -2.0084984
11.597197 3.0000322 -2.0080554
11.518633 3.2781494 -2.0075631
11.433105 3.5541289 -2.0070207
11.340703 3.8278019 -2.0064297
11.241474 4.0989594 -2.0057895
9.802969 4.9830923 -1.84341
9.6754389 5.2157488 -1.842561
9.5421677 5.445025 -1.8416705
9.4032717 5.6707644 -1.8407393
9.1089649 6.1111665 -1.8387576
8.2128315 6.1043973 -1.715367
7.8145895 6.1065226 -1.6624887
6.5201073 6.194838 -1.5076361
6.213994 6.1960406 -1.4710029
5.1208396 6.200325 -1.3480197
4.8748341 6.2012882 -1.3222685
4.6379099 6.2022147 -1.2982224
3.7669725 6.2056131 -1.2169101
3.5654297 6.206398 -1.1998408
3.3693652 6.2071609 -1.1839246
2.9516113 6.1250043 -1.1397374
2.7718847 6.1257024 -1.1270927
2.5959961 6.1263847 -1.1153671
2.2853124 6.2114582 -1.1094693
2.1168456 6.21211 -1.10014
1.7878027 6.2133832 -1.083812
1.6267188 6.2140031 -1.0767587
1.4676367 6.2146182 -1.0704163
1.15458 6.2158222 -1.0597852
0.54326171 6.2181683 -1.0463262
0.3924121 6.2187467 -1.0445262
0.24199218 6.2193232 -1.0433378
-0.35888672 6.2216167 -1.0446666
-0.50978512 6.2221918 -1.0465245
-0.66130859 6.2227693 -1.0490005
-0.81364256 6.2233462 -1.0521011
-0.96697265 6.2239289 -1.0558376
-1.1214746 6.2245159 -1.0602189
-1.2773633 6.2251067 -1.0652611
-1.7553515 6.2269158 -1.0845033
-1.9188573 6.2275324 -1.0923579
-2.0673242 6.1757832 -1.0917124
-2.3926561 6.1455388 -1.1055037
-2.5653417 6.1461892 -1.1164337
-2.9634373 6.2354045 -1.1572872
-3.1503906 6.2361064 -1.1711863
-3.3420019 6.2368255 -1.1861242
-3.9490526 6.2390971 -1.2377639
-4.1637402 6.2399006 -1.2574906
-5.0999608 6.2433929 -1.351378
-5.6250782 6.245347 -1.4089593
-5.9050879 6.246387 -1.4409198
-6.1982908 6.2474771 -1.4752508
-7.1710153 6.2510867 -1.5946976
-7.4247069 6.1634097 -1.6175729
-8.0387402 6.35184 -1.7174517
-8.9565725 4.8908257 -1.7106707
-9.1732807 4.4488397 -1.7090368
-9.9849806 4.2605219 -1.8198098
-10.529795 3.3357866 -1.8515899
-10.671972 2.8222809 -1.8504672
-10.734072 2.5632904 -1.8499687
-10.840117 2.0415637 -1.8490994
-10.921845 1.5157336 -1.8484014
-10.953554 1.2515924 -1.848117
-10.979131 0.98684078 -1.8478756
-11.011846 0.45601743 -1.8475231
-11.018984 0.19019836 -1.8474119
-11.003457 -0.60716003 -1.8473402
-10.896768 -1.6651044 -1.8478537
-10.806797 -2.1894193 -1.8483707
-10.692588 -2.7091558 -1.8490602
-10.626465 -2.9669924 -1.8494693
-10.105517 -4.4770017 -1.8528106
-9.9983587 -4.721292 -1.8535131
-9.8855076 -4.96312 -1.8542563
-9.7670307 -5.2023544 -1.85504
-9.6429396 -5.4388947 -1.8558639
-9.5133495 -5.6725988 -1.8567276
-9.237793 -6.1309619 -1.8585725
-7.9406443 -6.4534507 -1.7152722
-7.6294823 -6.8373966 -1.7173858
-7.4671187 -7.0239935 -1.718492
-7.3003221 -7.2068644 -1.7196304
-7.1291795 -7.3859129 -1.7208004
-6.7741699 -7.7321301 -1.723233
-6.4028025 -8.0618134 -1.7257851
-5.8166113 -8.5236549 -1.7298273
-5.6137986 -8.6685286 -1.7312289
-5.1977735 -8.944087 -1.7341093
-4.7684569 -9.2001772 -1.7370883
-4.1015429 -9.5463772 -1.7417276
-3.9561033 -10.589185 -1.8949225
-3.7029686 -10.691504 -1.8966901
-3.4471483 -10.787779 -1.8984588
-2.1303222 -11.158376 -1.9042871
-1.8622265 -11.216816 -1.9060342
-1.5925683 -11.268952 -1.9078088
-1.0491112 -11.354206 -1.9114361
-0.77562499 -11.38723 -1.9132872
-0.50119138 -11.413793 -1.9151617
-0.22589843 -11.433877 -1.9170589
0.32656249 -11.454483 -1.9209173
0.88050777 -11.448812 -1.9248544
1.1576366 -11.43608 -1.9268496
1.7115136 -11.390759 -1.9308887
2.8131249 -11.220508 -1.9391292
3.086328 -11.161374 -1.9412169
4.1654782 -10.858956 -1.9496408
3.5792089 -8.1338129 -1.4896599
4.9560251 -10.563643 -1.9560025
4.8064551 -9.6335068 -1.8047292
5.0423145 -9.5236683 -1.8064228
5.2755175 -9.4079866 -1.808099
5.5059376 -9.2864761 -1.809757
5.7335739 -9.1592283 -1.8113965
6.8237305 -8.4391851 -1.819273
7.0311131 -8.2789412 -1.8207769
7.434248 -7.9429069 -1.8237054
7.6296678 -7.7672896 -1.8251281
7.8208008 -7.5867672 -1.8265213
8.1897268 -7.2112951 -1.8292171
8.3672457 -7.0166092 -1.8305172
8.7078514 -6.6138592 -1.8330188
9.1226559 -6.258811 -1.8545538
10.107666 -6.2397232 -1.9912165
10.283565 -6.010581 -1.9967079
10.70832 -5.2594867 -1.999884
10.837363 -5.0020404 -2.0008557
10.959951 -4.7413473 -2.0017824
11.076006 -4.4775157 -2.0026639
11.185469 -4.2107482 -2.0034988
11.384257 -3.6691177 -2.0050287
11.555683 -3.117775 -2.0063672
11.631005 -2.838923 -2.0069635
11.760517 -2.2757702 -2.0080085
11.814658 -1.9918227 -2.008456
11.861601 -1.7065381 -2.0088532
11.901367 -1.4201398 -2.0091999
11.959238 -0.84461975 -2.0097404
11.988047 -0.26681885 -2.010076
11.976669 0.60088319 -2.0101931
11.958301 0.88962889 -2.010129
11.899776 1.4652282 -2.0098464
11.859697 1.7516791 -2.0096281
11.627695 2.8843524 -2.008245
11.551991 3.1632953 -2.0077729
11.283349 3.9870391 -2.0060601
11.044248 4.2049346 -1.9810159
9.9733105 4.6486797 -1.844539
9.7289162 5.1198626 -1.8429174
9.3192768 5.8013983 -1.8401748
9.1716404 6.0212932 -1.8391804
7.6948829 6.1902189 -1.6554818
6.6513281 6.1943231 -1.5235993
6.3388572 6.19555 -1.4858396
6.0413766 6.1967182 -1.4507362
5.4858298 6.1988959 -1.3876035
5.2255077 6.1999149 -1.3592069
4.5029492 6.2027421 -1.2848735
4.0621676 6.2044621 -1.2431455
3.8520896 6.2052827 -1.2243267
3.6481543 6.2060761 -1.2067624
3.449873 6.2068486 -1.1903754
3.0272362 6.1248016 -1.1452696
2.528662 6.2105155 -1.1240599
2.3558886 6.2111859 -1.1135663
2.0193748 6.2124858 -1.095039
1.6931348 6.213748 -1.0795908
1.5332519 6.2143645 -1.0729567
1.3752344 6.2149725 -1.0670209
1.2188574 6.2155752 -1.0617657
0.75761718 6.2173467 -1.0499268
0.45478514 6.2185078 -1.0451958
0.30419922 6.2190847 -1.0437557
0.15396485 6.2196589 -1.042925
-0.29658201 6.2213798 -1.0440785
-0.59850585 6.2225299 -1.0479002
-1.0573633 6.2242718 -1.0583266
-1.3694531 6.2254558 -1.0685277
-1.6883496 6.2266607 -1.0814693
-1.8508984 6.2272758 -1.0890166
-2.0158398 6.2278986 -1.0973138
-2.4934571 6.1459184 -1.1118058
-2.6681836 6.1465764 -1.1232452
-2.8873241 6.2351174 -1.1518257
-3.6564941 6.2380023 -1.2120856
-4.0740724 6.2395649 -1.2491629
-4.2928419 6.2403827 -1.2696978
-4.9965429 6.2430072 -1.3404281
-5.2493749 6.2439494 -1.3674322
-5.7876759 6.2459512 -1.4274161
-7.0274706 6.2505546 -1.5765814
-7.9772263 6.4336538 -1.7179468
-8.4060841 5.8291364 -1.714779
-8.5393362 5.6213837 -1.7137892
-8.6676073 5.410728 -1.7128336
-8.9091311 4.9810624 -1.7110269
-9.0222168 4.7623005 -1.7101769
-9.1301365 4.5411005 -1.7093631
-9.232851 4.3175383 -1.7085856
-9.7307224 4.2673783 -1.7811453
-10.232334 4.1960454 -1.8538905
-10.326562 3.9464202 -1.8531671
-10.414931 3.6947722 -1.8524843
-10.644511 2.929049 -1.8506857
-10.709082 2.6706476 -1.8501699
-10.767656 2.4108825 -1.8496963
-10.820156 2.1499219 -1.8492655
-10.906953 1.6248327 -1.8485317
-10.941181 1.3609954 -1.8482293
-10.969287 1.0965044 -1.8479702
-10.99126 0.83143795 -1.8477544
-10.993955 -0.76272827 -1.8473718
-10.9729 -1.0277704 -1.8474603
-10.912344 -1.556141 -1.8477682
-10.87293 -1.8191754 -1.8479873
-10.775801 -2.3422334 -1.8485552
-10.718203 -2.602025 -1.8489034
-10.509336 -3.3727193 -1.8502053
-10.340468 -3.8779767 -1.8512851
-10.247236 -4.127666 -1.8518876
-10.148193 -4.3752089 -1.8525318
-10.043398 -4.6204777 -1.8532175
-9.9328899 -4.8633261 -1.8539437
-9.8167286 -5.1036639 -1.8547108
-9.6949701 -5.3413444 -1.855518
-9.567646 -5.5762286 -1.8563653
-9.2965918 -6.0371337 -1.8581779
-9.0522947 -6.1940064 -1.838688
-8.2051458 -6.2159739 -1.7255734
-8.0027342 -6.3722763 -1.714851
-7.851367 -6.5674314 -1.7158777
-7.6953902 -6.75911 -1.7169375
-7.0268846 -7.4890399 -1.7215005
-6.8490329 -7.6617985 -1.7227196
-6.0970993 -8.3109989 -1.7278912
-5.8994532 -8.462348 -1.7292551
-5.49332 -8.7512503 -1.7320623
-5.2849803 -8.8886337 -1.7335049
-4.8583493 -9.1488161 -1.7364639
-4.4191504 -9.3889894 -1.7395164
-3.2959666 -10.841134 -1.8994534
-2.7742283 -11.007407 -1.9028964
-2.2408104 -11.13237 -1.9035722
-1.7043457 -11.248142 -1.9070712
-0.61489254 -11.403587 -1.9143829
-0.33993164 -11.426363 -1.9162709
-0.064218752 -11.442634 -1.9181811
0.21206054 -11.452368 -1.920112
0.48877928 -11.455544 -1.9220632
0.76580077 -11.452152 -1.9240336
1.0429296 -11.442152 -1.9260217
1.5969824 -11.402309 -1.9300479
1.8735839 -11.372443 -1.9320837
2.149668 -11.335948 -1.9341329
2.425117 -11.292818 -1.936195
2.6997364 -11.243052 -1.9382682
2.973418 -11.186663 -1.940352
3.2458887 -11.123653 -1.9424442
3.786875 -10.977858 -1.9466522
3.2568262 -8.1439219 -1.4702994
4.8481054 -10.607836 -1.9551239
4.7082028 -9.6772537 -1.804024
4.9450097 -9.5698528 -1.8057238
5.4109082 -9.3374615 -1.8090731
6.7367578 -8.5039711 -1.818643
6.9457421 -8.3459072 -1.8201575
7.1509376 -8.1825933 -1.8216463
8.1148529 -7.2905579 -1.8286694
8.2943258 -7.097744 -1.829983
8.6389942 -6.6986322 -1.8325125
8.803896 -6.4925799 -1.8337258
9.3971682 -6.2535653 -1.8921902
9.892168 -6.2439609 -1.9609473
10.370928 -5.8664832 -1.9973588
10.515088 -5.6175938 -1.9984355
10.653056 -5.3650393 -1.9994692
11.02876 -4.5870733 -2.0023043
11.345332 -3.7820485 -2.0047278
11.52249 -3.232589 -2.0061061
11.600674 -2.9545925 -2.0067227
11.843037 -1.8247771 -2.0086949
11.970713 -0.67547178 -2.0098603
11.984472 -0.38650572 -2.0100234
11.990967 -0.097260743 -2.0101354
11.990195 0.19204101 -2.010196
11.982129 0.48126343 -2.0102046
11.966786 0.77018553 -2.0101621
11.94415 1.0586194 -2.0100675
11.914277 1.3463538 -2.0099218
11.877168 1.633244 -2.0097246
11.832822 1.9190772 -2.0094759
11.781328 2.2036681 -2.0091765
11.656962 2.768347 -2.0084255
11.58418 3.0480902 -2.0079744
11.504395 3.3258507 -2.007473
11.324092 3.8746769 -2.0063226
9.7814064 5.0234075 -1.8432668
9.3787889 5.7092915 -1.8405747
9.2334175 5.930727 -1.8395969
7.7809567 6.1324811 -1.6607434
7.4769626 6.1910772 -1.6272709
6.1627831 6.1962419 -1.4649599
4.3707423 6.2032585 -1.272051
4.1510348 6.2041154 -1.2513196
3.5312986 6.206531 -1.1970203
2.9203613 6.1251264 -1.1374916
2.741328 6.1258221 -1.1250088
2.427002 6.2109098 -1.1178067
1.7599024 6.2134905 -1.0825461
1.4404297 6.2147222 -1.0693949
1.2833984 6.2153263 -1.0638593
1.1279004 6.2159247 -1.0589939
0.51723629 6.2182684 -1.045972
0.3664746 6.2188468 -1.0442777
0.21611327 6.2194219 -1.0431939
-0.23431639 6.2211404 -1.0435936
-0.53583008 6.2222891 -1.0469064
-0.68748045 6.222868 -1.0494896
-0.83997071 6.2234464 -1.0526994
-1.1482227 6.224617 -1.0610408
-1.3043652 6.2252092 -1.0661968
-1.621709 6.226409 -1.0785587
-1.7833593 6.2270207 -1.0858039
-1.9472754 6.2276397 -1.0937872
-2.0865722 6.1483254 -1.0883846
-2.422168 6.1456499 -1.1073246
-2.5954199 6.1463032 -1.1184033
-2.8119237 6.2348356 -1.1465271
-2.9953125 6.2355256 -1.159609
-3.1830468 6.2362299 -1.1736834
-3.3754981 6.2369499 -1.188804
-3.5731053 6.2376909 -1.2050296
-3.776289 6.2384501 -1.2224275
-3.9855566 6.239234 -1.2410667
-4.201416 6.2400393 -1.2610257
-4.6553612 6.241735 -1.305281
-4.8947754 6.2426286 -1.3297824
-5.4023924 6.2445168 -1.3841492
-5.9546189 6.246573 -1.4466602
-6.250205 6.2476702 -1.4814143
-6.5605564 6.2488213 -1.5187855
-6.8871484 6.2500334 -1.559024
-8.0644045 6.317862 -1.717308
-8.2093458 6.1176443 -1.7162368
-8.3494825 5.9142251 -1.7151991
-8.4847755 5.707746 -1.7141949
-8.6151266 5.4982657 -1.7132249
-8.9760256 4.8531585 -1.7105246
-9.1909666 4.4103436 -1.7089028
-9.4868841 4.2739253 -1.74424
-10.463964 3.5464048 -1.8521038
-10.616025 3.0355675 -1.8509115
-10.683105 2.7777612 -1.8503783
-10.74415 2.5185668 -1.8498873
-10.79916 2.2580695 -1.8494385
-10.890986 1.7337946 -1.8486694
-10.927744 1.4703009 -1.8483495
-10.958388 1.2060522 -1.8480723
-10.982929 0.94119996 -1.8478384
-11.013506 0.41026306 -1.8475009
-11.01958 0.14441527 -1.8473972
-11.013271 -0.38729247 -1.8473208
-11.000878 -0.65287232 -1.847348
-10.982363 -0.91812438 -1.8474184
-10.926875 -1.4470379 -1.8476903
-10.889971 -1.7103972 -1.8478914
-10.846992 -1.9728914 -1.8481356
-10.742793 -2.4946456 -1.8487539
-10.681631 -2.753649 -1.8491277
-10.541357 -3.2672522 -1.850003
-10.377354 -3.7740419 -1.8510476
-10.189893 -4.2730279 -1.8522601
-9.6210251 -5.4793491 -1.8560098
-9.3544827 -5.9427552 -1.8577899
-8.7928314 -6.2008066 -1.803614
-8.3718843 -6.2117057 -1.7475091
-8.0640135 -6.2905264 -1.7144364
-7.760498 -6.680192 -1.7164947
-7.099277 -7.4163437 -1.721005
-6.7428222 -7.7611737 -1.7234482
-6.5584569 -7.9273934 -1.7247146
-6.3700681 -8.0893908 -1.7260104
-5.9817185 -8.4002619 -1.728687
-5.5785351 -8.6930056 -1.7314727
-4.9248924 -8.0977898 -1.5887636
-4.7308984 -9.2212973 -1.737349
-4.5110154 -9.3409576 -1.7388772
-4.2881737 -9.4554987 -1.7404279
-4.0624804 -9.5648165 -1.7419997
-3.8340917 -9.6688766 -1.7435919
-3.912744 -10.607221 -1.8952252
-3.402832 -10.803671 -1.8987501
-3.1440332 -10.892385 -1.9004544
-2.6197264 -11.051476 -1.903919
-2.3529003 -11.114023 -1.9043533
-2.0843163 -11.168889 -1.9045858
-1.5459765 -11.277303 -1.9081171
-1.0021386 -11.360352 -1.9117529
-0.45385742 -11.417722 -1.9154867
-0.17845702 -11.436686 -1.9173876
0.37416992 -11.455035 -1.921253
0.92819333 -11.447098 -1.9251965
1.482373 -11.412725 -1.9292092
2.3112109 -11.311477 -1.93534
2.5861621 -11.26445 -1.9374086
3.9442186 -10.930163 -1.9478897
4.211328 -10.843596 -1.9500052
4.7397852 -10.650938 -1.9542454
5.0007715 -10.544931 -1.9563676
5.0826368 -9.5041761 -1.8067126
6.2174706 -8.8633547 -1.8148874
6.649199 -8.567832 -1.818009
7.2693458 -8.0844765 -1.8225065
7.4681835 -7.913043 -1.8239523
7.6628809 -7.7365494 -1.8253702
7.8532615 -7.5551896 -1.8267583
8.0391989 -7.3690147 -1.8281163
8.3973141 -6.9826345 -1.8307378
8.7362404 -6.578372 -1.8332278
9.2022266 -6.257297 -1.865422
10.15664 -6.211854 -1.9957641
10.309443 -5.96838 -1.9969006
10.59667 -5.4700403 -1.9990463
10.730986 -5.2153997 -2.0000544
10.858906 -4.9573998 -2.0010183
11.095332 -4.4317851 -2.0028107
11.305254 -3.8945417 -2.0044184
11.400078 -3.6220074 -2.0051513
11.56915 -3.069901 -2.0064733
11.643251 -2.7907367 -2.0070612
11.770351 -2.2269866 -2.0080888
11.868964 -1.6572964 -2.0089164
11.938808 -1.083222 -2.0095415
11.962871 -0.79494077 -2.0097775
11.979649 -0.50616699 -2.0099621
11.98916 -0.21704224 -2.0100954
11.991416 0.072302245 -2.0101774
11.986347 0.36156616 -2.0102072
11.954394 0.9392944 -2.0101128
11.893378 1.5146289 -2.0098124
11.803515 2.0860016 -2.0093069
11.538281 3.2111266 -2.0076866
11.363652 3.761878 -2.006577
11.266084 4.0336542 -2.0059488
10.917665 4.2087226 -1.9614247
10.236816 4.232707 -1.8569186
9.8329201 4.9263787 -1.8436091
9.2942677 5.8395171 -1.8400064
8.9917669 6.2740788 -1.8379654
8.3131542 6.104002 -1.7288585
7.9087305 6.1061516 -1.6749238
7.6301074 6.190474 -1.6470622
6.9223828 6.1932588 -1.5570395
6.596416 6.1945391 -1.5169026
6.2866111 6.195756 -1.479614
5.9915428 6.1969132 -1.4449427
5.7098336 6.1980181 -1.4126614
4.9334083 6.2010589 -1.3283284
4.4638476 6.2028947 -1.281055
3.8165722 6.2054205 -1.2212175
3.6136229 6.2062116 -1.2038581
3.4162891 6.2069793 -1.1876696
2.638164 6.1262212 -1.118118
2.4986815 6.2106314 -1.1221925
2.1573045 6.2119536 -1.1023216
1.9909277 6.2125969 -1.0935923
1.827041 6.2132306 -1.0856255
1.6654687 6.2138543 -1.0783975
1.5059375 6.2144694 -1.0718868
1.1920898 6.2156777 -1.0609273
0.73144531 6.2174478 -1.0494227
0.42881835 6.2186065 -1.0449047
0.27832031 6.2191839 -1.0435686
0.12810546 6.2197576 -1.0428441
-0.021982422 6.2203312 -1.0427238
-0.17213866 6.2209039 -1.0432131
-0.32249022 6.2214789 -1.0443099
-0.62463868 6.2226286 -1.0483452
-1.2395409 6.2249627 -1.0639808
-1.3966309 6.2255583 -1.0695329
-1.5554297 6.2261591 -1.0757712
-1.7161719 6.226768 -1.0827163
-2.1841309 6.1486945 -1.0938069
-2.3514452 6.1453838 -1.1029931
-2.5232909 6.1460309 -1.113713
-2.918916 6.2352362 -1.1540774
-3.6914744 6.2381339 -1.2150799
-3.8981836 6.2389078 -1.2331969
-4.5588083 6.241375 -1.2956212
-4.7945895 6.2422552 -1.3194369
-5.2939548 6.2441144 -1.3722743
-5.8362694 6.2461319 -1.4329901
-6.4301953 6.2483392 -1.5029825
-7.0867968 6.2507744 -1.5840498
-8.0029097 6.3996844 -1.7177403
-8.4293747 5.7935748 -1.7146063
-8.561758 5.5853362 -1.7136225
-8.6892185 5.3741498 -1.7126724
-9.041172 4.7243814 -1.7100343
-9.2712889 4.2886567 -1.7123907
-10.248975 4.1532168 -1.8537631
-10.510986 3.3974237 -1.851737
-10.586514 3.1418238 -1.8511443
-10.828584 2.1048694 -1.8491955
-10.873964 1.842605 -1.8488146
-10.913281 1.5794598 -1.8484765
-10.973506 1.050874 -1.84793
-11.020283 -0.011409912 -1.8473568
-11.016582 -0.2772992 -1.8473223
-11.006758 -0.54298645 -1.8473315
-10.940371 -1.337774 -1.8476199
-10.906006 -1.6014682 -1.847803
-10.865518 -1.8643719 -1.8480295
-10.818965 -2.12626 -1.848299
-10.707665 -2.6466243 -1.8489679
-10.643007 -2.9047918 -1.8493664
-10.413213 -3.6697552 -1.8508178
-10.324814 -3.9211361 -1.8513857
-10.230596 -4.170445 -1.8519955
-10.130547 -4.4176264 -1.8526469
-9.9133005 -4.9048858 -1.8540728
-9.7961521 -5.1447973 -1.8548471
-9.6734467 -5.3819895 -1.8556609
-9.5451851 -5.6163697 -1.856515
-9.2722168 -6.0762401 -1.8583413
-8.5429096 -6.2072973 -1.7701825
-8.136982 -6.2177105 -1.716658
-7.9769921 -6.4061394 -1.7150255
-7.668076 -6.7917361 -1.7171234
-6.9965525 -7.5190759 -1.7217083
-6.8179684 -7.6911407 -1.7229326
-6.2578416 -8.1823206 -1.7267833
-5.8650684 -8.4879475 -1.7294924
-5.6631641 -8.6339264 -1.7308875
-5.2487693 -8.9118013 -1.7337557
-5.0364943 -9.0435219 -1.7352276
-4.8210154 -9.1702852 -1.7367232
-4.6024218 -9.2920437 -1.7382418
-4.3807521 -9.40872 -1.7397836
-2.7288671 -11.020583 -1.9031963
-1.6578906 -11.256928 -1.9073772
-1.3871484 -11.304276 -1.9091718
-0.84185547 -11.379832 -1.9128375
-0.29250976 -11.429628 -1.9165983
-0.016728515 -11.444777 -1.9185119
0.25967774 -11.453382 -1.9204468
0.53645509 -11.455431 -1.9224011
1.3677343 -11.422017 -1.9283737
1.6446582 -11.397644 -1.9303976
2.7469335 -11.233809 -1.9386264
3.0203905 -11.176274 -1.9407115
3.2927148 -11.112135 -1.9428058
3.5636816 -11.0414 -1.9449073
3.8331835 -10.964078 -1.9470156
4.1010056 -10.880212 -1.9491291
4.8930368 -10.589587 -1.9554895
4.7490721 -9.6591854 -1.8043172
4.9855466 -9.5507603 -1.806015
5.4504786 -9.3163795 -1.8093575
5.6788278 -9.1905012 -1.811002
6.3454199 -8.7790127 -1.8158118
6.7730465 -8.4771261 -1.8189059
7.1858497 -8.1539631 -1.8219
7.9627929 -7.4466257 -1.8275579
8.4986715 -6.8659668 -1.8314816
8.6677151 -6.6634698 -1.8327235
8.8318062 -6.4566522 -1.8339316
9.0125875 -6.2608967 -1.8395666
9.9810352 -6.2422171 -1.9734061
10.396172 -5.8238688 -1.9975471
10.806758 -5.0645695 -2.0006249
10.930908 -4.8046446 -2.0015624
11.159629 -4.2754822 -2.0033014
11.264013 -4.0066261 -2.004101
11.361679 -3.7350872 -2.004854
11.536435 -3.1848912 -2.0062158
11.613438 -2.9064937 -2.006824
11.850908 -1.7756258 -2.0087619
11.892412 -1.4894329 -2.0091207
11.953779 -0.91434139 -2.009686
11.973584 -0.62571836 -2.0098917
11.986103 -0.33671507 -2.0100462
11.939531 1.1082208 -2.0100462
11.908399 1.3958179 -2.0098915
11.824463 1.9681768 -2.0094283
11.711875 2.5354285 -2.0087609
11.644932 2.8166504 -2.0083516
11.570937 3.0960894 -2.0078917
11.205723 4.1917582 -2.0055575
10.504492 4.2210369 -1.8977354
10.113144 4.3500385 -1.8454602
10.001269 4.5909076 -1.8447236
9.7596674 5.0636053 -1.8431222
9.6301556 5.2950873 -1.8422588
9.3541498 5.7476907 -1.8404092
9.0561132 6.1854582 -1.8384005
8.0725975 6.104949 -1.6966188
7.0624022 6.192708 -1.5745493
6.4129782 6.1952591 -1.4947183
6.1119628 6.1964397 -1.4589877
5.824873 6.1975665 -1.4257431
5.0350294 6.2006621 -1.3389502
4.7922168 6.2016106 -1.313797
4.1138964 6.2042594 -1.2478893
3.9022753 6.2050858 -1.2287567
3.6969237 6.2058854 -1.2108972
3.4973047 6.2066631 -1.1942315
2.7108886 6.1259394 -1.1229541
2.3973534 6.2110248 -1.1160251
1.5717089 6.2142158 -1.0744953
1.4132617 6.2148271 -1.0683929
0.94730467 6.2166181 -1.0541255
0.79442382 6.217205 -1.0506687
0.49124998 6.2183685 -1.045637
0.34054688 6.218946 -1.0440469
0.040117186 6.2200956 -1.0426997
-0.10996094 6.2206669 -1.0429376
-0.56190431 6.2223892 -1.0473065
-0.71366209 6.2229667 -1.0499976
-0.8663379 6.2235465 -1.053317
-1.1749902 6.2247186 -1.0618796
-1.331416 6.2253103 -1.0671519
-1.4894629 6.2259088 -1.073104
-1.8114063 6.2271271 -1.0871248
-1.9757323 6.227747 -1.0952371
-2.1151464 6.1484332 -1.0899496
-2.2812402 6.1451201 -1.0988005
-2.4517381 6.145762 -1.1091731
-2.6256249 6.1464167 -1.1204014
-3.0273438 6.2356448 -1.1619618
-3.2158301 6.236352 -1.1762123
-3.4091406 6.2370768 -1.1915181
-4.0222263 6.2393708 -1.2444052
-4.4636521 6.2410188 -1.2862287
-5.7201071 6.2457013 -1.4197117
-6.0045018 6.246757 -1.4524655
-6.6155758 6.2490263 -1.525502
-6.945117 6.2502494 -1.5662585
-7.940908 6.4811749 -1.7182388
-8.0897064 6.2836027 -1.7171212
-8.2338085 6.0828462 -1.7160559
-8.8810349 5.0335464 -1.7112378
-10.205156 4.2545547 -1.8534268
-10.304326 4.0069389 -1.8533381
-10.394101 3.7557929 -1.8526459
-10.478007 3.5026762 -1.8519943
-10.555976 3.2478168 -1.8513845
-10.628017 2.9912639 -1.8508166
-10.694053 2.7332239 -1.8502905
-10.754052 2.4738042 -1.8498068
-10.855937 1.9512817 -1.848967
-10.897744 1.6885003 -1.8486114
-10.933456 1.4248291 -1.8482985
-10.986513 0.89552242 -1.8478026
-11.01498 0.36449218 -1.8474799
-11.02002 0.098612666 -1.8473837
-11.011572 -0.43301818 -1.8473223
-10.978555 -0.96375245 -1.847435
-10.952832 -1.2283978 -1.8475567
-10.883018 -1.7556597 -1.8479303
-10.732676 -2.539335 -1.8488154
-10.602304 -3.0554256 -1.84962
-10.528173 -3.3111432 -1.8500863
-10.362119 -3.8173294 -1.8511456
-10.069238 -4.5613918 -1.8530481
-9.8453417 -5.0458183 -1.8545216
-9.5989256 -5.5197229 -1.8561568
-9.4674416 -5.7524028 -1.857034
-9.3304787 -5.9821057 -1.8579507
-9.1622458 -6.1911082 -1.8536547
-7.8883886 -6.5205593 -1.7156265
-7.5740914 -6.9020715 -1.7177631
-7.2418747 -7.2689781 -1.7200297
-6.8923826 -7.6204343 -1.7224221
-6.3372169 -8.1168737 -1.7262366
-6.1443067 -8.2737484 -1.7275658
-5.7471485 -8.5740833 -1.730307
-5.1247458 -8.9895973 -1.7346154
-4.9105859 -9.1184092 -1.7361014
-4.6932325 -9.2422705 -1.7376107
-4.2495213 -9.4746828 -1.740697
-4.0233107 -9.5831261 -1.7422726
-4.120615 -10.518906 -1.8937746
-3.6151464 -10.725379 -1.8973037
-3.3584278 -10.819381 -1.8990424
-3.09917 -10.907062 -1.90075
-2.3060448 -11.120843 -1.9038671
-2.0381932 -11.179214 -1.9048855
-1.4993359 -11.285455 -1.9084262
-0.40647459 -11.421448 -1.9158126
0.14523438 -11.450618 -1.9196435
0.97593749 -11.445177 -1.9255395
1.2531152 -11.430168 -1.9275409
2.9073534 -11.200889 -1.9398474
3.1801269 -11.139481 -1.9419378
3.4517088 -11.071473 -1.9440368
3.9903612 -10.915723 -1.9482538
3.2585645 -8.2880688 -1.4928672
5.0455174 -10.52602 -1.9567335
4.8880076 -9.5963545 -1.8053145
5.3552146 -9.3667793 -1.8086723
6.2551756 -8.8387671 -1.8151596
6.8955469 -8.3846045 -1.8197937
7.1016989 -8.2225409 -1.8212888
7.3038669 -8.0553131 -1.8227574
8.4272652 -6.9485197 -1.8309573
8.5983887 -6.7477942 -1.8322138
8.7644825 -6.5427694 -1.8334357
10.753476 -5.171207 -2.0002236
11.000664 -4.6508088 -2.0020912
11.114463 -4.3859777 -2.0029566
11.221631 -4.1182146 -2.0037758
11.32208 -3.8477914 -2.0045481
11.582412 -3.0219722 -2.006578
11.77997 -2.1781499 -2.0081682
11.831631 -1.8936934 -2.0085983
11.876103 -1.6080225 -2.0089781
11.943466 -1.0335876 -2.0095859
11.990078 -0.16717896 -2.0101132
11.991055 0.12212036 -2.010186
11.984746 0.41140929 -2.0102072
11.971152 0.70039731 -2.0101769
11.922168 1.2769055 -2.0099618
11.794434 2.1350152 -2.0092537
11.602422 2.9806573 -2.0080881
11.524326 3.2588854 -2.0075989
11.439277 3.5350487 -2.0070603
11.347353 3.8088653 -2.0064723
10.793349 4.2124348 -1.9422183
10.157695 4.2494855 -1.8457525
10.04831 4.4915447 -1.8450339
9.8116016 4.9668021 -1.8434677
9.5516014 5.4292035 -1.8417333
9.413105 5.6551957 -1.8408053
9.2690334 5.8775711 -1.8398367
9.1195602 6.0961223 -1.838829
7.8415232 6.1064177 -1.6660424
7.5658789 6.1907268 -1.6387433
-9.7253323 -0.12350952 -1.8564928
-9.7194624 -0.35809997 -1.8564807
-9.7081251 -0.5924896 -1.8565075
-9.6414642 -1.2932483 -1.8568194
-9.6083889 -1.5256244 -1.8570004
-9.5699215 -1.7571969 -1.8572198
-9.4768457 -2.2174339 -1.8577734
-9.4222755 -2.4458568 -1.8581074
-9.2972651 -2.89873 -1.8588885
-9.1511908 -3.3455 -1.85982
-9.0703516 -3.5662994 -1.8603418
-8.8932905 -4.0021544 -1.861495
-8.7971287 -4.2169743 -1.8621265
-8.4787111 -4.8476305 -1.8642352
-8.1164551 -5.4551945 -1.8666596
-7.1844921 -6.2053685 -1.8120615
-6.090332 -6.700192 -1.7283063
-5.9306836 -6.8495226 -1.7294015
-5.7674217 -6.995141 -1.7305233
-5.6007028 -7.1369686 -1.7316706
-5.4305758 -7.274931 -1.7328427
-4.5317969 -7.9038596 -1.739058
-4.3430567 -8.016923 -1.7403675
-4.1515527 -8.125576 -1.7416977
-3.5614257 -8.4243555 -1.7458045
-3.1560156 -8.6002483 -1.7486324
-2.9500585 -8.6810207 -1.7500714
-2.7420311 -8.7569342 -1.7515256
-2.5320799 -8.8279419 -1.7529948
-2.3203321 -8.8939686 -1.7544779
-1.6753613 -9.0618038 -1.7590024
-1.4575293 -9.1075068 -1.7605332
-1.2384278 -9.1480188 -1.762074
-1.0182812 -9.1833038 -1.7636234
-0.3524121 -9.2574673 -1.7683173
-0.12907226 -9.2715406 -1.7698942
0.54320312 -9.2814646 -1.7746481
1.6636719 -9.1896067 -1.7825961
2.1087596 -9.1148243 -1.785762
2.3300879 -9.0692902 -1.7873383
2.5504394 -9.0183554 -1.7889088
2.769707 -8.9620333 -1.7904729
2.9876757 -8.9003267 -1.7920289
3.2043066 -8.8332825 -1.793577
3.2419434 -8.3062439 -1.7019519
3.3430469 -7.9905686 -1.6533184
4.2620115 -8.4188814 -1.8011543
4.8715234 -8.1082954 -1.8055372
5.4579296 -7.7528687 -1.8097668
5.8343067 -7.4918299 -1.8124892
6.0177441 -7.3542809 -1.8138183
6.5477242 -6.9144664 -1.8176681
6.7171969 -6.7590704 -1.8189024
6.8828611 -6.5994401 -1.8201107
7.5424805 -6.2504139 -1.8697772
8.3083105 -6.2343392 -1.9826825
8.6089649 -5.832839 -1.9849011
8.7518549 -5.6264482 -1.9859589
9.0221777 -5.2029963 -1.9879681
9.271347 -4.7661963 -1.9898303
9.4986134 -4.3171363 -1.9915404
9.7033491 -3.8569391 -1.9930938
9.7971096 -3.6230168 -1.9938107
9.8850098 -3.3867612 -1.9944863
10.113047 -2.6653819 -1.9962641
10.37126 -1.4304528 -1.9983722
10.404277 -1.1800011 -1.9986632
10.430996 -0.92876095 -1.9989092
10.465528 -0.42460144 -1.9992684
10.47333 -0.17200622 -1.9993814
10.474775 0.080720827 -1.9994491
10.469893 0.33340943 -1.9994723
10.458701 0.58589661 -1.9994507
10.441201 0.83801758 -1.9993844
10.417315 1.0896088 -1.9992727
10.387207 1.3405042 -1.9991168
10.35081 1.5905554 -1.9989163
10.308164 1.8395801 -1.9986715
10.259306 2.087436 -1.9983822
10.204247 2.3339446 -1.998049
10.143046 2.578963 -1.997672
9.7466011 3.7760918 -1.9951401
9.6495991 4.008863 -1.994507
8.9285345 4.2252436 -1.8854394
8.5862789 4.3198295 -1.8346514
8.4761715 4.5239129 -1.8339187
8.2410059 4.9232841 -1.832346
8.1161327 5.1183219 -1.8315071
7.8521285 5.4985051 -1.8297262
7.713232 5.6834126 -1.8287857
7.4220896 6.0423198 -1.8268075
7.2700291 6.2160978 -1.8257715
7.1137304 6.3859124 -1.8246953
5.9713669 6.1968145 -1.6426175
5.690537 6.1979203 -1.6060424
5.1640525 6.1999884 -1.5401602
4.6779685 6.2018962 -1.4827853
4.447988 6.2027984 -1.4569131
4.0106931 6.2045112 -1.4101776
3.8021679 6.2053251 -1.3891047
3.5996485 6.2061162 -1.3694363
3.1675975 6.124114 -1.3160543
2.9829102 6.1247416 -1.3003403
2.6259668 6.1261311 -1.2722276
2.4865527 6.2105398 -1.2769246
2.3145604 6.2112079 -1.2652088
2.1456053 6.211863 -1.2544285
1.8157128 6.21314 -1.2355398
1.6542773 6.2137637 -1.2273676
1.494873 6.2143793 -1.220008
1.3372754 6.2149873 -1.2134389
1.1812793 6.215589 -1.2076385
0.72084957 6.2173576 -1.1946903
0.41833985 6.2185187 -1.1896441
0.11767578 6.2196698 -1.1873939
-0.1825586 6.2208161 -1.1879114
-0.48374999 6.2219634 -1.1912032
-0.6351465 6.2225385 -1.1939
-1.2503711 6.2248735 -1.2119081
-1.5664941 6.2260675 -1.225441
-2.1957324 6.1486015 -1.2462071
-2.5353124 6.1459394 -1.2690037
-2.9316211 6.2351422 -1.3151225
-3.3085742 6.2365532 -1.3475513
-4.1261911 6.2396064 -1.4278494
-4.3466892 6.2404251 -1.4516174
-4.5747948 6.2412739 -1.4770662
-4.8111815 6.2421513 -1.5043133
-5.0566015 6.2430658 -1.5334966
-5.8558106 6.2460284 -1.6342294
-6.7924023 5.9708538 -1.726228
-7.0643063 5.6297259 -1.7242264
-7.1940722 5.4546247 -1.7232685
-7.3196192 5.2766409 -1.7223397
-7.5578513 4.912375 -1.7205713
-7.6704392 4.7262969 -1.7197323
-7.8822165 4.3467851 -1.7181475
-8.8676853 4.0839472 -1.8635195
-9.0476952 3.6487567 -1.8621469
-9.1299896 3.428261 -1.8615142
-9.2070894 3.20596 -1.8609183
-9.278965 2.982017 -1.8603587
-9.4069138 2.5295868 -1.8593502
-9.7042379 0.67719728 -1.8568246
-9.7170115 0.44284484 -1.8566808
-9.7134762 -0.49551329 -1.8564918
-9.698945 -0.72972041 -1.8565413
-9.6789837 -0.96355343 -1.8566291
-9.5865135 -1.661455 -1.8571243
-9.445508 -2.3514602 -1.8579644
-9.3878517 -2.5791543 -1.8583206
-9.2566214 -3.0303338 -1.8591461
-9.1044331 -3.4751332 -1.8601214
-9.0205956 -3.6948419 -1.8606644
-8.8375387 -4.1283183 -1.8618606
-8.7384272 -4.3418512 -1.8625131
-8.6343164 -4.5530849 -1.8632015
-8.2925482 -5.1719213 -1.8654785
-8.1689939 -5.3728561 -1.8663067
-8.0407228 -5.5709481 -1.8671691
-7.9077635 -5.7660728 -1.8680651
-7.6281152 -6.1470232 -1.869957
-6.6668844 -6.2192321 -1.7402956
-5.8354297 -6.9353247 -1.7300562
-5.6701365 -7.0787377 -1.7311927
-5.5014157 -7.218308 -1.7323545
-5.3293161 -7.3539629 -1.7335413
-5.153945 -7.4856181 -1.7347518
-4.9753904 -7.6131887 -1.735986
-4.7937303 -7.736608 -1.7372431
-4.6090722 -7.8557897 -1.7385223
-4.4215136 -7.9706578 -1.739823
-4.2311425 -8.0811386 -1.7411447
-4.0380468 -8.187171 -1.7424865
-3.4435644 -8.4778585 -1.7466263
-3.2406445 -8.5654078 -1.7480416
-3.035537 -8.6481752 -1.7494738
-2.8283594 -8.7261105 -1.7509218
-2.1954393 -8.9303513 -1.7553531
-1.3292577 -9.131875 -1.761435
-0.88874996 -9.20154 -1.7645357
0.0020214843 -9.2772913 -1.7708204
0.22611327 -9.2828369 -1.7724046
0.89918941 -9.2670336 -1.7771699
1.57125 -9.2023716 -1.7819394
1.7943749 -9.1699381 -1.7835253
2.0168848 -9.1320772 -1.785108
2.8976171 -8.9265232 -1.7913858
3.5181444 -8.0860205 -1.6831939
3.9677246 -8.5493078 -1.7990426
5.1846581 -7.9258623 -1.8077941
5.5694823 -7.6783338 -1.8105731
5.9422069 -7.4117703 -1.8132708
6.1237597 -7.2715349 -1.814587
7.1376853 -6.3377476 -1.8219732
8.5483589 -5.9171906 -1.9844531
8.8332319 -5.5037975 -1.9865627
8.9679489 -5.2917523 -1.9875641
9.0974312 -5.076324 -1.9885293
9.2215624 -4.8576322 -1.9894574
9.3402538 -4.6358194 -1.9903475
9.560976 -4.1833758 -1.9920123
9.6628609 -3.9530294 -1.9927856
9.7590237 -3.7201343 -1.9935189
9.8493452 -3.4848201 -1.9942117
9.9337988 -3.2472537 -1.9948633
10.012285 -3.0075638 -1.9954733
10.084814 -2.7659378 -1.9960415
10.151289 -2.5224872 -1.9965671
10.21166 -2.2774107 -1.9970502
10.355781 -1.5338467 -1.9982394
10.443721 -0.78121763 -1.999033
10.460468 -0.52907223 -1.9992089
10.47496 -0.023880005 -1.9994267
10.464111 0.48143309 -1.9994651
10.427969 0.98555726 -1.9993244
10.400469 1.2367597 -1.999187
10.326572 1.7366467 -1.9987783
10.169121 2.4777379 -1.9978333
10.104336 2.7218072 -1.9974306
9.9566307 3.2045343 -1.9964956
9.8738079 3.442888 -1.9959641
9.5900974 4.1441059 -1.9941168
8.5223532 4.4397807 -1.8342264
8.4093161 4.6421952 -1.8334728
8.0407124 5.2311273 -1.8309993
7.9083004 5.4209442 -1.8301059
7.333447 6.1446414 -1.8262038
6.0913963 6.196341 -1.6585351
5.5316114 6.198544 -1.5857731
5.0177341 6.2005634 -1.522522
4.5421972 6.2024298 -1.4674069
4.3168554 6.2033124 -1.4425503
3.6827734 6.2057915 -1.3774121
3.4835644 6.2065701 -1.3585297
3.2896385 6.2073259 -1.3409283
2.8766699 6.1251554 -1.2916622
2.6985741 6.1258488 -1.2777033
2.3853612 6.2109332 -1.2699412
1.8831738 6.2128787 -1.2391653
1.7208399 6.2135077 -1.2306496
1.560625 6.2141266 -1.2229581
1.090498 6.215939 -1.204589
0.78381836 6.2171173 -1.1960884
0.48073241 6.2182803 -1.1904581
0.33009765 6.2188568 -1.1886976
-0.12039062 6.2205777 -1.1875765
-0.27066407 6.2211504 -1.1885873
-0.42125976 6.221724 -1.1902931
-0.87695312 6.2234573 -1.1996391
-1.0307324 6.224041 -1.2041969
-1.3423047 6.2252202 -1.2155501
-1.6605468 6.2264237 -1.2300098
-1.9872167 6.2276568 -1.2477573
-2.4636719 6.1456695 -1.2638038
-2.8558006 6.234859 -1.3089828
-3.0402148 6.2355485 -1.3241444
-3.4226952 6.2369804 -1.357967
-3.6216016 6.2377238 -1.3767571
-4.2545505 6.2400837 -1.4415829
-4.4794235 6.2409196 -1.4663229
-4.712285 6.2417865 -1.4928106
-4.953867 6.2426834 -1.5211737
-5.7392869 6.2455964 -1.6190387
-6.4428806 6.3655448 -1.7287908
-6.7341013 6.0398855 -1.7266562
-6.8737793 5.8721771 -1.7256296
-7.0093846 5.7013235 -1.7246313
-7.1408691 5.5274539 -1.7236614
-7.2681737 5.3506498 -1.7227205
-7.3912301 5.1710038 -1.721809
-7.5099902 4.9886308 -1.7209271
-7.8398438 4.4261079 -1.7184653
-8.0162983 4.274024 -1.734024
-8.4770994 4.260324 -1.8109357
-9.0121384 3.7394707 -1.8624191
-9.0965424 3.5197423 -1.8617718
-9.1758108 3.2981732 -1.8611604
-9.3186522 2.8500183 -1.8600478
-9.3821678 2.6236701 -1.8595468
-9.4403906 2.395957 -1.8590829
-9.4932423 2.167011 -1.8586569
-9.6196575 1.4739501 -1.8576045
-9.6973629 0.77409786 -1.8568952
-9.7123823 0.5398773 -1.8567356
-9.7247066 -0.16392334 -1.856488
-9.7178907 -0.39848083 -1.8564826
-9.705615 -0.63282776 -1.8565161
-9.6879101 -0.86682433 -1.8565881
-9.6647654 -1.1003717 -1.8566985
-9.6361713 -1.3333166 -1.8568478
-9.6021481 -1.5655692 -1.8570355
-9.5179787 -2.0274603 -1.8575256
-9.4678221 -2.2568555 -1.8578281
-9.4123535 -2.4850709 -1.8581686
-9.2141895 -3.1613877 -1.8594165
-9.1376362 -3.383661 -1.8599072
-9.0559273 -3.6041358 -1.8604351
-8.9690523 -3.8227332 -1.8609997
-8.5710154 -4.6757808 -1.8636215
-8.3423042 -5.0879407 -1.8651456
-8.2207127 -5.2900367 -1.8659595
-8.0943747 -5.4893098 -1.8668082
-7.9633203 -5.6856804 -1.8676904
-7.8277049 -5.8790202 -1.868606
-7.4719825 -6.1974926 -1.8529788
-7.1262403 -6.2069497 -1.8038608
-6.3726754 -6.4179935 -1.7263731
-6.0631151 -6.7261658 -1.7284929
-5.7389841 -7.0198388 -1.7307191
-5.57166 -7.1610112 -1.7318707
-5.4009471 -7.2982984 -1.7330471
-5.2269044 -7.4316177 -1.734248
-5.0496678 -7.5608854 -1.7354723
-4.6858692 -7.806983 -1.73799
-4.4994822 -7.9236412 -1.7392821
-3.526875 -8.4402494 -1.7460452
-3.3249218 -8.5297461 -1.7474536
-2.2836816 -8.9048395 -1.7547345
-1.8546679 -9.0200787 -1.7577435
-0.98026365 -9.1888485 -1.7638912
-0.75898439 -9.2179661 -1.7654501
-0.53681642 -9.2417774 -1.7670164
0.13329101 -9.2811975 -1.7717482
0.35747069 -9.2835798 -1.7733337
0.58187497 -9.2805624 -1.7749219
1.0306835 -9.2582483 -1.7781023
1.2548633 -9.2389412 -1.7796926
1.7021191 -9.1840229 -1.7828693
2.1469433 -9.1073713 -1.7860339
2.8073339 -8.9517889 -1.7907412
3.2414746 -8.8212051 -1.7938426
3.2408788 -8.2027454 -1.6834891
3.3938572 -8.0182705 -1.6619555
3.8808105 -8.5855341 -1.7984195
4.0902247 -8.4964952 -1.7999213
4.2975488 -8.4022951 -1.8014096
4.5026951 -8.302949 -1.8028836
4.9058595 -8.0890894 -1.8057845
6.0490332 -7.3301282 -1.8140451
6.577168 -6.88802 -1.8178823
6.745986 -6.731884 -1.8191123
7.6050391 -6.2491388 -1.8788338
7.9805565 -6.2413793 -1.9338351
8.3349609 -6.2003813 -1.9828787
8.6338863 -5.7975693 -1.9850854
8.9128218 -5.3799443 -1.9871542
9.2917871 -4.728003 -1.9899838
9.407217 -4.5044169 -1.9908514
9.5171385 -4.2779284 -1.9916805
9.7199221 -3.8168342 -1.9932203
9.8126564 -3.5825009 -1.9939299
10.124492 -2.6234627 -1.9963546
10.244169 -2.1330681 -1.9973131
10.339218 -1.6370752 -1.9980987
10.409326 -1.1367962 -1.9987087
10.43496 -0.88544065 -1.9989474
10.468418 0.37690979 -1.9994719
10.456122 0.62935054 -1.9994425
10.43751 0.88137388 -1.9993681
10.343925 1.6335034 -1.9988775
10.300185 1.8823436 -1.9986248
10.131914 2.6209784 -1.9976028
9.9891796 3.105263 -1.9967031
9.3772459 4.2104888 -1.9620501
8.8395119 4.2281537 -1.8703378
8.4567184 4.5587687 -1.833789
8.3407421 4.7594609 -1.8330145
8.2198725 4.9570928 -1.8322042
7.8285446 5.5306058 -1.8295666
7.6888766 5.7148895 -1.8286204
7.5447168 5.8955708 -1.8276416
7.3961816 6.0725174 -1.8266311
7.2433982 6.2456255 -1.8255895
6.2138181 6.1958599 -1.6749325
5.9221191 6.1970086 -1.6361349
5.3766403 6.1991544 -1.5663198
5.1206932 6.2001591 -1.5349034
4.6377831 6.2020535 -1.4782046
3.7668846 6.2054629 -1.385621
3.5653515 6.2062507 -1.3661849
3.369287 6.2070146 -1.3480622
2.9515331 6.1248651 -1.2977512
2.771826 6.1255646 -1.2833532
2.5959375 6.1262479 -1.270002
2.2852538 6.2113223 -1.2632874
1.9510547 6.2126164 -1.2429384
1.6266797 6.21387 -1.2260429
1.310293 6.2150908 -1.2123846
1.0001659 6.2162857 -1.2017963
0.39240232 6.2186174 -1.1893413
0.24198242 6.2191925 -1.1879894
-0.058251951 6.2203412 -1.187361
-0.35887694 6.2214875 -1.1895026
-0.5097754 6.2220621 -1.191617
-0.66128904 6.2226372 -1.1944357
-1.1214453 6.2243838 -1.2072098
-1.4347949 6.2255707 -1.2194582
-1.7553124 6.2267804 -1.234861
-2.2246192 6.1487103 -1.2480922
-2.5652733 6.1460514 -1.2712147
-2.7806933 6.2345767 -1.3030277
-2.9633691 6.2352619 -1.317734
-3.3419237 6.2366776 -1.3505673
-3.7408006 6.2381692 -1.3883942
-3.9489551 6.2389436 -1.409366
-4.3854098 6.2405705 -1.4558783
-4.8527637 6.2423077 -1.5091962
-5.356914 6.2441788 -1.5703671
-5.6249218 6.2451725 -1.6042892
-6.3806348 6.4312515 -1.7292426
-6.5298533 6.2714887 -1.7281539
-6.8164454 5.9419818 -1.7260511
-7.0869532 5.5997806 -1.7240595
-7.2159762 5.4241743 -1.7231065
-7.3408008 5.2456975 -1.7221829
-7.5775585 4.880507 -1.7204244
-8.2815523 4.2661591 -1.7781756
-8.9756832 3.8298564 -1.8626976
-9.0622263 3.610913 -1.8620353
-9.1436615 3.3900859 -1.8614089
-9.2198439 3.1675177 -1.8608192
-9.2908106 2.9432855 -1.8602661
-9.416914 2.4903753 -1.8592706
-9.566123 1.8016295 -1.8580579
-9.6051168 1.5700549 -1.8577293
-9.6386909 1.3376563 -1.8574388
-9.6668453 1.1045709 -1.8571866
-9.7068453 0.63686764 -1.8567969
-9.7250195 0.16786316 -1.8565615
-9.7259369 -0.066802979 -1.8565015
-9.7113571 -0.53586608 -1.8564976
-9.6959076 -0.7700299 -1.8565534
-9.6169043 -1.4695325 -1.856953
-9.5371876 -1.9321982 -1.8574115
-9.4892378 -2.1620407 -1.8576983
-9.3773727 -2.6182337 -1.8583859
-9.3134861 -2.8443246 -1.8587862
-9.2443457 -3.0688906 -1.8592241
-9.0903616 -3.5131106 -1.8602122
-9.0056343 -3.7324865 -1.8607616
-8.9157715 -3.949909 -1.8613479
-8.720849 -4.3784037 -1.8626291
-8.6159077 -4.5892224 -1.8633236
-8.5060158 -4.7976317 -1.8640535
-8.3912401 -5.0035071 -1.8648187
-8.1472359 -5.4071727 -1.8664529
-7.7460546 -5.9908991 -1.869158
-7.6032419 -6.1792216 -1.8701254
-7.2671289 -6.2031174 -1.8237479
-6.9318552 -6.2121887 -1.7767144
-6.6131053 -6.2206483 -1.7329873
-6.4348631 -6.352469 -1.7259481
-5.9695802 -6.8137698 -1.7291344
-5.8071971 -6.9602838 -1.7302499
-5.6413183 -7.1030445 -1.731391
-5.299336 -7.3769255 -1.7337481
-5.1233983 -7.5078783 -1.7349627
-4.7621484 -7.7574387 -1.7374618
-4.1980858 -8.0997248 -1.7413744
-4.0045409 -8.2049856 -1.7427195
-3.808408 -8.3056993 -1.7440841
-3.6098046 -8.4018211 -1.7454675
-3.4087596 -8.4932785 -1.7468688
-3.2054882 -8.5799971 -1.748287
-2.7925 -8.7390356 -1.7511728
-2.5829883 -8.8112326 -1.7526385
-2.3716795 -8.8784752 -1.754118
-1.9439648 -8.9978933 -1.7571168
-1.727793 -9.0499849 -1.7586343
-1.5102637 -9.0969362 -1.7601626
-1.0715917 -9.1752615 -1.7632482
-0.6288867 -9.2325649 -1.766367
-0.40635741 -9.2532644 -1.7679367
0.040624999 -9.2786341 -1.7710932
0.4890039 -9.2824621 -1.7742645
0.93785155 -9.2646446 -1.7774441
1.1621387 -9.2475958 -1.7790347
1.3861133 -9.2251043 -1.7806244
1.6096972 -9.1971712 -1.7822125
2.0550976 -9.1250076 -1.78538
2.2766798 -9.0807924 -1.7869576
2.4972851 -9.0311632 -1.7885299
2.7168164 -8.9761381 -1.7900954
3.3675683 -8.7788982 -1.7947444
4.2120118 -8.4419088 -1.8007952
4.418076 -8.3446808 -1.8022753
4.8232322 -8.1349907 -1.8051895
5.6020508 -7.6561279 -1.8108087
5.7894821 -7.524375 -1.8121645
6.1546679 -7.2469234 -1.8148113
6.3321872 -7.101367 -1.8161006
6.5062008 -6.9513712 -1.8173659
7.8225193 -6.2446666 -1.9105558
8.2110548 -6.2365294 -1.9681191
8.4246092 -6.083921 -1.9835397
8.8568068 -5.4675279 -1.9867377
8.9906445 -5.2548919 -1.9877331
9.4723339 -4.3720098 -1.9913421
9.7749805 -3.6797731 -1.9936411
9.8642969 -3.4440575 -1.9943267
10.096689 -2.7241299 -1.9961351
10.221436 -2.2350531 -1.9971288
10.321572 -1.7401086 -1.9979504
10.362363 -1.4908392 -1.9982955
10.396874 -1.2406152 -1.9985969
10.425117 -0.98954529 -1.998854
10.462705 -0.485603 -1.9992347
10.472041 -0.23307678 -1.9993585
10.47501 0.019639893 -1.9994371
10.47166 0.27235779 -1.9994709
10.461992 0.52489257 -1.9994601
10.360186 1.5302014 -1.9989691
10.319043 1.7794958 -1.9987347
10.271669 2.027652 -1.9984561
10.218096 2.274508 -1.9981335
10.158408 2.5198822 -1.9977671
10.092587 2.7636614 -1.997357
9.8589449 3.4837084 -1.9958682
9.7691603 3.719466 -1.9952868
9.673564 3.9528351 -1.9946636
8.6121283 4.2700834 -1.8348227
8.5032415 4.4748554 -1.8340991
8.3893452 4.6767631 -1.8333392
8.2704782 4.875668 -1.8325436
8.1467476 5.0714827 -1.8317131
7.8850193 5.4532976 -1.8299484
7.6049023 5.8212395 -1.8280506
7.4581933 5.9997468 -1.8270533
7.1517868 6.3451505 -1.8249346
6.9928122 6.5122671 -1.8239328
6.0412011 6.1965399 -1.6518569
5.7572556 6.1976566 -1.6146469
5.2253709 6.199749 -1.5476415
4.9753809 6.2007294 -1.5174756
4.5028319 6.2025833 -1.4630042
4.0620704 6.2043095 -1.4154925
3.6480761 6.2059269 -1.3740655
3.4497948 6.2067008 -1.3554089
3.256748 6.2074542 -1.3380214
3.027158 6.124661 -1.3040478
2.8457129 6.1252766 -1.2891816
2.6682715 6.1259675 -1.2754031
2.186162 6.2117071 -1.2569494
2.0193262 6.2123528 -1.2468574
1.8550586 6.2129874 -1.2376403
1.5332227 6.2142315 -1.2217126
0.91022462 6.2166324 -1.1992527
0.75761718 6.2172174 -1.1954916
0.60584962 6.2177982 -1.1924454
0.15395507 6.2195306 -1.1875182
