# .PCD v0.7 - Point Cloud Data file format
VERSION 0.7
FIELDS x y z
SIZE 4 4 4
TYPE F F F
COUNT 1 1 1
WIDTH 1499
HEIGHT 1
VIEWPOINT 0 0 0 1 0 0 0
POINTS 1499
DATA ascii
-2.5844629 -5.0585217 -1.9060091
-2.3395507 -5.1819139 -1.9077101
-2.0887988 -5.293571 -1.9094551
-1.8327441 -5.3931994 -1.9112402
-1.1732227 -5.5880175 -1.9158523
-0.90319335 -5.6436758 -1.9177462
-0.63052732 -5.6863465 -1.9196616
-0.49346679 -5.7027674 -1.9206256
-0.35589844 -5.7158942 -1.9215939
0.19696289 -5.7352037 -1.9254931
0.61208981 -5.7146502 -1.9284288
0.88795894 -5.684227 -1.9303836
1.1622559 -5.6404662 -1.9323301
1.298623 -5.6136003 -1.9332992
1.5694629 -5.5499554 -1.9352258
1.7037305 -5.5132017 -1.9361823
2.2313671 -5.3337407 -1.9399486
2.3605077 -5.2808661 -1.9408724
2.4883983 -5.2248511 -1.9417883
2.6149511 -5.1657114 -1.9426951
2.7400682 -5.1034775 -1.9435928
2.9857714 -4.9698758 -1.945358
3.1061718 -4.8985844 -1.9462243
3.4567773 -4.6671901 -1.9487525
3.569834 -4.5843592 -1.9495697
3.6809278 -4.498754 -1.9503735
3.8967674 -4.319438 -1.9519383
4.0014062 -4.2258124 -1.9526983
4.1037498 -4.1296277 -1.9534429
4.2037401 -4.0309334 -1.9541714
4.3964353 -3.8262231 -1.9555787
4.4890137 -3.7203393 -1.9562565
4.5790133 -3.6121759 -1.9569166
4.6663475 -3.501811 -1.9575584
4.9881053 -3.0395601 -1.9599355
5.0614061 -2.9191551 -1.9604805
5.1317186 -2.7969527 -1.9610049
5.1990333 -2.6730173 -1.9615084
5.2633104 -2.5474441 -1.961991
5.4374022 -2.1616004 -1.9633079
5.4890528 -2.0302112 -1.9637027
5.5374899 -1.8975546 -1.964075
5.6982126 -1.3560199 -1.9653332
5.7300291 -1.2183087 -1.965589
5.7834082 -0.94072264 -1.9660293
5.8230662 -0.66077816 -1.9663732
5.8377147 -0.52014768 -1.9665086
5.8615623 0.044796143 -1.9668057
5.8588085 0.18618652 -1.9668185
5.8296776 0.6093573 -1.9667094
5.7929196 0.88975829 -1.9665136
5.7424121 1.1679602 -1.9662206
5.7120309 1.3060424 -1.9660375
5.6006446 1.7150903 -1.9653442
5.5568748 1.8494384 -1.9650658
5.4594235 2.1146448 -1.9644383
5.289238 2.5024993 -1.9633251
5.2261915 2.628808 -1.9629089
5.1601071 2.7535181 -1.9624707
5.0909958 2.8765221 -1.9620107
5.0188866 2.9977655 -1.9615291
4.7851071 3.3501794 -1.959959
4.7015429 3.4636486 -1.9593948
4.6152439 3.5749943 -1.958811
4.4346385 3.791081 -1.9575851
4.2437987 3.9979131 -1.9562848
4.1446681 4.097713 -1.9556075
4.0431933 4.1950116 -1.9549133
3.8782909 4.2232499 -1.923898
3.3652539 4.2436566 -1.8172667
3.2250781 4.2747931 -1.7967514
3.1198535 4.3495879 -1.7960254
2.7935252 4.5580816 -1.7937689
2.6816015 4.6221499 -1.7929931
2.5681739 4.6834393 -1.7922064
2.4533496 4.7419195 -1.791409
2.337168 4.7975602 -1.7906013
2.2197363 4.8503351 -1.7897843
2.1011035 4.9002118 -1.7889581
1.7387695 5.0322065 -1.7864299
1.6161132 5.0702496 -1.7855725
1.36833 5.1373062 -1.7838382
1.1178515 5.1922102 -1.7820822
0.99176759 5.215075 -1.7811973
0.86524415 5.2348676 -1.7803085
0.73831052 5.2515836 -1.779416
0.48367187 5.2757635 -1.7776235
0.10072266 5.2888799 -1.7749228
-0.40855467 5.2632685 -1.7713214
-0.66126955 5.2321405 -1.7695299
-1.0363574 5.1628313 -1.7668658
-1.1600391 5.13377 -1.7659858
-1.2828906 5.1017585 -1.7651112
-1.4049121 5.0668302 -1.7642417
-1.5259863 5.0289922 -1.7633783
-2.1150489 4.7973208 -1.7591662
-2.3417969 4.685379 -1.75754
-2.4530566 4.6254144 -1.7567407
-2.5627735 4.5628409 -1.7559518
-2.6709082 4.4976945 -1.7551733
-2.9853027 4.2872148 -1.7529055
-3.6083007 4.2426863 -1.8687871
-3.8703418 4.1294599 -1.8990246
-4.2441406 3.7319255 -1.8962948
-4.3314648 3.6272271 -1.8956542
-4.4162693 3.5205169 -1.8950312
-4.7291698 3.0748432 -1.8927203
-4.9351368 2.722578 -1.8911859
-4.9981346 2.6020806 -1.8907136
-5.0582714 2.4801445 -1.8902612
-5.395781 1.5924597 -1.8876759
-5.4647264 1.3299506 -1.8871292
-5.5211816 1.0645477 -1.88667
-5.5446677 0.93094909 -1.8864738
-5.5649805 0.79684693 -1.8862997
-5.5821481 0.66230041 -1.8861479
-5.606904 0.39223021 -1.8859115
-5.6144824 0.25682557 -1.8858273
-5.620039 -0.014271851 -1.8857263
-5.6180077 -0.14985596 -1.8857096
-5.6127734 -0.28533936 -1.8857156
-5.5927148 -0.55576962 -1.8857956
-5.5778809 -0.69055176 -1.8858697
-5.5144043 -1.0923321 -1.8862262
-5.4869041 -1.2251593 -1.8863901
-5.3458104 -1.7489709 -1.8872668
-5.3028321 -1.8776987 -1.8875411
-5.1557422 -2.2574048 -1.8884929
-5.1007519 -2.3815894 -1.8888528
-5.0428514 -2.5044515 -1.8892337
-4.9183302 -2.7459795 -1.8900579
-4.7824121 -2.9814415 -1.8909637
-4.5579295 -3.3221447 -1.8924713
-4.3095508 -3.6463001 -1.894151
-4.2216697 -3.7503843 -1.8947476
-4.0385156 -3.9522557 -1.8959948
-3.8458593 -4.1453233 -1.8973111
-3.7460644 -4.2384262 -1.8979944
-3.5399022 -4.4174738 -1.8994092
-3.4336231 -4.5033202 -1.90014
-3.3252928 -4.5866418 -1.9008859
-3.2149706 -4.6673913 -1.9016464
-3.1026855 -4.7455311 -1.9024214
-2.9885547 -4.8209982 -1.90321
-2.8725879 -4.8937497 -1.9040124
-2.754873 -4.9637589 -1.9048275
-2.0154004 -5.3235693 -1.9099663
-1.7579492 -5.419673 -1.9117622
-1.627461 -5.4631071 -1.9126736
-1.4959375 -5.5034242 -1.9135931
-1.3634082 -5.5406165 -1.9145205
-0.96053708 -5.6329832 -1.9173437
-0.55143553 -5.6962256 -1.9202179
-0.41410154 -5.7107482 -1.9211842
-0.13833985 -5.7298632 -1.9231268
0.1383789 -5.735683 -1.9250793
0.41527343 -5.7281499 -1.9270359
0.55372071 -5.7193694 -1.9280156
0.69180661 -5.7072425 -1.9289932
0.82958984 -5.6917734 -1.9299698
0.96728516 -5.6729646 -1.9309461
1.104414 -5.6508274 -1.9319195
1.6470214 -5.5291429 -1.9357781
2.1763964 -5.3551426 -1.9395555
2.4344921 -5.2489166 -1.941402
2.6873338 -5.1301708 -1.9432144
2.8116112 -5.0661736 -1.9441065
3.0554492 -4.9291034 -1.9458592
3.2925389 -4.7801666 -1.9475671
3.4083495 -4.7013679 -1.948403
3.5222654 -4.61973 -1.9492258
3.6342089 -4.5352969 -1.9500353
3.8518553 -4.3582325 -1.9516125
3.957412 -4.2657204 -1.9523787
4.1617384 -4.0729761 -1.9538653
5.0307517 -2.9702981 -1.9602523
5.2365036 -2.6007586 -1.9617894
5.3583593 -2.3462334 -1.9627078
5.6072168 -1.6859857 -1.9646155
5.7468162 -1.1385058 -1.9657258
5.8158298 -0.72013241 -1.9663086
5.8319335 -0.57966369 -1.9664543
5.8445992 -0.43883544 -1.9665757
5.8537693 -0.29772949 -1.9666727
5.8594627 -0.15640868 -1.9667449
5.8616796 -0.015012817 -1.9667928
5.8603806 0.12640014 -1.9668161
5.8556442 0.2677362 -1.9668149
5.8474021 0.40891296 -1.9667888
5.8356833 0.54984009 -1.9667382
5.8018651 0.83062804 -1.9665633
5.7797556 0.97028625 -1.9664391
5.7252731 1.24773 -1.9661179
5.6929688 1.3853692 -1.9659209
5.6181641 1.6579528 -1.9654549
5.5757713 1.7927551 -1.9651865
5.5300975 1.9264562 -1.9648944
5.481123 2.0589702 -1.9645789
5.3149314 2.4486144 -1.9634942
5.188457 2.7009752 -1.9626586
5.1206055 2.8247044 -1.9622079
5.0497265 2.9467218 -1.9617351
4.9759083 3.0669098 -1.9612416
4.899199 3.1852167 -1.9607269
4.8196192 3.3015735 -1.9601915
4.737236 3.4159117 -1.9596359
4.652041 3.528178 -1.9590601
4.3806152 3.8517292 -1.9572173
4.1869044 4.0557952 -1.9558963
3.9554589 4.220037 -1.9407175
3.7750585 4.2274942 -1.9017007
3.2786131 4.2547441 -1.8022937
3.1645117 4.318284 -1.7963336
2.9501171 4.4622102 -1.7948526
2.84041 4.5301628 -1.7940936
2.729121 4.5953875 -1.7933227
2.6162987 4.657867 -1.7925402
2.1514161 4.8794694 -1.7893085
2.0321484 4.9276614 -1.7884774
1.9117675 4.9729228 -1.7876379
1.7903906 5.0152164 -1.7867904
1.6680859 5.0545268 -1.7859359
1.5449414 5.0908418 -1.7850747
1.1709863 5.1816192 -1.7824551
1.0451269 5.2057805 -1.7815719
0.79202145 5.2448907 -1.7797939
0.66494137 5.2598295 -1.7788999
0.53755856 5.2716827 -1.7780032
0.41003907 5.2804461 -1.7771047
0.15470703 5.2887115 -1.775304
0.02705078 5.2882171 -1.7744026
-0.10046875 5.2846465 -1.7735013
-0.35489258 5.2682939 -1.7717013
-0.48165038 5.2555327 -1.7708035
-0.60796875 5.2397318 -1.7699078
-0.98384762 5.1742268 -1.7672392
-1.107832 5.1464214 -1.7663574
-1.474912 5.045351 -1.7637427
-1.7148925 4.9635038 -1.7620294
-1.9504199 4.8703532 -1.7603452
-2.0663965 4.8196087 -1.759515
-2.1810546 4.7661285 -1.7586932
-2.2943456 4.7099395 -1.7578806
-2.8381543 4.3898063 -1.7539679
-3.0600879 4.2666388 -1.7617459
-3.211416 4.2569513 -1.7892224
-3.3711717 4.2513433 -1.8205265
-3.5365527 4.2453446 -1.8539708
-3.7080467 4.2389326 -1.8896953
-3.926621 4.0742874 -1.8986144
-4.2064548 3.7755804 -1.8965707
-4.380713 3.565882 -1.8952926
-4.4640331 3.458045 -1.8946798
-4.6227636 3.2367041 -1.8935086
-4.6981249 3.1233013 -1.8929507
-4.7707419 3.0081995 -1.8924117
-4.9076462 2.7730913 -1.8913914
-5.0916309 2.4091454 -1.8900094
-5.1471286 2.2851093 -1.8895893
-5.1996384 2.1598206 -1.8891901
-5.2491698 2.0333526 -1.8888115
-5.33917 1.7771204 -1.8881177
-5.3795996 1.6475275 -1.8878027
-5.4169531 1.5170361 -1.8875091
-5.4511814 1.385716 -1.8872375
-5.5351171 0.9875018 -1.8865542
-5.556777 0.85360408 -1.8863705
-5.5906053 0.5844934 -1.8860704
-5.6027341 0.4494293 -1.8859541
-5.61166 0.31409729 -1.8858602
-5.6174021 0.17861572 -1.8857888
-5.6199121 0.043057859 -1.8857402
-5.6192479 -0.092530519 -1.8857139
-5.5480566 -0.90232784 -1.8860319
-5.40167 -1.5641695 -1.8869146
-5.2766404 -1.9515426 -1.887709
-5.0676951 -2.4526596 -1.88907
-5.0080957 -2.5747335 -1.8894632
-4.9455857 -2.6954105 -1.889877
-4.8802538 -2.81458 -1.8903111
-4.8120799 -2.9321954 -1.8907657
-4.5910449 -3.2750711 -1.8922482
-4.1698146 -3.8095062 -1.8951004
-3.9838867 -4.0088925 -1.8963675
-3.8873632 -4.1052594 -1.8970271
-3.5842187 -4.3804178 -1.8991047
-3.4788084 -4.4673314 -1.899829
-3.3713477 -4.5517216 -1.9005688
-3.2618554 -4.6335654 -1.9013232
-3.1503906 -4.7128129 -1.902092
-3.0370409 -4.789412 -1.9028748
-2.4438672 -5.1311502 -1.9069852
-2.3204198 -5.1909471 -1.9078431
-2.0692089 -5.3016911 -1.9095917
-1.9416211 -5.3525591 -1.9104807
-1.4195312 -5.5252709 -1.9141276
-1.0177344 -5.621716 -1.9169426
-0.88226563 -5.6474323 -1.9178931
-0.60950196 -5.689096 -1.9198096
-0.19670898 -5.7269278 -1.9227154
0.21828124 -5.7348828 -1.9256436
0.49521482 -5.7234874 -1.9276016
0.63344723 -5.7127771 -1.9285799
0.77153319 -5.6987238 -1.929558
0.90920895 -5.6813264 -1.930534
1.1833301 -5.6365376 -1.9324799
1.3196191 -5.6091614 -1.9334483
1.5901953 -5.5444994 -1.9353735
1.724375 -5.5072355 -1.9363292
1.8576465 -5.466713 -1.9372796
2.6343455 -5.1563072 -1.9428344
2.759248 -5.0936065 -1.9437305
2.8826268 -5.0278482 -1.9446166
3.0044434 -4.9590769 -1.9454921
3.1245995 -4.8873172 -1.9463571
3.2430174 -4.8126254 -1.9472102
3.3596289 -4.7350359 -1.9480511
3.4743359 -4.6545916 -1.9488794
3.5871289 -4.5713348 -1.9496948
3.8065429 -4.3965588 -1.9512838
3.9130664 -4.3051553 -1.9520569
4.017324 -4.2111411 -1.9528143
4.1193261 -4.1145639 -1.9535564
4.218955 -4.0154877 -1.9542825
4.4108982 -3.8100307 -1.9556847
4.5030761 -3.7037933 -1.9563595
4.592627 -3.5953009 -1.9570166
4.6795702 -3.4845951 -1.9576559
4.7637892 -3.3717587 -1.958276
4.9995995 -3.0211039 -1.9600209
5.0724316 -2.9004166 -1.9605627
5.1423044 -2.7779453 -1.9610839
5.2091308 -2.6537607 -1.9615841
5.3911915 -2.2716815 -1.9629567
5.5446582 -1.8769927 -1.9641302
5.6306639 -1.6078945 -1.9647988
5.6686816 -1.4718182 -1.9650983
5.7346191 -1.1970092 -1.9656264
5.786963 -0.91919249 -1.9660592
5.8079686 -0.7793951 -1.9662395
5.8574901 -0.21616821 -1.9667175
5.8613672 0.06661316 -1.9668094
5.8410645 0.49029112 -1.9667625
5.8273339 0.63105953 -1.9666978
5.7895312 0.91130489 -1.9664947
5.7070508 1.3272601 -1.9660072
5.6727438 1.4644134 -1.9657961
5.6350975 1.6006445 -1.9655615
5.5022264 2.003089 -1.9647151
5.4513769 2.1349072 -1.9643861
5.3973341 2.2653856 -1.9640344
5.3400879 2.3944726 -1.9636595
5.279707 2.5220897 -1.9632623
5.2162108 2.6481524 -1.9628427
5.0800586 2.895354 -1.9619378
5.0074902 3.0163183 -1.9614528
4.9319921 3.1354289 -1.960947
4.7724118 3.3678191 -1.9598733
4.6016603 3.5919909 -1.9587188
4.4203029 3.8073699 -1.9574875
4.3257322 3.9116094 -1.9568435
4.0273142 4.209805 -1.9548043
3.8504393 4.224401 -1.917879
3.2089453 4.2865105 -1.7966399
2.995996 4.4326653 -1.7951699
2.7763574 4.5681438 -1.7936499
2.6641893 4.631784 -1.7928725
2.5505371 4.6926532 -1.792084
1.8418359 4.9976935 -1.7871497
1.5970995 5.0758548 -1.7854396
1.4734863 5.1104231 -1.7845745
1.3491015 5.1419754 -1.7837036
1.2240527 5.1704841 -1.7828271
1.098418 5.1959381 -1.7819461
0.8456738 5.237648 -1.7801712
0.33636719 5.2840986 -1.7765857
0.20868164 5.2879934 -1.775685
0.081015624 5.2888007 -1.7747837
-0.046582032 5.2865324 -1.7738824
-0.68069333 5.2292337 -1.769392
-0.80623043 5.2086639 -1.7685009
-0.93122071 5.185092 -1.7676132
-1.055498 5.1585407 -1.7667296
-1.3017871 5.0965595 -1.7649766
-1.4236621 5.0611835 -1.7641079
-1.5445898 5.0229068 -1.7632455
-1.9010351 4.890976 -1.7606988
-2.1327147 4.789073 -1.7590398
-2.2466114 4.7340202 -1.7582229
-2.470078 4.6159296 -1.7566183
-2.5795703 4.5529547 -1.7558308
-2.6874511 4.4874163 -1.755054
-2.7974999 4.4253435 -1.7566677
-3.0010741 4.2757916 -1.7527915
-3.3029492 4.2537613 -1.8070388
-3.4658885 4.2479315 -1.8395573
-3.7865136 4.2089114 -1.8996347
-3.8854785 4.1147771 -1.8989145
-3.9821191 4.0183563 -1.89821
-4.0764256 3.9197013 -1.8975217
-4.5109277 3.3949335 -1.8943343
-4.8796387 2.8233228 -1.8916006
-4.9450583 2.7040832 -1.8911117
-5.067256 2.4612207 -1.8901935
-5.1239939 2.3377118 -1.8897647
-5.177793 2.2129419 -1.8893564
-5.2285938 2.0869653 -1.8889691
-5.2763963 1.9598438 -1.8886026
-5.3211718 1.8316504 -1.8882571
-5.3628907 1.7024597 -1.887933
-5.4370899 1.441336 -1.8873498
-5.4695215 1.3095739 -1.8870907
-5.6082811 0.37135619 -1.8858972
-5.6153612 0.23594727 -1.8858163
-5.6192384 0.10038513 -1.885758
-5.6199412 -0.035201415 -1.8857222
-5.61167 -0.30623168 -1.8857187
-5.6027441 -0.44152281 -1.885751
-5.5753026 -0.7113269 -1.8858831
-5.5568357 -0.84566468 -1.8859829
-5.5351658 -0.97953004 -1.8861053
-5.4170799 -1.508909 -1.8868185
-5.3393846 -1.7688959 -1.8873076
-5.1999512 -2.1514244 -1.8882051
-5.0920215 -2.4006314 -1.8889102
-5.0336423 -2.5232861 -1.8892944
-4.972373 -2.644551 -1.8896993
-4.8412499 -2.8826582 -1.890571
-4.698945 -3.1143854 -1.8915228
-4.6236815 -3.2276931 -1.8920285
-4.545742 -3.339222 -1.8925533
-4.3819141 -3.5566921 -1.8936604
-4.2961621 -3.6624904 -1.8942417
-4.207881 -3.7662597 -1.8948414
-4.1171775 -3.8679292 -1.8954586
-4.023994 -3.9674566 -1.8960938
-3.9284472 -4.0647888 -1.8967462
-3.8305957 -4.1598415 -1.8974155
-3.4170702 -4.5163317 -1.9002539
-3.3083887 -4.5992742 -1.9010024
-2.8545411 -4.9047294 -1.9041373
-2.6168749 -5.0410752 -1.9057842
-2.4955957 -5.1049905 -1.9066257
-2.3728027 -5.166019 -1.9074789
-2.2485156 -5.2241244 -1.9083432
-2.1227832 -5.2792683 -1.9092184
-1.8674023 -5.3805327 -1.9109985
-1.4755371 -5.5093708 -1.9137357
-1.2092285 -5.5795641 -1.9156001
-0.80375975 -5.6607947 -1.9184443
-0.25506836 -5.7233963 -1.922304
-0.11698242 -5.7307878 -1.9232775
0.021318359 -5.7348499 -1.9242529
0.43662107 -5.7270141 -1.927187
0.57501954 -5.7177148 -1.9281665
0.71298826 -5.70507 -1.9291433
0.85095704 -5.6890903 -1.9301211
0.98844725 -5.6697702 -1.9310963
1.125537 -5.6471171 -1.9320693
1.2620605 -5.62114 -1.9330392
1.397998 -5.591856 -1.9340057
1.5332519 -5.559267 -1.9349682
1.6677344 -5.5233936 -1.9359257
1.8013574 -5.484252 -1.9368782
1.934121 -5.441854 -1.9378253
2.4541795 -5.2402072 -1.941543
2.5811133 -5.1818919 -1.9424525
2.8306541 -5.0560226 -1.9442431
2.9531446 -4.988523 -1.9451234
3.3105469 -4.7681928 -1.947697
3.9735057 -4.2512097 -1.9524957
4.1771193 -4.0576825 -1.9539776
4.2753415 -3.9571812 -1.9546939
4.3711329 -3.8542726 -1.9553937
4.4644041 -3.748992 -1.9560763
4.5550976 -3.641438 -1.956741
4.6431737 -3.5316591 -1.9573879
4.8111329 -3.3056884 -1.9586254
4.8909473 -3.1896193 -1.9592154
5.0420213 -2.9516683 -1.9603362
5.1812501 -2.7064724 -1.9613751
5.3672462 -2.3263423 -1.9627751
5.4754977 -2.0656192 -1.9635988
5.5708203 -1.7997888 -1.9643323
5.6530175 -1.5294698 -1.9649743
5.7770214 -0.97815979 -1.9659756
5.8341308 -0.5579474 -1.9664749
5.8548827 -0.27592835 -1.9666853
5.8600192 -0.13461243 -1.966754
5.8599024 0.14822388 -1.9668176
5.8458104 0.43068603 -1.9667825
5.8335643 0.57156795 -1.9667282
5.8178611 0.71212524 -1.9666494
5.7986522 0.85222107 -1.9665457
5.7760448 0.99179441 -1.9664178
5.74999 1.1307586 -1.9662656
5.7205272 1.2690265 -1.9660891
5.6876559 1.4065155 -1.9658884
5.6514454 1.5431573 -1.9656637
5.5689354 1.8134692 -1.9651427
5.4732714 2.0793133 -1.9645282
5.4205761 2.2103589 -1.964186
5.305625 2.4683161 -1.963433
5.178164 2.7201812 -1.9625905
5.1098533 2.8436491 -1.9621365
5.0385251 2.9653716 -1.9616606
4.9642577 3.0852971 -1.9611634
4.5504103 3.6550677 -1.9583713
4.2700095 3.9706891 -1.9564636
4.1715331 4.0711455 -1.9557912
3.9271386 4.2212214 -1.9345232
3.5752635 4.2355118 -1.8597835
3.2561426 4.2582917 -1.7986465
3.1482325 4.3297563 -1.7962213
2.9332812 4.4728727 -1.7947363
2.8233299 4.5404072 -1.7939752
2.711787 4.6052103 -1.7932025
2.5987597 4.6672478 -1.7924185
-3.083662 -4.2781358 -1.9026623
-2.9806738 -4.3529058 -1.9033724
-2.8758788 -4.4252276 -1.9040958
-2.7693748 -4.4950585 -1.9048318
-2.6611621 -4.5623527 -1.9055808
-2.5513377 -4.6270704 -1.9063412
-2.32708 -4.7486219 -1.907897
-2.2127538 -4.8053794 -1.9086912
-2.0970898 -4.8594098 -1.9094957
-1.7424316 -5.0048108 -1.9119663
-1.6218945 -5.0476098 -1.9128076
-1.3777539 -5.1245337 -1.9145139
-1.2542871 -5.158607 -1.915378
-1.1300098 -5.1897235 -1.9162483
-0.75275391 -5.2651172 -1.9188946
-0.49839842 -5.3002329 -1.9206827
-0.11394531 -5.3299041 -1.9233902
0.014677734 -5.3336172 -1.9242976
0.40092772 -5.3261333 -1.9270263
0.65797848 -5.3056016 -1.9288461
0.91398436 -5.272645 -1.930661
2.2763281 -4.8727055 -1.940371
2.5109081 -4.7613578 -1.9420527
2.6261621 -4.7013993 -1.9428802
2.7399609 -4.6386275 -1.943698
2.8522558 -4.5730777 -1.9445057
2.9629588 -4.5047851 -1.945303
3.0720117 -4.4337883 -1.9460891
3.2849121 -4.2838316 -1.9476265
3.3886034 -4.2049565 -1.9483765
3.7835643 -3.864552 -1.9512427
3.8770213 -3.7734749 -1.9519235
4.2281542 -3.3867736 -1.9544907
4.3892579 -3.1808162 -1.9556754
4.4659958 -3.0748911 -1.9562411
4.9827051 -2.16539 -1.9600967
5.1291699 -1.8004137 -1.9612141
5.1719728 -1.6764364 -1.9615444
5.2117381 -1.5514224 -1.9618537
5.2484274 -1.4254456 -1.9621414
5.281992 -1.2985932 -1.9624075
5.3124509 -1.1709374 -1.9626516
5.3397555 -1.0425549 -1.9628737
2.6739745 -0.064001463 -0.96500564
5.364697 0.91582763 -1.9634962
5.3406544 1.0449078 -1.9633558
5.313457 1.1733483 -1.9631932
5.2831054 1.3010693 -1.963008
5.213037 1.5540363 -1.9625709
5.1306443 1.8031908 -1.9620459
4.9843845 2.1684532 -1.9610964
4.9297071 2.2876482 -1.9607376
4.8721681 2.4054456 -1.9603583
4.8117185 2.5217657 -1.9599582
4.7484765 2.6365471 -1.9595376
4.5421581 2.9709461 -1.9581572
4.3913083 3.184926 -1.9571408
4.3120017 3.2890332 -1.9566046
4.145957 3.4911833 -1.9554782
4.0592771 3.5891047 -1.9548886
3.7854784 3.8695598 -1.9530195
3.4921191 4.1289248 -1.9510074
3.2369335 4.2247281 -1.9201788
3.0824609 4.230783 -1.8885708
2.9328125 4.2364569 -1.8589703
2.7875586 4.2417741 -1.8312533
2.6473339 4.2482429 -1.8059398
2.5241406 4.2771268 -1.7918029
2.4193456 4.3350101 -1.7910762
2.2055175 4.4429741 -1.7895911
1.8760253 4.5849504 -1.7872969
1.6512402 4.6660037 -1.7857285
1.5375195 4.7023892 -1.7849337
1.1918163 4.7947526 -1.7825139
1.0753027 4.8198981 -1.781697
0.95824218 4.8422027 -1.7808756
0.72290039 4.8782549 -1.7792222
0.60473633 4.8919902 -1.7783911
0.48632812 4.9028559 -1.7775574
0.24902344 4.915977 -1.775885
-0.10701171 4.9141412 -1.7733706
-0.46142578 4.8866143 -1.7708621
-0.92841792 4.8103909 -1.7675476
-1.0437109 4.7843719 -1.7667276
-1.158291 4.7556024 -1.7659122
-1.2720996 4.7241058 -1.7651013
-1.9350586 4.4791327 -1.7603647
-2.3574023 4.2713838 -1.760181
-2.4858985 4.2579803 -1.7788589
-2.6229491 4.2536783 -1.8029799
-2.7637792 4.2490678 -1.8287653
-2.9086523 4.2441387 -1.8563113
-3.1896093 4.2038641 -1.9038479
-3.3861425 4.0420904 -1.9024234
-3.5745897 3.8712664 -1.9010539
-3.75458 3.6917877 -1.8997421
-3.9256933 3.5040796 -1.8984911
-4.0875778 3.308573 -1.8973037
-4.239902 3.10572 -1.8961819
-4.3823338 2.8959868 -1.8951285
-4.5145798 2.6798394 -1.8941455
-4.6363573 2.4577734 -1.893235
-4.6932421 2.3446796 -1.8928076
-4.8475194 1.9979004 -1.8916392
-4.9364648 1.7611212 -1.8909572
-4.9766989 1.6412463 -1.8906459
-5.0140624 1.5204779 -1.8903544
-5.1088767 1.1534271 -1.8896013
-5.1942577 0.65553647 -1.8888851
-5.2191892 0.40417358 -1.8886517
-5.2322068 0.15194336 -1.8885025
-5.2342286 0.025670165 -1.8884594
-5.2332716 -0.10061035 -1.8884372
-5.2292967 -0.22682677 -1.8884366
-5.222373 -0.35292053 -1.8884567
-5.1995506 -0.60444337 -1.8885604
-5.1836915 -0.72973877 -1.8886439
-5.1648436 -0.85463011 -1.8887484
-5.090703 -1.2261865 -1.8891872
-5.0601463 -1.3487786 -1.889375
-4.9511619 -1.7118032 -1.8900617
-4.9091306 -1.8310062 -1.8903314
-4.8642774 -1.9492053 -1.8906212
-4.8166208 -2.0663271 -1.890931
-4.7661815 -2.1823041 -1.8912605
-4.5985742 -2.5227485 -1.8923663
-4.5373535 -2.6335166 -1.8927734
-4.4070897 -2.8506234 -1.8936435
-4.1925778 -3.1642766 -1.8950866
-3.9561229 -3.4621129 -1.8966882
-3.8725975 -3.5576112 -1.8972561
-3.7868066 -3.6511192 -1.8978407
-3.6987987 -3.7425988 -1.8984413
-3.608623 -3.8319869 -1.8990576
-3.5162792 -3.9192297 -1.8996896
-3.4218652 -4.0042853 -1.9003369
-3.2270019 -4.167613 -1.9016753
-3.1266699 -4.2457905 -1.902366
-3.0244434 -4.3215837 -1.9030704
-2.5979784 -4.6000214 -1.906018
-2.487246 -4.6632304 -1.9067855
-2.375 -4.7238092 -1.9075644
-2.146162 -4.8368979 -1.9091543
-1.912002 -4.939002 -1.9107842
-1.672998 -5.0298605 -1.912451
-1.5518554 -5.0710015 -1.9132969
-1.4297071 -5.109242 -1.9141506
-1.3066015 -5.1445575 -1.9150118
-0.93243164 -5.232738 -1.9176337
-0.55232424 -5.2938251 -1.9203033
-0.29662108 -5.3192863 -1.9221029
-0.16829102 -5.3274016 -1.9230071
-0.039716795 -5.3324242 -1.9239138
0.21772461 -5.3331652 -1.9257313
0.34649414 -5.3288794 -1.9266415
0.47516599 -5.3214841 -1.9275515
0.73198241 -5.2973642 -1.9293704
0.98757809 -5.2608314 -1.9311835
1.1147363 -5.2379236 -1.9320863
1.492666 -5.1507521 -1.9347748
1.6172363 -5.1155906 -1.9356622
1.7409766 -5.0774016 -1.9365444
2.4617577 -4.7858572 -1.9417001
2.5775878 -4.7270989 -1.9425313
2.8049512 -4.601131 -1.9441653
2.9163475 -4.5339985 -1.9449672
3.3449805 -4.2386222 -1.9480609
4.1075778 -3.5283008 -1.9536071
4.192822 -3.4292758 -1.9542316
4.5091209 -3.0129006 -1.9565597
4.581748 -2.9040411 -1.9570974
4.6517091 -2.793402 -1.9576166
4.7189646 -2.6810584 -1.958117
4.8451266 -2.4514949 -1.9590601
4.9039645 -2.3344226 -1.9595022
4.9599218 -2.2159176 -1.9599242
5.012959 -2.0960457 -1.9603262
5.1101561 -1.852514 -1.9610679
5.1542478 -1.728992 -1.9614074
5.1953025 -1.6044058 -1.9617257
5.2681737 -1.3523376 -1.9622977
5.3285937 -1.0969244 -1.9627825
5.3540821 -0.96816224 -1.962992
2.6651366 -0.15544555 -0.96317267
2.6792674 0.10252807 -0.96734703
5.3512106 0.99039978 -1.9634179
5.2963085 1.2471515 -1.963089
5.2641602 1.3744202 -1.9628909
5.2288866 1.5008508 -1.9626706
5.1490917 1.75086 -1.9621643
5.0570993 1.9965844 -1.9615709
4.7755566 2.5882037 -1.9597179
4.7106934 2.7020659 -1.9592859
4.5727344 2.9247594 -1.9583623
4.4996972 3.0334613 -1.9578717
4.4240527 3.1403167 -1.9573617
4.2650976 3.3482103 -1.956287
4.1818848 3.4491363 -1.9557223
4.0962305 3.5479631 -1.9551402
4.0082226 3.6446307 -1.954541
3.8252831 3.8312738 -1.9532915
3.7305174 3.9211333 -1.952643
3.6335838 4.0086274 -1.9519787
3.433584 4.1762881 -1.9506048
3.3037791 4.2220502 -1.9341812
2.9955468 4.2341008 -1.8712493
2.8484666 4.2395673 -1.8427508
2.7056346 4.244688 -1.81607
2.2511132 4.4210248 -1.7899081
2.1429002 4.4721675 -1.7891555
1.811543 4.6094708 -1.7868474
1.699082 4.6497869 -1.7860626
1.3565527 4.7540998 -1.7836677
1.2409179 4.7832661 -1.7828579
1.1246094 4.8096137 -1.7820429
0.89050782 4.8537812 -1.7804
0.77280271 4.8715887 -1.779573
0.41789061 4.9078169 -1.7770752
0.29920897 4.9141569 -1.7762389
-0.41164061 4.8920426 -1.7712148
-0.64653319 4.861917 -1.7695495
-0.76328123 4.8426347 -1.7687209
-0.87945312 4.8205609 -1.7678958
-0.99503905 4.7957096 -1.7670738
-1.1099218 4.7681036 -1.7662563
-1.2240624 4.7377558 -1.7654436
-1.3374023 4.7046919 -1.7646359
-1.6718457 4.589438 -1.7622482
-1.8895996 4.4994707 -1.7606902
-1.9967284 4.4506378 -1.7599227
-2.1025391 4.3992691 -1.759164
-2.2071874 4.3454132 -1.7584127
-2.31041 4.2890873 -1.7576711
-2.5645604 4.2555327 -1.7925836
-2.7037694 4.2510529 -1.8176532
-2.846875 4.2462626 -1.8444421
-2.9942186 4.2411394 -1.8730557
-3.3452344 4.0770597 -1.90272
-3.4413769 3.9937079 -1.9020224
-3.8902636 3.5444336 -1.8987505
-3.9733789 3.4484394 -1.8981421
-4.0541306 3.3505363 -1.8975494
-4.2085156 3.1491954 -1.8964133
-4.2820215 3.0458825 -1.8958709
-4.3530564 2.9408789 -1.8953454
-4.5508103 2.6163445 -1.8938751
-4.6114941 2.5051904 -1.8934213
-4.6695018 2.3926599 -1.8929861
-4.7774315 2.1637104 -1.8921719
-4.918613 1.811524 -1.8910949
-4.9600391 1.6920477 -1.8907751
-5.0970898 1.2055475 -1.8896965
-5.1692872 0.8335284 -1.889102
-5.1874804 0.7085095 -1.888945
-5.2149119 0.45740598 -1.8886942
-5.2337303 0.079068601 -1.8884749
-5.2340331 -0.047217406 -1.8884442
-5.2256641 -0.29962403 -1.8884455
-5.2170115 -0.42561278 -1.888478
-5.190742 -0.67680418 -1.8886062
-5.1526365 -0.92650145 -1.8888183
-5.0411911 -1.4191906 -1.8894928
-4.9680858 -1.6611072 -1.8899539
-4.883584 -1.8993511 -1.8904961
-4.7878513 -2.1334076 -1.8911188
-4.7358594 -2.248692 -1.8914596
-4.6811032 -2.3627427 -1.8918202
-4.5635743 -2.5868506 -1.8925989
-4.1487598 -3.2228525 -1.8953826
-4.0709276 -3.3229229 -1.8959094
-3.9081836 -3.5174718 -1.8970141
-3.7362792 -3.7041717 -1.8981854
-3.4620507 -3.9685898 -1.9000611
-3.3664453 -4.0523567 -1.9007171
-3.1693456 -4.2130213 -1.9020721
-2.5342674 -4.6368256 -1.9064596
-2.4226465 -4.6985168 -1.9072336
-1.7238965 -5.0115976 -1.9120958
-1.6032031 -5.0539575 -1.9129382
-1.4814745 -5.0934262 -1.9137887
-1.3587695 -5.1299834 -1.9146469
-1.235166 -5.1636009 -1.9155117
-1.1107422 -5.194262 -1.9163833
-0.9855566 -5.2219367 -1.9172606
-0.73320311 -5.2682581 -1.919032
-0.6061914 -5.2868748 -1.9199246
0.16326171 -5.3340473 -1.9253466
0.67778319 -5.3035007 -1.9289863
1.0610352 -5.2479858 -1.931705
1.4397753 -5.1647096 -1.9343978
1.5646679 -5.1308274 -1.9352875
1.8119824 -5.0539908 -1.9370513
1.934248 -5.0110655 -1.9379241
2.1756346 -4.9163074 -1.9396502
2.4123437 -4.809844 -1.9413458
2.7574022 -4.6286964 -1.9438233
2.8694432 -4.5627203 -1.9446294
3.1957421 -4.3485179 -1.946982
3.3010156 -4.2718277 -1.9477428
3.4044139 -4.1925626 -1.948491
3.505908 -4.1107574 -1.9492264
3.6053808 -4.026474 -1.9499477
3.7028027 -3.93976 -1.9506555
3.798125 -3.8506539 -1.9513488
3.8912499 -3.7592192 -1.9520272
3.9821875 -3.6654894 -1.9526907
4.0708008 -3.569531 -1.953338
4.2409177 -3.3711779 -1.9545845
4.5513673 -2.9502926 -1.9568722
4.6908493 -2.7287633 -1.9579077
4.8193846 -2.5005541 -1.9588672
4.9365916 -2.2661984 -1.9597481
4.990869 -2.1469011 -1.9601587
5.0422168 -2.0262694 -1.9605485
5.1359863 -1.7813625 -1.9612664
5.1783204 -1.6572104 -1.9615936
5.2176075 -1.5320468 -1.9618996
5.2537985 -1.405938 -1.962184
5.3436913 -1.0226947 -1.962906
5.3673239 -0.89356321 -1.9631023
2.6776171 -0.11878784 -0.96699393
2.6768165 0.075093381 -0.96613503
5.3611817 0.93578488 -1.9634759
5.3366599 1.0647675 -1.9633322
5.3089938 1.1930951 -1.9631661
5.2781444 1.3207037 -1.9629774
5.2441602 1.4474932 -1.9627664
5.1669726 1.698338 -1.9622784
4.9761329 2.1869276 -1.9610424
4.8021383 2.539577 -1.9598944
4.7384667 2.6541193 -1.9594707
4.5309081 2.9877198 -1.9580816
4.4563575 3.0953565 -1.9575797
4.3792186 3.2011077 -1.9570593
4.299541 3.3049192 -1.9565203
4.2173729 3.4067078 -1.9559634
4.1327343 3.5064251 -1.9553884
4.0457029 3.6040192 -1.9547962
3.6748145 3.9719195 -1.9522614
3.0590723 4.2316813 -1.883876
2.6271875 4.2511053 -1.8029884
2.5080664 4.2862239 -1.7916914
2.4029198 4.3437161 -1.7909622
2.2965624 4.398603 -1.7902236
2.1888378 4.4508634 -1.7894751
2.0799217 4.5004668 -1.7887173
1.9699218 4.5473833 -1.7879514
1.8588378 4.5915937 -1.7871771
1.6337695 4.6717987 -1.7856061
1.4052539 4.7409196 -1.7840087
1.2898926 4.7712812 -1.783201
1.1738671 4.79882 -1.7823882
1.0572754 4.8235273 -1.7815707
0.82261717 4.8644061 -1.7799231
0.46802732 4.904274 -1.7774285
0.11197265 4.918323 -1.7749178
-0.0067089843 4.9172673 -1.7740796
-0.24363281 4.9065838 -1.7724044
-0.47958007 4.8845062 -1.7707334
-0.59701169 4.8692241 -1.7699008
-0.71395504 4.851131 -1.769071
-0.83040035 4.8302326 -1.768244
-0.9462207 4.8065567 -1.7674209
-1.0614258 4.7801142 -1.7666016
-1.1759082 4.7509208 -1.7657866
-1.2895703 4.7190056 -1.7649767
-1.4024023 4.6843867 -1.7641722
-1.5143261 4.6470842 -1.7633734
-1.6252539 4.6071296 -1.7625811
-1.8439453 4.5193558 -1.7610171
-2.1630762 4.3684869 -1.7587295
-2.2668457 4.3132048 -1.7579843
-2.6444335 4.252984 -1.8068475
-2.7858593 4.2483282 -1.8328983
-2.9313672 4.2433467 -1.8607254
-3.3040037 4.1116242 -1.9030191
-3.4959178 3.9445782 -1.9016261
-3.588789 3.8577228 -1.9009506
-3.6795311 3.7687128 -1.9002895
-3.7680957 3.677597 -1.8996435
-3.8544238 3.5844336 -1.8990127
-3.9385059 3.4892747 -1.8983972
-4.099668 3.2931805 -1.8972148
-4.2512498 3.0897777 -1.8960983
-4.3233299 2.9854846 -1.8955654
-4.3929005 2.8795269 -1.89505
-4.4599218 2.7719896 -1.8945525
-4.5861716 2.5523627 -1.893611
-4.8065524 2.0967369 -1.891951
-4.854785 1.9797894 -1.8915838
-4.9002442 1.8617462 -1.8912359
-4.9428611 1.7426904 -1.8909079
-5.0195899 1.5017669 -1.8903112
-5.0847754 1.2575623 -1.8897953
-5.1130176 1.1343836 -1.8895679
-5.1966114 0.6361804 -1.888864
-5.2101073 0.51059628 -1.8887402
-5.2206249 0.38474122 -1.8886372
-5.2281637 0.25866455 -1.8885553
-5.2342772 0.0061883545 -1.8884546
-5.232832 -0.12009399 -1.888436
-5.2284179 -0.24629454 -1.8884383
-5.221035 -0.37235838 -1.8884616
-5.2106442 -0.49822325 -1.8885063
-5.1972947 -0.62380189 -1.8885721
-5.1616797 -0.87385982 -1.8887664
-5.1394529 -0.99819577 -1.888895
-5.1142869 -1.1219769 -1.8890444
-5.0551658 -1.3676232 -1.889406
-4.9448533 -1.7302551 -1.8901021
-4.9023829 -1.8493087 -1.8903749
-4.8090234 -2.0842922 -1.8909805
-4.6483006 -2.427969 -1.892037
-4.5276856 -2.6504812 -1.8928378
-4.4634471 -2.7595606 -1.8932664
-4.3966017 -2.8671172 -1.893714
-4.255322 -3.0773842 -1.8946635
-4.024951 -3.3798409 -1.8962209
-3.9433789 -3.4769757 -1.8967749
-3.6850097 -3.7565296 -1.8985354
-3.5944922 -3.845587 -1.8991543
-3.407119 -4.0172119 -1.9004382
-3.3103807 -4.0996652 -1.9011023
-3.2116504 -4.1798315 -1.901781
-3.0085156 -4.3330607 -1.9031802
-2.9042187 -4.4060497 -1.9039001
-2.6903906 -4.5445285 -1.9053783
-2.4700196 -4.6727524 -1.9069048
-2.2436132 -4.7904062 -1.9084767
-2.1282811 -4.8451667 -1.9092785
-2.011621 -4.8971844 -1.9100903
-1.8937206 -4.9464159 -1.9109116
-1.7745898 -4.9928308 -1.9117421
-1.654375 -5.0363955 -1.9125808
-1.5330664 -5.0770917 -1.9134282
-1.4107617 -5.1148825 -1.9142832
-1.2875292 -5.1497478 -1.9151453
-1.0385938 -5.210597 -1.916889
-0.9130078 -5.2365451 -1.9177698
-0.40493163 -5.31002 -1.9213403
-0.1484668 -5.3283777 -1.923147
0.10881836 -5.3343687 -1.9249622
0.3663379 -5.3279428 -1.9267819
0.49499997 -5.320065 -1.9276921
1.1343163 -5.2341146 -1.9322255
1.2608398 -5.2076511 -1.9331249
1.3867383 -5.1781163 -1.9340205
1.5119433 -5.1455264 -1.9349121
1.7599902 -5.0712399 -1.9366802
1.882666 -5.0295806 -1.9375558
2.0043554 -4.984931 -1.9384253
2.3627245 -4.8333173 -1.9409901
2.479707 -4.7769785 -1.9418288
2.5953319 -4.717783 -1.9426587
2.7095506 -4.6557617 -1.9434794
2.8222656 -4.5909572 -1.9442898
2.9333887 -4.523397 -1.9450899
3.0428905 -4.4531164 -1.945879
3.1506932 -4.3801661 -1.9466567
3.2567382 -4.3045707 -1.9474229
3.4632127 -4.1456561 -1.9489169
3.5635741 -4.0624094 -1.9496444
3.661875 -3.9767177 -1.9503579
3.7580762 -3.8886187 -1.9510574
3.8521092 -3.7981668 -1.9517419
3.9440234 -3.7053933 -1.952412
4.0335937 -3.6103766 -1.9530661
4.1208787 -3.51316 -1.9537045
4.2057614 -3.4138119 -1.9543264
4.3682127 -3.2089319 -1.9555203
4.5927148 -2.8870831 -1.9571786
4.6622653 -2.7761807 -1.957695
4.7931347 -2.5493305 -1.9586706
4.9682713 -2.1975067 -1.9599874
5.0705175 -1.95608 -1.9607644
5.1607809 -1.7098407 -1.9614577
5.3045797 -1.2052906 -1.9625882
5.3327441 -1.0771008 -1.9628162
2.6696289 -0.14573792 -0.96459728
2.677959 -0.081459351 -0.96661359
2.6678612 0.04760864 -0.96267807
5.3706055 0.88105953 -1.9635299
5.3474216 1.010307 -1.9633956
5.2915525 1.2668383 -1.9630598
5.2589254 1.3939874 -1.9628584
5.2231541 1.5202709 -1.9626346
5.1424122 1.7699798 -1.9621215
5.0495019 2.015348 -1.9615214
4.9985743 2.136214 -1.9611895
4.9446974 2.2557678 -1.9608362
4.8879004 2.3739538 -1.9604621
4.7657323 2.6058764 -1.9596525
4.7004294 2.7194891 -1.9592172
4.1688085 3.4645171 -1.9556336
4.0827928 3.5630145 -1.9550488
3.9037499 3.7534528 -1.9538281
3.8108203 3.8452959 -1.9531927
3.6184568 4.0219111 -1.951875
3.4178221 4.1888089 -1.9504963
3.2792969 4.2230363 -1.9290267
2.4476268 4.3197184 -1.7912723
2.3416991 4.3757157 -1.7905371
2.1261132 4.4798174 -1.7890387
1.9059179 4.5732341 -1.7875053
1.7942578 4.6158671 -1.7867266
1.6816308 4.6557636 -1.7859405
1.5681348 4.6928897 -1.7851478
1.3387598 4.7587848 -1.7835433
1.222998 4.787519 -1.7827325
0.98972654 4.8364935 -1.7810966
0.75459957 4.8740811 -1.7794452
0.39956054 4.9089823 -1.7769464
0.28088868 4.9148784 -1.7761097
-0.075146481 4.9153595 -1.7735958
-0.31187499 4.9013748 -1.7719214
-0.42981446 4.8901215 -1.7710861
-0.66458982 4.8591251 -1.7694215
-0.78123045 4.8394084 -1.7685933
-0.8973242 4.8169084 -1.7677685
-1.0128125 4.7916312 -1.7669473
-1.1275879 4.7635989 -1.7661307
-1.2416112 4.7328315 -1.7653185
-1.7980859 4.5387797 -1.7613451
-2.0131445 4.4428754 -1.759805
-2.2231641 4.3368793 -1.758298
-2.3262305 4.2801814 -1.7575574
-2.4496777 4.2590876 -1.772655
-2.5858006 4.2548599 -1.7963432
-2.8693359 4.2454963 -1.8487341
-3.0173535 4.2403169 -1.8776406
-3.162627 4.2248759 -1.9040432
-3.3602147 4.0643497 -1.9026114
-3.4560156 3.9806488 -1.9019159
-3.5497851 3.8947136 -1.9012344
-3.6414256 3.8066118 -1.9005673
-4.1444139 3.2352135 -1.8968856
-4.2200098 3.1333759 -1.8963287
-4.2931638 3.0297883 -1.8957886
-4.7331347 2.2611401 -1.8925068
-4.8347068 2.0293744 -1.8917367
-4.8813572 1.9117913 -1.8913805
-4.9661622 1.6735327 -1.8907275
-5.0395899 1.4316058 -1.8901541
-5.0719724 1.3094348 -1.8898975
-5.1516113 0.93889219 -1.8892508
-5.2047558 0.56374389 -1.8887899
-5.2165232 0.43798521 -1.8886782
-5.2311425 0.18584472 -1.8885177
-5.2339745 0.059581909 -1.8884689
-5.2338085 -0.066698 -1.8884413
-5.2306638 -0.19293761 -1.8884348
-5.188242 -0.69613099 -1.8886193
-5.1702051 -0.82113159 -1.8887182
-5.149209 -0.94567806 -1.8888382
-5.1252832 -1.0697119 -1.8889788
-5.0984278 -1.1931446 -1.8891402
-5.0359569 -1.4379754 -1.8895254
-5.0004001 -1.5592264 -1.8897488
-4.8296971 -2.0349841 -1.8908457
-4.7800097 -2.1512716 -1.89117
-4.6724219 -2.3802242 -1.8918774
-4.5540624 -2.6039028 -1.8926622
-4.4251661 -2.8218262 -1.8935226
-4.3568649 -2.9284649 -1.8939805
-4.286006 -3.0334857 -1.8944567
-3.9781444 -3.4361348 -1.8965386
-3.8952441 -3.5321627 -1.897102
-3.8100684 -3.6262057 -1.8976822
-3.7226562 -3.7182345 -1.8982785
-3.6330273 -3.8081944 -1.8988906
-3.5412793 -3.8960125 -1.8995184
-3.2536328 -4.1462183 -1.9014922
-2.9485254 -4.3754859 -1.9035941
-2.6274414 -4.5825992 -1.9058142
-2.405293 -4.7078018 -1.9073541
-1.9437305 -4.9259381 -1.910563
-1.8251073 -4.9735518 -1.9113897
-1.7053515 -5.0183225 -1.9122251
-0.96618164 -5.2259388 -1.9173968
-0.84022456 -5.250144 -1.9182806
-0.58655274 -5.2894731 -1.9200625
-0.33102539 -5.3165851 -1.9218606
-0.20277344 -5.3255267 -1.9227641
-0.074287109 -5.3313756 -1.9236701
0.054394528 -5.3341346 -1.924578
0.44061524 -5.3237782 -1.9273071
0.56918943 -5.3141065 -1.9282172
0.82563472 -5.2854414 -1.9300344
1.0806445 -5.2443781 -1.9318441
1.2073926 -5.2192168 -1.9327449
1.3335742 -5.19098 -1.9336423
1.4590918 -5.1596785 -1.9345355
1.830918 -5.0475616 -1.9371862
2.3128612 -4.8562784 -1.9406327
2.6614356 -4.6823287 -1.9431335
2.8865917 -4.5522952 -1.9447528
2.9967871 -4.4831653 -1.9455469
3.4202051 -4.1801014 -1.9486053
3.5213866 -4.0979171 -1.9493384
3.6205566 -4.0132575 -1.950058
3.7176561 -3.926162 -1.9507635
3.8126464 -3.8366902 -1.9514544
4.0842576 -3.5545328 -1.9534365
4.2536621 -3.3555226 -1.9546779
4.4132128 -3.148329 -1.9558519
4.7011523 -2.711391 -1.9579843
4.7663865 -2.5978372 -1.9584707
4.9989939 -2.128365 -1.96022
5.0498829 -2.0075471 -1.9606069
5.2233691 -1.5126501 -1.9619447
5.2917285 -1.2592865 -1.962485
5.3211913 -1.1313885 -1.9627224
5.3475294 -1.0028027 -1.9629376
5.3706837 -0.87359309 -1.9631306
2.6552148 -0.1721344 -0.95997208
2.6788867 -0.10885437 -0.9672966
5.3576169 0.95572144 -1.9634552
5.3326073 1.0846069 -1.9633081
5.3044138 1.2128417 -1.9631383
5.2386618 1.4669861 -1.9627318
5.2011228 1.5927435 -1.9624957
5.1168356 1.8412609 -1.9619571
5.0204587 2.0852544 -1.9613323
4.9678221 2.2053826 -1.9609882
4.9122653 2.3241503 -1.9606228
4.8538084 2.4414954 -1.9602368
4.7925 2.5573559 -1.9598304
4.7283788 2.6716437 -1.9594036
4.6614842 2.7842979 -1.9589571
4.5918651 2.8952625 -1.9584908
4.3670993 3.2172594 -1.9569772
4.2870312 3.3207543 -1.9564356
4.119463 3.5216327 -1.9552981
3.8503904 3.8067412 -1.9534634
3.7561815 3.8972282 -1.9528189
3.6598437 3.9853692 -1.9521588
3.5613964 4.0710869 -1.9514832
3.18875 4.2266397 -1.9102035
3.03583 4.2325702 -1.8792294
2.7435937 4.2433476 -1.8230637
2.6071191 4.2539396 -1.8000628
2.2829688 4.4125471 -1.7924281
1.9528418 4.5543866 -1.7878323
1.8415917 4.598177 -1.7870568
1.6162401 4.6775298 -1.785484
1.5022558 4.7130547 -1.7846872
1.155918 4.8028154 -1.7822622
1.0392284 4.8270841 -1.7814441
0.56820309 4.8956485 -1.778134
0.3311035 4.9127359 -1.7764637
0.21239257 4.9169745 -1.7756265
0.093681641 4.9183455 -1.7747886
-0.024999999 4.9168487 -1.7739505
-0.14354491 4.9124918 -1.7731124
-0.26189452 4.9052863 -1.7722751
-0.61508787 4.8666167 -1.7697726
-0.73196286 4.8480878 -1.7689432
-0.84830076 4.8267608 -1.7681171
-1.0791601 4.7757864 -1.7664753
-1.1934961 4.7461748 -1.7656612
-1.6422851 4.6007304 -1.7624594
-1.7520117 4.5577374 -1.7616749
-1.8606347 4.5121589 -1.7608976
-1.9680957 4.4639969 -1.7601278
-2.0785546 4.4223099 -1.762952
-2.3960936 4.2660894 -1.7653005
-2.5278027 4.2566829 -1.7861304
-2.8080273 4.2475834 -1.8370719
-2.9542284 4.2425494 -1.8651837
-3.1049023 4.2371674 -1.8952078
-3.2204492 4.179512 -1.9036245
-3.4157715 4.016314 -1.9022082
-3.5103905 3.9313202 -1.901521
-3.6933398 3.7547858 -1.9001888
-3.8675683 3.5698814 -1.8989166
-4.0326853 3.3770189 -1.8977069
-4.1117091 3.2777405 -1.8971261
-4.1883397 3.176651 -1.8965621
-4.5340528 2.6459479 -1.8940002
-4.6541896 2.4230218 -1.8931011
-4.7635837 2.1947436 -1.8922768
-4.8141599 2.078769 -1.8918933
-4.9885349 1.6040704 -1.8905538
-5.0250196 1.483042 -1.8902686
-5.0586228 1.3611847 -1.8900036
-5.1419821 0.99143672 -1.8893309
-5.1638966 0.86702633 -1.8891478
-5.1988668 0.61683041 -1.8888437
-5.2274804 -0.2657544 -1.8884405
-5.1781836 -0.76831907 -1.888674
-5.1584473 -0.89307553 -1.8887849
-5.110127 -1.1410302 -1.8890694
-5.0815916 -1.2640917 -1.889243
-5.0157809 -1.5080621 -1.889652
-4.8013573 -2.1022329 -1.8910304
-4.7500782 -2.2178524 -1.8913662
-4.696074 -2.3322351 -1.8917215
-4.5799708 -2.5570803 -1.8924899
-4.5179296 -2.6674037 -1.8929027
-4.3162794 -2.9892774 -1.8942531
-4.2439942 -3.0933363 -1.8947397
-4.1692677 -3.1956677 -1.8952441
-4.0124998 -3.3949578 -1.8963054
-3.9305761 -3.4917922 -1.8968618
-3.8463671 -3.5866776 -1.8974349
-3.671201 -3.770407 -1.8986297
-3.5803418 -3.8591368 -1.8992511
-3.4873533 -3.9457169 -1.8998877
-3.0953221 -4.2694349 -1.902582
-2.8879688 -4.4170895 -1.9040124
-2.7816308 -4.487206 -1.9047471
-2.6736231 -4.5547886 -1.9054943
-2.5639746 -4.6198058 -1.9062536
-2.4527636 -4.68221 -1.9070247
-2.3400586 -4.7419662 -1.9078066
-1.9935156 -4.904964 -1.9102163
-1.8754199 -4.9537597 -1.9110391
-1.7561231 -4.9997358 -1.911871
-1.6357226 -5.0428629 -1.9127111
-1.3918164 -5.1204486 -1.9144156
-1.1442382 -5.186316 -1.9161487
-1.0192578 -5.214797 -1.9170245
-0.89357418 -5.2402768 -1.9179062
-0.76725584 -5.2627378 -1.918793
-0.51298827 -5.2985559 -1.9205801
-0.25706053 -5.3221183 -1.9223815
-0.12864257 -5.3292813 -1.9232867
-5.8593749e-05 -5.3333468 -1.9241937
0.12869141 -5.3343158 -1.9251025
0.38620117 -5.3269272 -1.9269222
0.51484376 -5.3185754 -1.9278325
0.64330077 -5.3071103 -1.9287421
0.89940429 -5.2748618 -1.9305575
1.0268652 -5.2540927 -1.9314624
1.1538574 -5.2302322 -1.9323645
1.2803028 -5.2032976 -1.9332632
1.5311816 -5.1402316 -1.9350491
1.6555176 -5.1041293 -1.935935
1.7789745 -5.0650101 -1.9368157
1.9015039 -5.0228868 -1.9376904
2.023037 -4.9777856 -1.9385589
2.3808594 -4.8248143 -1.9411199
2.4976561 -4.7680311 -1.9419577
2.6130371 -4.7083998 -1.9427859
2.7270312 -4.6459489 -1.9436049
2.8394823 -4.5807171 -1.9444137
3.1671777 -4.3686757 -1.9467758
3.2729199 -4.2926841 -1.9475398
3.5788476 -4.0493498 -1.9497552
3.6768456 -3.9632854 -1.9504669
3.7727439 -3.8748157 -1.9511639
3.8664258 -3.7840126 -1.9518462
4.0472364 -3.5955141 -1.9531659
4.134131 -3.4979689 -1.9538015
4.2186427 -3.3982997 -1.954421
4.3803124 -3.1928074 -1.9556094
4.4573631 -3.0871074 -1.9561774
4.5318065 -2.9794993 -1.9567275
4.6036134 -2.870085 -1.9572595
4.6727538 -2.7589164 -1.9577731
4.7391405 -2.6460564 -1.9582675
4.8027735 -2.5315752 -1.958743
4.9215331 -2.2980003 -1.9596347
4.9765916 -2.1790698 -1.9600505
5.0287204 -2.058799 -1.9604458
5.2443848 -1.4398907 -1.9621097
5.2783298 -1.3131409 -1.9623781
5.3367872 -1.0572747 -1.9628494
2.6760254 -0.071431883 -0.96581268
2.671875 0.057628784 -0.96419758
2.6768944 0.12239624 -0.96679211
5.3672266 0.90103453 -1.9635108
5.3167286 1.158692 -1.9632128
5.2867188 1.2865149 -1.9630302
5.0902634 1.9121435 -1.9617857
5.0418458 2.034076 -1.9614716
4.9361134 2.2740917 -1.9607797
4.7558494 2.6234961 -1.9595867
4.6216502 2.848551 -1.9586904
4.4766502 3.0666258 -1.9577163
4.3212008 3.2772381 -1.9566668
4.1556931 3.4798529 -1.9555444
3.8895605 3.7677617 -1.9537311
3.5036621 4.1194415 -1.9510866
3.4020116 4.2012577 -1.9503875
2.8039551 4.2411809 -1.8343304
2.6623437 4.2462039 -1.8081896
2.2178612 4.437088 -1.7896768
2.1092968 4.4874067 -1.7889218
1.8887597 4.5799861 -1.7873858
1.6641797 4.6616693 -1.7858187
1.5505663 4.6983695 -1.785025
1.4361132 4.7322831 -1.7842245
1.3209473 4.7633991 -1.7834185
1.0886328 4.8171735 -1.7817904
0.97166014 4.839798 -1.7809699
0.73642576 4.8765044 -1.7793173
0.61826169 4.8905621 -1.7784863
0.49986327 4.9017582 -1.7776527
-0.21188477 4.9086771 -1.772629
-0.33009765 4.899826 -1.7717923
-0.56548828 4.8736067 -1.7701243
-0.68258786 4.8562651 -1.7692938
-0.79916012 4.8361235 -1.768466
-1.1452148 4.7590299 -1.7660052
-1.2591406 4.7278461 -1.7651936
-1.3721777 4.6939483 -1.7643877
-1.4843652 4.6573615 -1.7635874
-1.5955566 4.6181192 -1.7627932
-2.0295312 4.4350615 -1.7596874
-2.1350098 4.3829117 -1.7589309
-2.2391601 4.3282928 -1.758183
-2.6071093 4.2541828 -1.8001431
-2.7474999 4.2496099 -1.8257324
-3.5640526 3.8812628 -1.9011307
-3.7445214 3.7022734 -1.8998157
-3.916162 3.5150139 -1.898561
-3.9985449 3.4184294 -1.8979572
-4.0785837 3.3199432 -1.8973697
-4.15624 3.2196198 -1.8967985
-4.3744822 2.9081414 -1.8951868
-4.4421678 2.8010223 -1.8946844
-4.5698142 2.5822027 -1.8937331
-4.6868749 2.3576598 -1.8928555
-4.7413669 2.2434204 -1.8924447
-4.8420897 2.0113056 -1.8916806
-4.88832 1.8935596 -1.8913275
-4.9722362 1.6549859 -1.8906806
-5.0099511 1.5343182 -1.8903866
-5.1318359 1.0439062 -1.8894143
-5.1550097 0.91969663 -1.8892224
-5.1752148 0.79499143 -1.8890513
-5.2341504 0.040101927 -1.8884631
-5.2335157 -0.086177975 -1.8884388
-5.22332 -0.33851135 -1.8884534
-5.2137403 -0.46444947 -1.8884921
-5.2011619 -0.59010983 -1.8885522
-5.1856542 -0.71544003 -1.8886334
-5.1671581 -0.84037781 -1.8887354
-5.1213279 -1.0887817 -1.8890023
-4.9946384 -1.5778588 -1.8897854
-4.9140625 -1.8174462 -1.8902997
-4.8695312 -1.9357578 -1.8905871
-4.822207 -2.0530005 -1.8908944
-4.7192383 -2.2840161 -1.8915689
-4.4148045 -2.8383803 -1.8935919
-4.3461032 -2.9447722 -1.8940527
-4.2748828 -3.0495317 -1.8945318
-4.125 -3.2539265 -1.8955435
-3.965498 -3.4510715 -1.8966246
-3.7089746 -3.7322578 -1.8983716
-3.6190233 -3.8218803 -1.8989865
-3.2383494 -4.1585345 -1.9015973
-3.0362108 -4.3130469 -1.9029893
-2.9323926 -4.3866868 -1.9037057
-1.8067187 -4.9806571 -1.9115179
-1.6867676 -5.0249753 -1.9123547
-1.1968554 -5.1733813 -1.9157799
-0.82073241 -5.2536106 -1.9184173
-0.6940918 -5.2743244 -1.9193068
-0.56689453 -5.2920012 -1.9202009
-0.43926758 -5.3066196 -1.9210986
-0.31125 -5.3181634 -1.9219998
-0.054453123 -5.3320069 -1.9238098
0.074248046 -5.3342848 -1.924718
0.33176756 -5.3295274 -1.9265374
0.58900392 -5.3123355 -1.9283575
0.71731442 -5.2990785 -1.9292663
0.84537107 -5.2827139 -1.9301742
0.9730078 -5.2632513 -1.93108
1.1002148 -5.2406983 -1.9319834
1.2269043 -5.2150607 -1.9328836
1.4783691 -5.1545801 -1.9346728
1.6030566 -5.1197596 -1.9355612
1.7268945 -5.0819149 -1.936444
1.9717675 -4.9972162 -1.9381924
2.0926952 -4.9504037 -1.9390566
2.5644336 -4.7339573 -1.9424368
3.0136523 -4.4722538 -1.9456683
3.1219237 -4.4000173 -1.9464493
3.2284374 -4.3251348 -1.9472183
3.3331249 -4.2476439 -1.9479752
3.635664 -3.9999695 -1.9501678
3.7324414 -3.9125128 -1.9508709
3.9195507 -3.7305324 -1.9522336
4.0097461 -3.6361206 -1.9528918
4.1832032 -3.440697 -1.9541612
4.4250975 -3.1320326 -1.9559393
4.5006542 -3.0252154 -1.9564972
4.5735936 -2.9165659 -1.9570369
4.7762012 -2.5801728 -1.958544
4.838213 -2.4647882 -1.9590081
4.9536719 -2.2295244 -1.9598771
5.007041 -2.1098099 -1.9602811
5.1493649 -1.7431711 -1.9613698
5.1907716 -1.6186858 -1.9616903
5.2291112 -1.4932232 -1.9619898
5.2643456 -1.3668371 -1.9622673
5.296494 -1.2396051 -1.9625231
5.3512692 -0.98293757 -1.9629683
2.6632812 0.15896362 -0.96258134
5.3539548 0.97564632 -1.963434
5.3284669 1.104436 -1.9632833
5.2679977 1.3599261 -1.9629147
5.2330565 1.4864477 -1.9626968
5.1539645 1.7366834 -1.9621955
5.1098337 1.8602411 -1.9619119
5.0626755 1.982677 -1.961607
5.0125389 2.1038823 -1.9612805
4.9034567 2.3423486 -1.9605649
4.8445506 2.4594653 -1.9601756
4.7828026 2.5750835 -1.9597659
4.7182422 2.6891429 -1.9593362
4.4328318 3.1281934 -1.9574212
4.2744336 3.3365521 -1.9563502
4.1915135 3.4377062 -1.9557879
3.9283299 3.7283952 -1.9539959
3.8359861 3.8208623 -1.9533648
3.6447754 3.9987504 -1.9520555
3.4452441 4.1669707 -1.950685
3.164834 4.227581 -1.9052895
2.8650584 4.2389593 -1.8459127
2.7217286 4.2441206 -1.8190314
2.3702831 4.3609357 -1.7907357
1.8243359 4.6046906 -1.7869366
1.3697168 4.7505865 -1.7837601
1.2541602 4.780076 -1.7829508
1.0211816 4.8305769 -1.7813172
0.78625977 4.8696966 -1.7796676
0.31278318 4.9135785 -1.7763345
-0.1618457 4.9115667 -1.7729831
-0.51586914 4.8800945 -1.7704763
-0.63315427 4.8639407 -1.7696444
-0.86622071 4.8232245 -1.7679896
-1.096836 4.7713947 -1.7663496
-1.4370313 4.673161 -1.7639251
-1.6592871 4.5942645 -1.7623379
-1.7688574 4.5508771 -1.7615544
-1.8772851 4.5048919 -1.7607784
-1.9845605 4.4563508 -1.7600099
-2.0905957 4.4052591 -1.7592497
-2.1953027 4.3516898 -1.7584982
-2.298701 4.2956462 -1.7577553
-2.5488575 4.2560234 -1.7898227
-2.6876366 4.2515826 -1.8147
-2.9771776 4.2417412 -1.869691
-3.3341112 4.0864482 -1.9028009
-3.4304783 4.003355 -1.9021014
-3.5248144 3.9180059 -1.9014159
-3.6170115 3.8304803 -1.900745
-3.7070897 3.7408147 -1.9000884
-4.0450292 3.3618138 -1.8976163
-4.1236911 3.26226 -1.8970381
-4.1999607 3.1608973 -1.8964764
-4.2737498 3.0577807 -1.895932
-4.4138575 2.8465052 -1.8948945
-4.4800878 2.7384839 -1.8944024
-4.6046872 2.5179667 -1.8934722
-4.6630273 2.4055955 -1.8930348
-4.7186327 2.2918975 -1.8926163
-4.7715626 2.1769183 -1.8922163
-4.8217282 2.0607622 -1.8918357
-4.8691111 1.9434777 -1.8914744
-4.913672 1.8251196 -1.8911327
-4.9554296 1.7057605 -1.8908108
-5.0635548 1.3423181 -1.8899646
-5.0938087 1.2196186 -1.8897228
-5.1211424 1.0962536 -1.8895018
-5.1455564 0.9722845 -1.8893011
-5.1670408 0.8477661 -1.8891211
-5.1855564 0.72280091 -1.8889618
-5.2010937 0.59746212 -1.8888235
-5.2136717 0.47178894 -1.888706
-5.2232618 0.34586304 -1.8886098
-5.2317967 -0.15904358 -1.8884344
-5.218154 -0.41121459 -1.8884732
-5.2068357 -0.53699279 -1.8885244
-5.1925683 -0.66249448 -1.8885964
-5.1753416 -0.78760433 -1.8886896
-5.1551366 -0.91227841 -1.8888038
-5.1059179 -1.1600488 -1.8890948
