# .PCD v0.7 - Point Cloud Data file format
VERSION 0.7
FIELDS x y z
SIZE 4 4 4
TYPE F F F
COUNT 1 1 1
WIDTH 1496
HEIGHT 1
VIEWPOINT 0 0 0 1 0 0 0
POINTS 1496
DATA ascii
5.566865 -15.020827 -1.9486029
6.3038087 -14.778865 -1.9544348
6.6685352 -14.644345 -1.95736
8.7897854 -13.650472 -1.9749295
9.1300488 -13.454255 -1.9778445
9.4658985 -13.249495 -1.9807512
9.7971287 -13.036277 -1.9836475
10.481846 -12.629499 -1.9964541
10.795811 -12.387021 -1.9987311
11.406064 -11.878096 -2.003166
11.701914 -11.611901 -2.0053208
12.273965 -11.056864 -2.0094965
12.044492 -9.3649397 -1.8558723
12.278339 -9.0800228 -1.8575931
12.936699 -8.1896029 -1.8624587
13.338076 -7.5680823 -1.8654437
13.526982 -7.2495337 -1.8668548
13.70793 -6.9260626 -1.8682107
15.025312 -6.2722697 -1.9805617
15.582158 -6.0675511 -2.0340676
15.732949 -5.6930547 -2.0352225
15.874199 -5.3146319 -2.0363109
16.127733 -4.5470505 -2.0382855
16.341932 -3.7668624 -2.0399849
16.434042 -3.37273 -2.04073
16.516094 -2.9762104 -2.041404
16.793516 -0.56287599 -2.0439386
16.803282 0.24793334 -2.0442002
16.792597 0.65329647 -2.0442209
16.771465 1.0582538 -2.0441678
16.646132 2.2678607 -2.0435691
16.583769 2.6683533 -2.0432231
16.511152 3.0670836 -2.0428047
16.335585 3.8580573 -2.0417516
14.843886 4.2714067 -1.8789009
14.478037 5.3271747 -1.8765655
14.033086 6.3505497 -1.8736629
12.752753 6.1461382 -1.7220268
12.009453 6.1492877 -1.6412195
10.584335 6.0811481 -1.4848688
9.1396971 6.1710477 -1.3414569
8.6831837 6.1729779 -1.2959448
8.2563963 6.1747818 -1.2541243
7.4793944 6.1780643 -1.1800483
7.1239157 6.1795659 -1.1471592
6.1647754 6.1836114 -1.0621283
5.2615428 6.1030755 -0.98018759
4.810957 6.1577787 -0.95054406
4.3726268 6.1905975 -0.92193526
4.1530566 6.1915202 -0.90688139
3.7341309 6.1932793 -0.87969613
3.5337305 6.194119 -0.86744964
3.3387108 6.1949372 -0.85602933
3.1486621 6.1957331 -0.84539253
2.9631543 6.1965094 -0.8354972
2.4304199 6.1987371 -0.80990672
2.259707 6.19945 -0.80264044
2.0919237 6.2001505 -0.79596192
1.6036133 6.2021866 -0.77924842
1.4450586 6.2028484 -0.77472472
1.2882421 6.2035003 -0.77069777
1.1329784 6.2041459 -0.76715726
0.9790234 6.2047858 -0.76409179
0.82620114 6.2054205 -0.76149255
0.37272459 6.2073026 -0.75642151
0.07173828 6.1248574 -0.74508309
-0.076044917 6.1253791 -0.74515295
-0.22396484 6.1259904 -0.74566734
-0.3721875 6.1266031 -0.74661833
-0.52800781 6.2111197 -0.75824916
-0.83157223 6.2123709 -0.76241642
-1.1391991 6.2136393 -0.76842868
-1.2950293 6.2142825 -0.77214855
-1.4524707 6.2149286 -0.77635938
-1.7730175 6.2162466 -0.78630418
-2.1026659 6.2175994 -0.79839092
-2.6186132 6.2197146 -0.82088923
-2.7974803 6.2204471 -0.82965636
-2.9803026 6.2211957 -0.83910584
-3.7588184 6.2243781 -0.88448584
-3.9674022 6.2252288 -0.89795148
-4.1825681 6.2261066 -0.91237324
-4.4048829 6.2270112 -0.92781466
-5.0555663 6.1498175 -0.96839535
-5.3068066 6.1468997 -0.98781657
-5.5722361 6.1479788 -1.0093094
-5.9333787 6.2371697 -1.0471545
-7.2064648 6.2423382 -1.1597441
-7.5697656 6.2438116 -1.1936148
-7.9551368 6.2453742 -1.2302543
-8.3651857 6.2470331 -1.2699819
-9.2716303 6.2507038 -1.3601785
-9.775527 6.2527447 -1.4115518
-12.202704 6.6135516 -1.6883452
-12.751064 5.3931623 -1.6840957
-12.870479 5.0811648 -1.6831775
-12.982616 4.7666874 -1.6823099
-14.416377 4.1375337 -1.8244289
-14.588144 3.434638 -1.8230478
-14.785009 2.3683636 -1.8214029
-14.933046 0.93180662 -1.820015
-14.957764 0.2102771 -1.8196689
-14.957783 -0.15067627 -1.8195831
-14.933125 -0.87206787 -1.8195858
-14.875595 -1.5916631 -1.8198217
-14.662363 -3.0197811 -1.82099
-14.58873 -3.3734534 -1.8214264
-14.507011 -3.7254739 -1.8219204
-14.417285 -4.0756459 -1.8224713
-13.978633 -5.4543824 -1.8252447
-13.849267 -5.7926769 -1.8260789
-13.712168 -6.1281376 -1.8269683
-11.721972 -7.4320397 -1.6883237
-11.547226 -7.7180371 -1.6894913
-11.177822 -8.2782288 -1.6919694
-10.98333 -8.5521336 -1.6932793
-10.782422 -8.8217134 -1.6946356
-10.575166 -9.0868292 -1.6960375
-10.768779 -10.700854 -1.8466895
-10.517207 -10.967744 -1.8484042
-10.259296 -11.228992 -1.8501654
-9.9951077 -11.484464 -1.8519723
-9.4484959 -11.977466 -1.8557192
-9.1663666 -12.214666 -1.8576574
-8.878418 -12.44553 -1.859638
-8.2848244 -12.885997 -1.8634895
-7.979785 -13.095774 -1.8654325
-7.3544726 -13.494378 -1.8694345
-7.034502 -13.682915 -1.8714917
-6.3805957 -14.037957 -1.8757135
-6.0441895 -14.197532 -1.877003
-5.6929688 -14.321934 -1.8747348
-5.3407812 -14.441729 -1.8729963
-4.9963183 -14.582498 -1.8750682
-4.648252 -14.715406 -1.8771856
-3.5843847 -15.065971 -1.8838029
-2.8604004 -15.258698 -1.8884251
-2.1263084 -15.417861 -1.8932061
-1.0095996 -15.592373 -1.9006546
0.12130859 -15.688272 -1.9084076
0.4532617 -8.0871611 -0.98527938
1.2609375 -15.704171 -1.9164301
2.7844532 -15.598874 -1.9274675
5.050283 -15.167409 -1.9445758
5.4228415 -15.063569 -1.9474752
5.7933593 -14.950644 -1.9503844
6.8903317 -14.557619 -1.9591519
7.2504196 -14.40867 -1.9620821
8.3106251 -13.908534 -1.9708726
8.9985151 -13.531408 -1.9767145
9.3360739 -13.32997 -1.979624
10.985087 -12.234665 -2.0001054
9.0231056 -8.2827396 -1.489915
12.443555 -10.881122 -2.0107369
12.715049 -10.588179 -2.0127258
12.188417 -9.1913052 -1.8569311
12.41792 -8.902689 -1.858622
13.062783 -8.0016994 -1.8633947
13.454648 -7.3737411 -1.8663137
13.814629 -6.7257791 -1.8690127
14.65082 -6.2776999 -1.9388616
15.675566 -5.8388529 -2.0347822
16.081612 -4.6970334 -2.0379238
16.197479 -4.3096032 -2.038835
16.303476 -3.9191568 -2.0396771
16.561308 -2.7325091 -2.0417817
16.626991 -2.3327615 -2.0423408
16.762323 -1.1247729 -2.0435846
16.786816 -0.7201007 -2.0438538
16.800917 -0.3148877 -2.0440497
16.804647 0.090584107 -2.0441723
16.753456 1.3057433 -2.0440991
16.667597 2.1119812 -2.0436838
16.540586 2.9125922 -2.0429761
16.461739 3.310086 -2.0425131
15.129404 4.2005463 -1.9099778
14.657305 4.8423233 -1.8777175
14.393603 5.538764 -1.8760189
14.248613 5.8814812 -1.8750752
13.061436 6.1448298 -1.7558594
11.587958 6.1510735 -1.5958558
9.8298531 6.168128 -1.4116284
8.0084963 6.175828 -1.2301849
7.2594824 6.1789932 -1.1596208
6.9159179 6.1804438 -1.1282388
5.9860935 6.1843657 -1.0469636
5.7046971 6.1855521 -1.0235571
5.1069531 6.103725 -0.96807492
4.8627048 6.1053104 -0.9494344
4.6900587 6.1892643 -0.94460922
4.4598241 6.1902299 -0.92805851
4.2373924 6.191165 -0.91260147
3.4137793 6.194622 -0.86036599
2.6728125 6.1977239 -0.82101464
2.497539 6.1984563 -0.81289005
1.8269824 6.2012553 -0.78638202
0.73317379 6.2058072 -0.76012951
0.43108398 6.2070608 -0.75684971
-0.16654296 6.1257524 -0.7454164
-0.46945313 6.2108769 -0.75764996
-0.62054688 6.2115006 -0.75933212
-0.77239257 6.2121296 -0.76146615
-0.9251855 6.2127566 -0.7640577
-1.0791211 6.2133927 -0.76711559
-1.234375 6.2140298 -0.77064788
-1.5496973 6.2153287 -0.77918285
-1.8728125 6.2166557 -0.7897681
-2.0378809 6.2173343 -0.79587036
-2.2056251 6.2180228 -0.80253911
-2.3763182 6.2187223 -0.80979592
-2.727617 6.2201629 -0.82617503
-2.9088769 6.2209039 -0.83535588
-3.0943065 6.221663 -0.84524
-3.4792089 6.2232342 -0.8672713
-3.8857129 6.2248955 -0.89261639
-4.0982518 6.2257624 -0.90666014
-4.3177247 6.226656 -0.92169654
-5.0240917 6.2295327 -0.97349662
-5.2068067 6.1464934 -0.97987258
-5.4678807 6.1475544 -1.00079
-5.8226852 6.2367191 -1.0378793
-6.7346482 6.2404227 -1.1168374
-7.0709176 6.2417874 -1.1472883
-7.4262695 6.2432303 -1.1801537
-7.8028121 6.2447562 -1.215687
-9.5755272 6.2519341 -1.3910656
-10.103173 6.2540689 -1.4453716
-12.293369 6.429678 -1.6875677
-12.82498 5.20257 -1.6835278
-13.047656 4.573122 -1.6818042
-14.557353 3.571579 -1.8232979
-14.860439 1.7909985 -1.8207324
-14.924423 1.0716449 -1.8201092
-14.944092 0.71115047 -1.8198847
-14.955537 0.3503668 -1.819718
-14.889316 -1.4522525 -1.8197577
-14.80537 -2.1693299 -1.8201809
-14.751132 -2.5263357 -1.8204794
-14.539687 -3.589083 -1.8217218
-14.453066 -3.9400017 -1.8222507
-14.358408 -4.2889566 -1.822837
-14.026738 -5.3223233 -1.8249362
-12.554365 -6.2072349 -1.7036015
-12.263574 -6.4362535 -1.6847317
-12.111923 -6.7342491 -1.685733
-11.615829 -7.6075082 -1.6890326
-11.436992 -7.8911486 -1.6902292
-11.05955 -8.4463511 -1.6927655
-10.656328 -8.9844637 -1.6954882
-10.445244 -9.2467604 -1.696918
-10.227998 -9.5043316 -1.6983926
-10.864638 -10.595799 -1.8460367
-7.908164 -8.0938482 -1.3764839
-9.2765331 -12.123365 -1.8569003
-8.9908199 -12.356709 -1.8588644
-8.4017572 -12.802746 -1.8627462
-8.0987787 -13.015187 -1.8646737
-7.4773827 -13.419235 -1.8686459
-5.8307223 -14.277534 -1.8759875
-5.1304197 -14.528805 -1.8742586
-4.7837987 -14.664725 -1.8763583
-4.4335546 -14.792801 -1.878504
-3.7235253 -15.024809 -1.8829254
-3.0016503 -15.223913 -1.8875161
-2.6368163 -15.310971 -1.8898715
-1.8999413 -15.459765 -1.8946989
-1.5283788 -15.521303 -1.8971683
-1.1549804 -15.57425 -1.8996729
-0.77988279 -15.618379 -1.9022124
0.35325193 -15.698068 -1.9100233
0.37531248 -8.0440931 -0.97956115
0.577959 -8.1544533 -0.99440926
1.493955 -15.69748 -1.9180963
2.2559667 -15.651931 -1.9236025
2.6368358 -15.61548 -1.9263831
3.0171387 -15.569934 -1.929184
3.3968945 -15.515244 -1.9320049
4.9052048 -15.205246 -1.9434533
5.2784863 -15.104948 -1.9463488
5.6497655 -14.995551 -1.9492539
6.385664 -14.749562 -1.9550891
7.8240037 -14.149798 -1.9668072
8.175293 -13.977701 -1.9697366
8.5227833 -13.796819 -1.972662
8.8663177 -13.607291 -1.9755827
9.5404491 -13.202496 -1.9814003
9.8706245 -12.987379 -1.9842943
10.221025 -12.795429 -1.9920737
12.610508 -10.702732 -2.0119596
11.858272 -9.5818052 -1.8545043
12.097461 -9.3017092 -1.8562618
12.329707 -9.0154104 -1.8579715
12.983173 -8.1210928 -1.8628035
13.185986 -7.8117733 -1.8643106
13.568193 -7.1775827 -1.8671632
13.747334 -6.8529882 -1.8685068
13.918193 -6.5238414 -1.8697927
14.291806 -6.282877 -1.8990535
15.248584 -6.2690191 -2.005501
16.363417 -3.678854 -2.0401578
16.4533 -3.2841406 -2.0408871
16.602715 -2.4880927 -2.0421321
16.711269 -1.6850384 -2.0430906
16.750059 -1.2816412 -2.0434606
16.801796 0.33867919 -2.0442111
16.788769 0.74397767 -2.0442154
16.687481 1.9559186 -2.0437872
16.633085 2.3576488 -2.0434983
16.313417 3.9459257 -2.0416157
15.652743 4.1884232 -1.9710091
14.819365 4.3511224 -1.8787463
14.704326 4.7056522 -1.8780175
14.447519 5.4047856 -1.8763682
14.155615 6.0892315 -1.8744673
12.580097 6.1468692 -1.7031702
11.852519 6.1499505 -1.6242883
10.437724 6.0721564 -1.4688814
8.585166 6.1733918 -1.2862748
8.164629 6.175169 -1.2452308
7.0469627 6.1798906 -1.1401311
6.7146583 6.181293 -1.1101731
6.3991208 6.1826239 -1.0823591
6.0988183 6.1838899 -1.0565038
4.548203 6.1898613 -0.93434674
4.1048536 6.1917214 -0.90364873
3.8937206 6.1926093 -0.88980609
3.6887596 6.1934686 -0.87687933
3.2957225 6.1951165 -0.85358083
3.1067383 6.1959085 -0.84311438
2.9222167 6.1966801 -0.83337951
2.741787 6.1974359 -0.82434154
2.5651464 6.198173 -0.81596786
2.3919334 6.1988983 -0.80822659
2.2218945 6.1996088 -0.80109447
1.727998 6.2016692 -0.78311211
1.4098047 6.2029948 -0.77377981
1.2533691 6.2036457 -0.76986355
1.0983789 6.2042899 -0.7664302
0.94472653 6.2049298 -0.76347053
0.64045894 6.206192 -0.75893456
0.4895117 6.2068195 -0.75734639
0.03866211 6.1249943 -0.74506325
-0.86578125 6.2125125 -0.76299751
-1.0192285 6.2131462 -0.7658723
-1.4879491 6.215075 -0.77736908
-1.6476367 6.2157316 -0.78219849
-2.3097167 6.2184501 -0.80690831
-2.6583397 6.2198772 -0.82279503
-2.8380272 6.2206135 -0.8317095
-3.4029784 6.2229242 -0.86274976
-3.8050096 6.2245646 -0.88742161
-4.0149803 6.2254229 -0.90109468
-4.2316895 6.2263064 -0.91573775
-4.4556837 6.2272186 -0.93141675
-4.6876173 6.2281632 -0.94820547
-4.9282227 6.2291436 -0.96618164
-5.6332617 6.1482258 -1.0143306
-5.9981637 6.2374344 -1.052624
-6.2959766 6.2386432 -1.0781549
-6.6088767 6.2399125 -1.1056226
-6.9382224 6.2412505 -1.1351957
-7.6540136 6.2441521 -1.2015609
-8.4606342 6.2474213 -1.2793325
-8.9049416 6.2492194 -1.3233263
-9.8935938 6.253222 -1.423703
-10.297997 6.1662359 -1.4600558
-10.898438 6.1734991 -1.5236181
-12.38209 6.2449932 -1.6869061
-12.521338 5.9407048 -1.6858499
-12.778438 5.3235197 -1.6838858
-12.896201 5.0110135 -1.682979
-13.896563 4.2715483 -1.7684588
-14.437197 4.0592422 -1.824263
-14.525312 3.7082818 -1.8235568
-14.677295 3.0011914 -1.8223146
-14.741094 2.645401 -1.8217791
-14.796767 2.2883556 -1.8213006
-14.883525 1.5711852 -1.8205169
-14.914579 1.2114172 -1.820212
-14.93745 0.85115296 -1.8199648
-14.952089 0.49038145 -1.8197757
-14.958486 0.12951905 -1.8196446
-14.95664 -0.23148926 -1.8195719
-14.946601 -0.59222472 -1.8195572
-14.901816 -1.3126953 -1.8197027
-14.713925 -2.7441983 -1.8206908
-14.571152 -3.4524236 -1.8215319
-14.487617 -3.8040504 -1.8220389
-14.396064 -4.1537824 -1.8226027
-13.637334 -6.1832671 -1.8214188
-12.320624 -6.3197031 -1.6843561
-12.171601 -6.6189995 -1.6853384
-11.852968 -7.2075024 -1.6874511
-11.683417 -7.4964118 -1.688581
-11.507177 -7.7815433 -1.6897591
-11.324267 -8.0627661 -1.6909853
-11.134853 -8.3399286 -1.6922586
-10.736563 -8.8814707 -1.6949455
-10.52791 -9.1455002 -1.6963577
-10.313056 -9.404933 -1.6978149
-10.092041 -9.6595592 -1.6993166
-9.385849 -12.031097 -1.8561492
-8.5179005 -12.718469 -1.8620093
-7.5994921 -13.34307 -1.8678634
-7.2833004 -13.537199 -1.8698915
-6.9622364 -13.724117 -1.8719571
-6.6365037 -13.903695 -1.8740585
-6.3062887 -14.075815 -1.8761947
-5.2640038 -14.473906 -1.8734561
-4.9187012 -14.612933 -1.8755382
-4.5698924 -14.744061 -1.8776656
-4.2176757 -14.867211 -1.8798382
-3.8622851 -14.982278 -1.882054
-3.1425977 -15.187858 -1.8866125
9.0445213 -8.9040852 -1.8347747
9.2648335 -8.6908922 -1.8363827
9.8939257 -8.0180836 -1.8409896
10.092481 -7.7832074 -1.8424489
10.285244 -7.5432339 -1.8438689
10.827383 -6.7943292 -1.8478789
10.995615 -6.535532 -1.8491298
11.16752 -6.2781157 -1.8520168
11.806445 -6.2673259 -1.9323303
12.44625 -6.2267962 -2.0118616
13.362139 -4.0599241 -2.018851
13.461396 -3.7377789 -2.0196292
13.5525 -3.4131169 -2.0203502
13.635371 -3.0861599 -2.021014
13.70999 -2.7570868 -2.0216196
13.883525 -1.7595413 -2.0230832
13.924473 -1.4243066 -2.0234523
14.00121 0.26209471 -2.0243955
13.990869 0.59983522 -2.0244024
13.944472 1.273971 -2.0242345
13.811006 2.2784111 -2.0235298
13.515264 3.5956171 -2.0217519
12.21917 4.2182693 -1.8687204
12.052236 4.4889264 -1.8592181
11.680761 5.3418951 -1.8567947
11.397959 5.893229 -1.8549265
9.5464153 6.1690922 -1.6431277
9.0621967 6.1711478 -1.5849576
7.7924023 6.1765375 -1.4374362
7.0671873 6.1796112 -1.3571309
6.1161327 6.1836371 -1.2573084
5.5543847 6.1860123 -1.201845
4.9709473 6.1046939 -1.1380745
4.7957225 6.1886578 -1.1318187
4.335947 6.1905951 -1.0926002
3.700742 6.1932707 -1.0429677
3.5012598 6.1941094 -1.0285789
3.3070996 6.1949234 -1.0151634
3.1178124 6.1957183 -1.0026711
2.9330273 6.1964936 -0.99105161
2.752373 6.1972513 -0.98026389
2.5755076 6.1979914 -0.97026563
1.737578 6.2014956 -0.93101889
1.2626269 6.203476 -0.91516727
1.1075782 6.2041216 -0.91105336
0.64947265 6.2060261 -0.90204757
0.34803709 6.2072759 -0.89873892
0.1953125 6.1242194 -0.88577187
-0.55280274 6.2110929 -0.90142936
-1.3207519 6.2142549 -0.91840243
-1.4784667 6.2149038 -0.92350304
-1.6380273 6.2155585 -0.92920429
-1.7996777 6.2162223 -0.93552434
-1.963623 6.2168951 -0.94248337
-2.2994628 6.2182693 -0.95841122
-2.4718847 6.2189765 -0.96743256
-2.6476758 6.2196941 -0.97720146
-2.8271582 6.2204266 -0.98774779
-3.1985643 6.2219439 -1.0113415
-3.589082 6.2235346 -1.0385661
-4.0021777 6.2252164 -1.069856
-4.4420018 6.227005 -1.1057445
-4.6734471 6.2279449 -1.1256123
-4.913486 6.228919 -1.1468884
-5.3494825 6.1469049 -1.1779879
-6.9179101 6.2409759 -1.3468838
-7.6312203 6.2438569 -1.4253883
-8.4347944 6.2470989 -1.517359
-8.8773041 6.2488837 -1.5693737
-9.8068457 6.555119 -1.7052418
-9.9553509 6.3122773 -1.7040771
-10.098398 6.0664287 -1.7030075
-10.235635 5.8174992 -1.7019784
-10.367011 5.5655985 -1.7009898
-10.492412 5.3108783 -1.7000427
-10.981318 4.2851238 -1.7040648
-11.749355 4.2611332 -1.8067632
-12.073095 4.0516996 -1.8409735
-12.245449 3.4620037 -1.839615
-12.321347 3.1644976 -1.8390079
-12.596846 1.6564294 -1.8367019
-12.658086 1.0464904 -1.8361242
-12.678174 0.74067807 -1.8359095
-12.69122 0.4345282 -1.8357446
-12.697197 0.12817383 -1.8356296
-12.696172 -0.17819579 -1.8355639
-12.672919 -0.79049069 -1.8355829
-12.621533 -1.4010912 -1.8358012
-12.491895 -2.3111818 -1.8365015
-12.299678 -3.210628 -1.8376465
-11.947372 -4.3862901 -1.8398577
-11.730752 -4.9612989 -1.8412524
-11.61248 -5.2450681 -1.842021
-11.218457 -6.0797706 -1.8446081
-10.248564 -6.2117252 -1.7324466
-9.9145412 -6.3413281 -1.7013599
-9.6086617 -6.8204322 -1.7034084
-9.4473143 -7.0547709 -1.704493
-8.3664551 -8.3798409 -1.7118192
-8.1682711 -8.5860338 -1.7131712
-7.757246 -8.9848108 -1.715982
-7.5446191 -9.1771536 -1.7174394
-7.327363 -9.3646421 -1.7189306
-7.4707422 -10.560548 -1.8700367
-7.2204099 -10.747626 -1.8717619
-6.4419532 -11.272888 -1.8769497
-5.6254687 -11.742067 -1.882206
-5.335 -11.862117 -1.8802615
-5.0503025 -11.99469 -1.8814074
-4.7637205 -12.123942 -1.8830997
-4.4739161 -12.246604 -1.8848317
-4.181035 -12.362597 -1.8866028
-3.8852928 -12.47182 -1.8884115
-3.5867381 -12.574206 -1.8902583
-2.6760156 -12.839676 -1.8960128
-2.0578222 -12.981198 -1.9000195
-1.4323046 -13.093774 -1.9041531
-1.1171973 -13.139079 -1.9062653
-0.80075192 -13.176993 -1.9084057
-0.16452149 -13.230465 -1.9127688
0.48571289 -8.0919189 -1.1718888
1.1164941 -13.246931 -1.9217901
1.7584863 -13.209451 -1.9264301
2.7192774 -13.095716 -1.9335241
3.038203 -13.042429 -1.9359192
3.3561523 -12.981456 -1.9383273
3.6729882 -12.912807 -1.9407474
3.9884472 -12.836484 -1.9431777
4.302412 -12.752502 -1.9456174
4.6146483 -12.660885 -1.9480648
5.5391603 -12.340502 -1.9554386
6.7364354 -11.808459 -1.9652922
7.6012011 -11.33256 -1.9726471
7.8821287 -11.159635 -1.9750842
8.1590919 -10.979696 -1.9775114
8.7004299 -10.599062 -1.9823303
8.261445 -9.5831013 -1.8290777
8.4982319 -9.3898058 -1.8307976
9.1799316 -8.7743111 -1.8357626
9.0582123 -8.2490778 -1.7710983
9.6089449 -8.3354502 -1.8388999
10.211133 -7.6369586 -1.8433225
10.400292 -7.3939629 -1.8447175
10.7604 -6.8935757 -1.8473819
10.931074 -6.6364942 -1.8486497
11.55206 -6.2716436 -1.9002258
12.225488 -6.2601562 -1.985567
12.541269 -6.0444946 -2.0125768
12.690615 -5.7433543 -2.0137038
12.966348 -5.1297979 -2.0157988
13.321465 -4.1842155 -2.0185339
13.423847 -3.8631163 -2.0193338
13.751523 -2.5547915 -2.021961
13.865371 -1.8893157 -2.0229242
13.909629 -1.5545239 -2.0233164
13.99126 -0.54464537 -2.0241332
14.00291 0.13097472 -2.0243762
13.980292 0.80635005 -2.0243769
13.923476 1.4796575 -2.0241349
13.832568 2.1491051 -2.0236514
13.45834 3.7941105 -2.0213966
12.556982 4.2037125 -1.9142835
11.981709 4.6652446 -1.8587615
11.732411 5.2332416 -1.8571341
11.597178 5.5121403 -1.8562444
11.45499 5.7874284 -1.8553045
11.305976 6.0588837 -1.8543158
11.150253 6.3263679 -1.8532785
9.744072 6.1682525 -1.6671338
9.2459669 6.1703668 -1.6069244
8.7823629 6.1723356 -1.5517857
8.3492479 6.1741738 -1.5011491
7.9432907 6.1758966 -1.454535
7.5615525 6.177515 -1.4115222
6.8610544 6.1804838 -1.3349252
6.2312794 6.1831498 -1.2690192
5.659502 6.1855683 -1.2120025
5.3189259 6.1026664 -1.1702653
5.0659862 6.1037345 -1.1466894
4.2014747 6.1911612 -1.0816318
3.3818359 6.1946096 -1.0202576
3.0042186 6.1961942 -0.99546033
2.8220215 6.1969585 -0.98435438
2.2976172 6.1991558 -0.95572811
2.1291895 6.1998587 -0.94763827
1.6393163 6.2019062 -0.92734528
1.4803613 6.2025676 -0.92183346
1.3231835 6.2032232 -0.91691697
1.1675879 6.2038727 -0.91258162
0.55699217 6.2064104 -0.90080941
0.2561914 6.2076569 -0.89814788
-0.19083984 6.1257267 -0.88596988
-0.49420896 6.2108502 -0.9006837
-0.6454004 6.2114749 -0.90276915
-0.79740232 6.2121015 -0.90539384
-0.95035154 6.2127323 -0.90856403
-1.104502 6.213366 -0.91228962
-1.26 6.2140055 -0.91658115
-1.7366894 6.2159638 -0.93299598
-2.0652149 6.2173114 -0.94706702
-2.4045801 6.2187004 -0.96384525
-2.5790331 6.2194147 -0.97332066
-3.1251073 6.2216434 -1.0064926
-3.5116503 6.2232194 -1.0329807
-3.920078 6.2248831 -1.0634444
-4.1337008 6.2257524 -1.0803204
-4.3543553 6.2266498 -1.0983914
-4.5826368 6.2275763 -1.1177402
-5.0427928 6.2022529 -1.1555653
-5.5116696 6.1475625 -1.1935809
-5.8691211 6.2367325 -1.238034
-6.1607227 6.2379117 -1.2674162
-6.46665 6.2391496 -1.2989982
-7.4863477 6.2432718 -1.4091884
-7.8665624 6.2448063 -1.4519643
-8.7020111 6.2481756 -1.5486624
-9.1634569 6.2500372 -1.6034722
-9.8982811 6.4068341 -1.7045032
-10.183085 5.9144549 -1.7023729
-10.316718 5.6636982 -1.7013686
-10.444463 5.4100637 -1.7004052
-10.56623 5.1536894 -1.6994836
-10.681973 4.8947101 -1.6986037
-10.79164 4.6332841 -1.6977665
-12.036494 4.1652288 -1.8412591
-12.292725 3.2801428 -1.8392376
-12.487001 2.3803997 -1.8376504
-12.648408 1.1650305 -1.8362206
-12.697412 -0.059312742 -1.8355834
-12.69204 -0.36563781 -1.8355486
-12.660185 -0.97754455 -1.8356285
-12.252861 -3.3924303 -1.8379343
-12.081933 -3.9818773 -1.8390025
-11.986318 -4.2736435 -1.8396091
-11.774873 -4.8504701 -1.8409667
-11.65916 -5.1352563 -1.8417174
-11.536884 -5.4174199 -1.8425146
-11.407998 -5.6968002 -1.8433594
-11.034297 -6.1924658 -1.829164
-10.459795 -6.2065806 -1.758251
-9.9712887 -6.2468152 -1.7009811
-9.8233595 -6.4893498 -1.7019691
-9.5105858 -6.9642563 -1.7040673
-9.345849 -7.1963754 -1.7051768
-8.4420013 -8.2986336 -1.7113044
-7.8871875 -8.1366053 -1.6381603
-8.0445604 -8.7099981 -1.7140162
-7.8385153 -8.9088802 -1.7154255
-7.6276855 -9.1030846 -1.7168698
-7.4122167 -9.2924767 -1.718348
-6.9677048 -9.6563568 -1.7214037
-7.3180857 -10.675698 -1.8710885
-6.807373 -11.037057 -1.874613
-6.2783298 -11.373127 -1.8779994
-5.733027 -11.684564 -1.8815109
-5.449863 -11.820395 -1.8816552
-5.1606345 -11.942751 -1.8807619
-4.8753223 -12.074563 -1.8824382
-4.2950487 -12.318375 -1.8859109
-4.0004001 -12.43025 -1.8877052
-3.4027734 -12.633481 -1.8914059
-2.7950194 -12.808896 -1.8952508
-2.4877245 -12.88601 -1.8972248
-2.1783886 -12.955967 -1.8992318
-1.8671582 -13.018722 -1.9012713
-1.2396581 -13.122368 -1.9054421
-0.92372066 -13.163154 -1.9075717
-0.60652339 -13.196535 -1.9097292
0.030869139 -13.240831 -1.9141244
0.40751952 -8.0487938 -1.1650392
0.61078125 -8.1592102 -1.182812
1.3129394 -13.238708 -1.9232016
1.633955 -13.219118 -1.925524
2.5952637 -13.114324 -1.9325982
3.2329004 -13.006032 -1.9373913
5.4207029 -12.385777 -1.954483
5.7251658 -12.266821 -1.956946
6.326201 -12.006497 -1.9618751
6.622324 -11.865253 -1.9643375
7.2050195 -11.560819 -1.969251
8.3265619 -10.866141 -1.9789914
8.1683197 -9.6564684 -1.828402
8.4068947 -9.4655304 -1.8301339
8.6408205 -9.2685432 -1.8318343
8.8700294 -9.0656309 -1.8335028
9.0942574 -8.8568678 -1.8351376
9.3134279 -8.6423903 -1.8367378
9.5273237 -8.4223433 -1.8383021
9.938838 -7.9659653 -1.8413196
10.136132 -7.7299328 -1.8427703
10.327607 -7.4888515 -1.8441812
10.513085 -7.242866 -1.8455508
10.692451 -6.9921265 -1.8468783
10.865596 -6.7367835 -1.8481628
11.032402 -6.4770017 -1.8494037
11.305927 -6.2757945 -1.8693227
11.957158 -6.2647557 -1.9514278
12.481328 -6.1602955 -2.0121253
12.633515 -5.8606882 -2.0132723
12.778203 -5.5571799 -2.0143673
12.915244 -5.2499652 -2.015409
13.044551 -4.9392719 -2.016397
13.165996 -4.6252356 -2.0173302
13.279551 -4.3080888 -2.0182083
13.48251 -3.6653328 -2.0197954
13.652812 -3.0126648 -2.0211544
13.789941 -2.3518274 -2.0222809
13.845908 -2.018892 -2.0227556
13.893437 -1.6845754 -2.0231709
13.998476 -0.33800596 -2.0242333
13.999658 0.33770385 -2.0244024
13.987363 0.67538631 -2.0243955
13.663027 3.0146112 -2.0226586
13.494804 3.6683288 -2.0216246
12.928184 4.1937761 -1.9647961
11.908466 4.8403897 -1.8582852
11.783008 5.1240449 -1.8574657
11.650488 5.4043217 -1.8565955
11.364619 5.9540043 -1.8547055
11.211474 6.2230573 -1.8536867
10.343457 6.0723076 -1.7338983
9.9475975 6.1673856 -1.6919998
9.4349213 6.1695657 -1.6296502
8.5139456 6.1734757 -1.5202985
8.0978022 6.1752419 -1.4721748
7.7069726 6.1768985 -1.4278096
6.9909959 6.1799345 -1.3488903
6.3486032 6.182653 -1.2810622
5.7664161 6.1851153 -1.2224401
5.16291 6.1033258 -1.1556472
4.9165235 6.1049223 -1.1331503
4.7426171 6.1888824 -1.1271573
4.0696387 6.1917181 -1.0711135
3.8595409 6.1926017 -1.0548446
3.6555955 6.1934586 -1.0396589
3.2643163 6.1951032 -1.0122904
2.8922558 6.1966643 -0.9885667
2.7124705 6.1974187 -0.97795743
2.36375 6.1988788 -0.9590553
2.1942089 6.1995878 -0.95069522
2.0274901 6.2002859 -0.9430232
1.701543 6.2016473 -0.92964756
1.0730566 6.2042656 -0.91020966
0.91958004 6.2049026 -0.90678298
0.61561525 6.2061663 -0.90157127
0.16220702 6.1243558 -0.88565212
0.014384765 6.124877 -0.88541883
-0.1334375 6.1254902 -0.88571531
-0.28144529 6.1261005 -0.88652778
-0.73830074 6.2118583 -0.90431112
-0.89087892 6.2124848 -0.90726864
-1.1994824 6.213758 -0.91484785
-1.3558984 6.2143998 -0.91949189
-1.5140039 6.2150493 -0.92472678
-2.0006738 6.2170463 -0.94413143
-2.167793 6.217731 -0.95190346
-2.8678906 6.2205949 -0.99022049
-3.0523534 6.2213469 -1.0017774
-3.6341307 6.2237186 -1.0418581
-4.0499802 6.2254119 -1.0736328
-4.2678318 6.2262969 -1.0912323
-4.4930954 6.2272124 -1.110075
-4.9684863 6.2291422 -1.1518528
-5.1530271 6.1500492 -1.1598899
-5.4083204 6.1471429 -1.183615
-5.6782422 6.1482353 -1.2098608
-6.0459471 6.2374482 -1.2557641
-6.6615624 6.2399392 -1.3195001
-6.9938278 6.241281 -1.3550831
-7.7163181 6.2441998 -1.4349618
-8.5312691 6.2474871 -1.5286212
-8.980547 6.2493 -1.5816348
-9.8404884 6.5010028 -1.7049638
-10.129639 6.0109744 -1.7027736
-10.265566 5.7613554 -1.7017534
-10.395596 5.5088153 -1.7007742
-10.749804 4.7350078 -1.6980865
-10.855713 4.4721427 -1.6972754
-11.937959 4.2567072 -1.832204
-12.09376 3.9860711 -1.8408117
-12.181807 3.6917486 -1.8401196
-12.337402 3.0976856 -1.8388784
-12.518935 2.1954424 -1.8373808
-12.565536 1.8923309 -1.8369793
-12.605098 1.5882952 -1.8366275
-12.681719 0.67215818 -1.8358682
-12.693173 0.3659741 -1.8357143
-12.697588 0.059595946 -1.8356105
-12.694942 -0.24677612 -1.8355563
-12.668545 -0.85891479 -1.8355976
-12.644794 -1.1643976 -1.835693
-12.57624 -1.773381 -1.836033
-12.531455 -2.0765817 -1.8362774
-12.421005 -2.6796365 -1.8369149
-11.924453 -4.4511137 -1.8400042
-11.585107 -5.3082237 -1.8421997
-11.458798 -5.5887122 -1.8430258
-11.325986 -5.8663511 -1.8438988
-11.186748 -6.140975 -1.8448178
-10.677412 -6.2012544 -1.7849911
-10.129492 -6.2146153 -1.7179667
-9.5730076 -6.8732085 -1.7036477
-9.4104195 -7.1067405 -1.7047415
-9.0688963 -7.5626507 -1.7070477
-8.8900681 -7.7847905 -1.708259
-8.7060251 -8.0028639 -1.7095083
-7.496377 -9.2195501 -1.7177703
-7.2781053 -9.4059381 -1.719269
-7.1637301 -10.788741 -1.8721528
-6.9078317 -10.968784 -1.873919
-6.647285 -11.142443 -1.8756354
-6.3822556 -11.309808 -1.8773326
-6.1131444 -11.471071 -1.879061
-5.2704687 -11.889882 -1.8801218
-4.9864454 -12.024194 -1.8817828
-4.4086227 -12.273145 -1.8852246
-4.115088 -12.387631 -1.8870044
-3.5195508 -12.5962 -1.8906765
-2.9136717 -12.777056 -1.8944938
-2.2986717 -12.92968 -1.8984492
-1.6758398 -13.053545 -1.9025345
-1.0464648 -13.148211 -1.9067419
-0.72977537 -13.184465 -1.9088885
-0.41192383 -13.213259 -1.9110628
-0.093095697 -13.234577 -1.9132636
0.33023438 -8.0061684 -1.1583712
1.1883692 -13.244246 -1.9223058
1.8302832 -13.203352 -1.926954
2.1509666 -13.171405 -1.9293061
2.7907422 -13.084466 -1.9340588
3.7437596 -12.896384 -1.9412909
4.3724413 -12.732661 -1.9461645
6.2104492 -12.05935 -1.9609188
6.5077538 -11.920963 -1.9633819
6.8020215 -11.775201 -1.9658427
7.092998 -11.622158 -1.9682993
7.3805175 -11.461884 -1.9707497
8.4924116 -10.750027 -1.9804662
8.3148241 -9.5403662 -1.8294652
8.7816505 -9.145072 -1.8328592
9.2290039 -8.726285 -1.836121
9.6556149 -8.2849751 -1.8392416
10.060273 -7.8221335 -1.8422122
10.254004 -7.5829959 -1.8436385
10.79915 -6.8364201 -1.8476694
10.968428 -6.5783486 -1.8489276
11.131249 -6.3159204 -1.8501408
12.38457 -6.2574162 -2.005883
12.57538 -5.977428 -2.0128338
12.722968 -5.6754069 -2.0139487
12.862968 -5.3696094 -2.0150111
13.236425 -4.4315071 -2.017874
13.345088 -4.112577 -2.018718
13.445644 -3.7908645 -2.0195053
13.622343 -3.1399877 -2.0209088
13.765927 -2.4806278 -2.0220807
13.918359 -1.4794296 -2.023396
13.977509 -0.80648863 -2.0239739
13.994258 -0.46905211 -2.0241725
14.00246 -0.1312976 -2.0243108
13.993144 0.54438841 -2.0244052
13.975644 0.88183528 -2.0243618
13.871855 1.8898932 -2.0238676
13.530019 3.5421917 -2.0218437
12.351406 4.2092056 -1.8863794
11.832539 5.0143633 -1.8577899
11.702744 5.2959733 -1.8569391
11.422216 5.8485355 -1.8550875
11.271718 6.1191325 -1.8540878
10.049024 6.1007233 -1.6994563
9.629365 6.1687393 -1.6531836
9.1393652 6.1708207 -1.5941628
8.2561226 6.1745696 -1.4903796
7.1236911 6.1793718 -1.3632679
6.7873144 6.1807961 -1.3270561
6.4681735 6.1821475 -1.2934518
6.1645899 6.1834331 -1.2622242
5.0107422 6.1039691 -1.1416323
4.5996289 6.1894855 -1.1147765
4.3725195 6.1904411 -1.0956224
3.7340527 6.1931305 -1.0454265
2.9630859 6.1963663 -0.99290252
2.2596581 6.1993146 -0.9538573
1.9267772 6.2007074 -0.93865871
1.764082 6.201386 -0.93204391
1.4450195 6.2027164 -0.9206807
1.2882227 6.2033696 -0.91589671
0.97900391 6.2046561 -0.90804738
0.82619137 6.2052908 -0.90495902
0.67432618 6.2059221 -0.9024139
0.5232324 6.2065496 -0.90040708
0.22260742 6.2077971 -0.89798015
-0.37217772 6.1264777 -0.88728142
-0.52798826 6.2109895 -0.90110356
-1.1391797 6.21351 -0.91320097
-1.4524413 6.2147965 -0.92262405
-1.9365429 6.2167826 -0.94129574
-2.102617 6.217464 -0.9488073
-2.2714648 6.2181549 -0.95699966
-2.44333 6.2188578 -0.96590072
-2.6185546 6.2195759 -0.97554493
-2.7974217 6.2203069 -0.98596191
-2.9802442 6.2210526 -0.99719036
-3.3592479 6.2225995 -1.0222538
-4.1824708 6.2259502 -1.0842603
-4.4047751 6.2268534 -1.1026096
-4.6348634 6.2277884 -1.1222571
-4.8734469 6.2287564 -1.1432945
-5.055449 6.1496525 -1.1508355
-5.3066697 6.1467304 -1.1739142
-5.5720701 6.1478057 -1.1994528
-6.5372458 6.2394352 -1.3063899
-6.8628025 6.2407522 -1.3409581
-7.9548631 6.245163 -1.4620144
-9.7819529 6.5947309 -1.7054471
-9.9312887 6.3523469 -1.7042569
-10.91749 4.3101468 -1.6968
-11.614306 4.2642999 -1.7885816
-12.148438 3.8062017 -1.8403825
-12.309345 3.2134686 -1.8391043
-12.379482 2.9146338 -1.8385375
-12.442695 2.6143553 -1.8380194
-12.590556 1.7064002 -1.8367584
-12.65412 1.0966644 -1.8361642
-12.675361 0.79092586 -1.8359413
-12.696709 0.17848998 -1.835645
-12.696816 -0.12789978 -1.8355713
-12.549678 -1.959042 -1.8361764
-12.311816 -3.1617415 -1.8375723
-11.860107 -4.627739 -1.8404171
-11.74957 -4.914434 -1.8411306
-11.632363 -5.1986475 -1.8418914
-11.508584 -5.480195 -1.8426995
-11.378301 -5.7589593 -1.8435545
-10.901709 -6.1957383 -1.8127087
-10.337187 -6.2095704 -1.7432556
-9.9386816 -6.301384 -1.7011987
-9.6346283 -6.7816086 -1.703234
-9.4741793 -7.0165305 -1.7043124
-9.3082514 -7.2478409 -1.7054303
-8.9601068 -7.6990647 -1.7077842
-8.7780466 -7.9187326 -1.7090192
-7.9988766 -8.7549229 -1.7143285
-7.791738 -8.9527693 -1.7157458
-7.5798435 -9.1459017 -1.7171979
-7.3633204 -9.3341913 -1.7186837
-7.1423144 -9.5175266 -1.7202026
-6.7489939 -11.075872 -1.8749855
-6.4856153 -11.245584 -1.87667
-6.2180567 -11.409221 -1.8783865
-5.9465137 -11.566669 -1.8801336
-5.6710544 -11.717832 -1.8819113
-5.0970602 -11.972839 -1.8811334
-4.2293653 -12.344012 -1.8863091
-3.6359668 -12.557863 -1.8899523
-1.7972265 -13.031777 -1.901732
-1.4839355 -13.085626 -1.9038088
-0.85282224 -13.17128 -1.9080522
-0.21691406 -13.227201 -1.9124066
0.42243162 -13.253074 -1.9168632
1.0637792 -13.248635 -1.9214128
2.026582 -13.184714 -1.9283916
2.6668162 -13.103729 -1.9331319
2.9858983 -13.051702 -1.9355248
4.2509665 -12.766819 -1.9452163
4.8741503 -12.578476 -1.950115
5.182744 -12.472922 -1.9525727
5.4890623 -12.359815 -1.955034
5.7929978 -12.239177 -1.9574978
6.0942774 -12.111064 -1.9599624
6.3927341 -11.975531 -1.9624264
6.6882129 -11.83262 -1.9648882
8.1138964 -11.009719 -1.9771136
8.6566401 -10.631336 -1.9819366
8.2220993 -9.6142673 -1.8287922
8.4596577 -9.4219637 -1.8305172
8.6925001 -9.2236214 -1.8322103
8.9206734 -9.0194054 -1.8338717
9.7818165 -8.1455908 -1.8401669
9.9835253 -7.9135661 -1.8416479
10.369629 -7.4342141 -1.8444912
10.55375 -7.1871457 -1.8458514
10.731768 -6.9353657 -1.8471698
10.903496 -6.6790137 -1.8484445
11.068799 -6.4182587 -1.8496749
11.446914 -6.2734199 -1.8870038
12.110781 -6.2621255 -1.9709524
12.666562 -5.7930841 -2.0135221
12.809531 -5.4887347 -2.014605
13.303847 -4.2366848 -2.0183969
13.407578 -3.9160147 -2.0192063
13.503193 -3.5927455 -2.019959
13.669805 -2.9390802 -2.021292
13.803203 -2.2774384 -2.0223923
13.968711 -0.93731624 -2.0238805
14.000302 -0.26239869 -2.0242641
13.997646 0.41333923 -2.0244062
13.983457 0.75094664 -2.0243859
13.960703 1.0880774 -2.0243051
13.889609 1.7599779 -2.023962
13.841309 2.094322 -2.0237002
13.784551 2.4272912 -2.0233779
13.719395 2.7586584 -2.0229962
13.645849 3.0882044 -2.0225546
13.473916 3.740916 -2.0214942
12.113604 4.3288274 -1.8596139
12.000908 4.6180301 -1.8588859
11.880986 4.9041862 -1.8581064
11.330937 6.0145721 -1.8544816
11.176298 6.2827201 -1.8534521
9.8294725 6.1678886 -1.6775491
8.4184475 6.1738811 -1.5091789
7.6226854 6.1772561 -1.4183542
6.9157028 6.1802521 -1.3407848
6.2806344 6.182941 -1.2740721
5.9859276 6.1841874 -1.2442014
5.7045312 6.185379 -1.2163867
5.361455 6.1024857 -1.1742978
4.8625879 6.1051493 -1.1283021
4.6899414 6.1891031 -1.1225684
4.0220509 6.1919169 -1.0673746
2.325537 6.1990385 -0.95712346
2.1566503 6.1997452 -0.94891989
1.6656054 6.2017961 -0.92830741
1.5063379 6.2024603 -0.92269623
1.3488867 6.2031159 -0.91768485
1.1930273 6.2037663 -0.91325408
1.0385938 6.2044096 -0.90939343
0.73316407 6.2056766 -0.903337
0.43106446 6.206933 -0.89944035
0.12911132 6.1244926 -0.88555831
-0.018691406 6.1250162 -0.88544059
-0.46944335 6.2107487 -0.90039206
-0.6205371 6.2113714 -0.90239048
-0.92516601 6.2126288 -0.90800512
-1.0791016 6.2132611 -0.91163939
-1.2343554 6.2139006 -0.91583675
-1.8727734 6.2165227 -0.93855876
-2.3762598 6.2185855 -0.96235937
-3.0942383 6.221518 -1.0044801
-3.2841992 6.2222929 -1.0171053
-3.4791307 6.2230878 -1.0306603
-4.0981541 6.2256074 -1.0774691
-4.7797947 6.2283769 -1.1349566
-5.0239549 6.2293682 -1.156895
-5.4677243 6.1473846 -1.1893295
-6.4153709 6.2389421 -1.2936535
-6.7344337 6.2402334 -1.3272378
-7.4260254 6.2430277 -1.4024781
-7.8025489 6.2445474 -1.444705
-8.2026758 6.2461624 -1.4904449
-9.0854588 6.249722 -1.594143
-10.295185 5.705081 -1.7015307
-10.546631 5.195971 -1.6996322
-10.663379 4.9374127 -1.6987455
-10.774043 4.6763716 -1.6979011
-10.878593 4.4129949 -1.6970996
-12.200605 3.6255877 -1.8399708
-12.280283 3.3290062 -1.8393371
-12.419024 2.7310388 -1.8382144
-12.57499 1.8243561 -1.8368963
-12.612988 1.520133 -1.8365555
-12.643994 1.2151697 -1.8362639
-12.667958 0.90962398 -1.8360218
-12.697617 -0.0089813229 -1.8355939
-12.682148 -0.62151855 -1.8355578
-12.663847 -0.92735779 -1.8356146
-12.265674 -3.3437045 -1.8378552
-12.184736 -3.6396713 -1.8383572
-12.097002 -3.9337838 -1.8389075
-12.002481 -4.2258601 -1.8395061
-11.90123 -4.5158124 -1.8401531
-11.793252 -4.8034658 -1.8408481
-11.678633 -5.088666 -1.8415906
-11.557392 -5.3712635 -1.8423806
-11.295351 -5.9280972 -1.8441006
-9.6953802 -6.6894894 -1.7028264
-9.373291 -7.1585226 -1.7049917
-9.2040033 -7.3875208 -1.706134
-9.0293264 -7.6127152 -1.7073153
-8.8493357 -7.8339562 -1.7085353
-7.908154 -8.0938244 -1.635831
-7.8726754 -8.8765516 -1.7151916
-7.6626368 -9.0715065 -1.7166302
-7.3592381 -10.645008 -1.870805
-7.1068554 -10.829535 -1.8725451
-6.3223825 -11.346432 -1.8777167
-4.3431349 -12.299369 -1.8856201
-3.7519433 -12.518511 -1.8892339
-3.4522557 -12.617803 -1.8910965
-3.1499023 -12.71021 -1.8929961
-1.9183886 -13.008906 -1.9009341
-1.6057129 -13.065602 -1.9029994
-1.2914159 -13.114964 -1.905095
-0.97569335 -13.156972 -1.90722
-0.021660157 -13.238317 -1.9137592
0.57704103 -8.1415443 -1.1799096
1.2601855 -13.241194 -1.9228219
1.5812695 -13.222871 -1.9251415
2.2227342 -13.1632 -1.9298353
2.5427442 -13.121843 -1.932207
2.8621581 -13.072815 -1.9345946
3.1806738 -13.016083 -1.9369956
4.1292186 -12.799818 -1.9442691
4.4424314 -12.712424 -1.9467123
5.063252 -12.51478 -1.9516186
5.3704395 -12.404612 -1.9540783
5.6753712 -12.286862 -1.9565417
5.9776464 -12.161672 -1.9590057
6.2772851 -12.028994 -1.9614706
6.5739059 -11.888962 -1.9639331
7.4444041 -11.425036 -1.9712976
8.2817774 -10.896861 -1.9785943
8.6027737 -9.3013067 -1.8315576
8.832695 -9.0993671 -1.8332309
9.0578222 -8.8915186 -1.8348718
9.701992 -8.2342224 -1.8395816
9.9059076 -8.0042372 -1.8410777
10.483017 -7.2835836 -1.8453287
10.663427 -7.0336208 -1.8466631
11.005449 -6.5199609 -1.8492031
12.609023 -5.910192 -2.0130877
12.754971 -5.6072617 -2.0141912
12.893242 -5.300694 -2.0152414
13.023857 -4.9904728 -2.0162385
13.146591 -4.6770267 -2.0171807
13.368291 -4.0408044 -2.018899
13.714179 -2.7373979 -2.0216537
13.779961 -2.406354 -2.0221972
13.837295 -2.0736639 -2.0226817
13.958593 -1.0680493 -2.023778
13.982012 -0.73097533 -2.0240238
13.996865 -0.39350095 -2.024209
13.942558 1.294024 -2.0242257
13.906064 1.6299127 -2.0240479
13.67539 2.9605522 -2.0227332
13.596767 3.2888157 -2.0222552
13.414736 3.9387126 -2.0211229
13.091132 4.1894011 -1.9870245
12.177636 4.2235246 -1.8632931
12.045478 4.506186 -1.8591745
11.928369 4.7934928 -1.8584149
11.534375 5.635838 -1.8558297
11.2371 6.1791544 -1.8538574
10.035585 6.1670122 -1.7027959
9.5165138 6.169219 -1.6395079
8.5848627 6.1731753 -1.528587
8.1643648 6.1749592 -1.4798137
7.7694921 6.1766348 -1.4348493
7.0467577 6.1796975 -1.3549163
6.7144432 6.1811051 -1.3193173
6.3989258 6.1824408 -1.2862637
5.8122263 6.1849222 -1.2269448
5.5383887 6.1860795 -1.2003082
5.2043848 6.1031499 -1.1595069
4.9563966 6.1047549 -1.1367534
4.7815623 6.1887174 -1.1305718
4.5480857 6.1897025 -1.1103725
3.8936327 6.1924591 -1.0574411
3.6886718 6.1933208 -1.0420806
3.4895411 6.1941581 -1.0277536
3.1066699 6.1957645 -1.001955
2.9221485 6.1965384 -0.99038619
2.565078 6.1980352 -0.96969396
2.0546875 6.2001724 -0.94423771
1.5679394 6.2022038 -0.92480338
1.2533495 6.2035136 -0.91490585
1.0983593 6.2041593 -0.91082489
0.94471675 6.2047992 -0.9073078
0.79210937 6.2054324 -0.9043408
0.33909178 6.2073126 -0.89867282
0.18649414 6.1242557 -0.88573849
-0.25710937 6.1260004 -0.88635862
-0.4054004 6.1266131 -0.88760465
-0.56182617 6.2111297 -0.9015519
-0.71333009 6.2117548 -0.90387768
-0.86577147 6.2123818 -0.90674525
-1.1739453 6.2136526 -0.91414082
-1.4879102 6.214942 -0.92382598
-1.9734765 6.2169352 -0.94291884
-2.140166 6.2176175 -0.95057952
-2.6582713 6.2197366 -0.97780782
-2.8379588 6.2204704 -0.98840237
-3.2098925 6.2219901 -1.0120976
-3.4029002 6.2227774 -1.0252885
-3.8049121 6.2244143 -1.054608
-4.2315822 6.2261505 -1.0882587
-4.6875 6.2280021 -1.1268405
-4.9280858 6.2289777 -1.1482034
-6.6086717 6.2397246 -1.3139105
-6.9380078 6.2410564 -1.349051
-7.2857809 6.2424612 -1.3869662
-7.6537499 6.243947 -1.4279177
-8.9046288 6.2489934 -1.572616
-9.8158302 6.5407267 -1.7051677
-10.243643 5.8025541 -1.7019182
-10.374658 5.5504851 -1.7009323
-10.499717 5.2956047 -1.6999874
-10.731796 4.7780023 -1.6982239
-11.799179 4.2599664 -1.8134782
-12.167822 3.7401664 -1.8402297
-12.325654 3.1467144 -1.838973
-12.455917 2.5469642 -1.8379097
-12.599072 1.6382781 -1.836682
-12.632802 1.3335845 -1.8363711
-12.659502 1.0282513 -1.8361099
-12.67916 0.72247189 -1.8358983
-12.691768 0.41624999 -1.8357364
-12.697353 0.10994201 -1.8356241
-12.695859 -0.19649535 -1.8355618
-12.671787 -0.80875367 -1.8355867
-12.64917 -1.1142651 -1.8356738
-12.582939 -1.7234976 -1.8359975
-12.431123 -2.6303103 -1.8368552
-12.216963 -3.5250371 -1.8381566
-12.039961 -4.1127839 -1.8392681
-11.941319 -4.4035378 -1.8398966
-11.605234 -5.2618942 -1.8420684
-11.47999 -5.5428405 -1.8428869
-11.210029 -6.0960822 -1.844664
-10.771494 -6.1989431 -1.796599
-9.7552929 -6.5968738 -1.7024249
-9.5991888 -6.8345141 -1.7034719
-9.2703314 -7.299118 -1.7056863
-8.9198046 -7.7485538 -1.7080574
-8.7366018 -7.9673157 -1.7093005
-8.5482416 -8.181921 -1.7105811
-7.95292 -8.7996092 -1.7146428
-7.7446971 -8.9964094 -1.7160679
-7.5317969 -9.1884613 -1.7175273
-7.3142481 -9.3756561 -1.7190208
-7.0921969 -9.5578909 -1.7205472
-6.9501853 -10.939632 -1.8736267
-6.4260545 -11.282763 -1.8770517
-6.1576366 -11.444986 -1.8787749
-5.3170505 -11.867571 -1.8799528
-5.0333104 -12.002581 -1.8815073
-4.7465234 -12.131439 -1.8832018
-4.456543 -12.253712 -1.8849362
-3.5688574 -12.580112 -1.8903695
-2.9637499 -12.763271 -1.8941752
-2.6576953 -12.844304 -1.8961303
-2.3494627 -12.918242 -1.8981194
7.3733788 -7.9951615 -1.8231771
7.7625484 -7.6420121 -1.8260119
8.1342478 -7.2694359 -1.8287283
8.3132229 -7.0761237 -1.8300394
8.4874706 -6.8782859 -1.831318
8.6568356 -6.6760473 -1.8325634
8.8212109 -6.4695086 -1.8337743
9.9651852 -6.253283 -1.9721408
10.386581 -5.8390927 -1.9973937
10.530078 -5.589788 -1.9984673
11.257353 -4.0231457 -2.0039806
11.355449 -3.7517869 -2.0047388
11.446709 -3.4779446 -2.0054488
11.531123 -3.2018003 -2.0061111
11.678974 -2.6433573 -2.0072892
11.798681 -2.0778813 -2.0082695
11.924531 -1.2197369 -2.0093629
11.952061 -0.9317944 -2.0096262
11.972334 -0.64321285 -2.0098379
11.991025 -0.064908445 -2.0101073
11.989453 0.22443603 -2.010165
11.980566 0.51364744 -2.0101709
11.910332 1.3786255 -2.0098798
11.827314 1.9511572 -2.009429
11.649062 2.8000031 -2.0083706
11.313095 3.9054778 -2.0062582
11.211933 4.1759467 -2.0056074
10.51917 4.2096367 -1.8993047
10.008105 4.5769391 -1.8447888
9.5031347 5.5101004 -1.8414408
9.2166405 5.955915 -1.8395214
9.0652342 6.1731377 -1.8385028
7.4191308 6.1779194 -1.6184076
6.1159668 6.1834564 -1.4579129
5.8287692 6.1846757 -1.4246193
4.1174607 6.1913614 -1.2464201
3.9059081 6.1922541 -1.2272635
3.7006543 6.1931195 -1.2093812
3.5011718 6.1939607 -1.1926956
3.3070116 6.1947784 -1.1771425
2.5754492 6.1978521 -1.1250807
2.2318554 6.1992936 -1.1044875
2.0645311 6.1999946 -1.0954171
1.8998437 6.2006826 -1.0871203
1.7375391 6.2013617 -1.0795721
1.4191308 6.202692 -1.0666282
0.95380855 6.2046304 -1.0523037
0.6494531 6.2058964 -1.0459791
0.34802735 6.2071466 -1.0421417
-0.10033203 6.1252251 -1.0269132
-0.24828124 6.1258368 -1.0277208
-0.39655271 6.1264496 -1.029129
-0.55279297 6.2109623 -1.0452627
-0.70427734 6.2115874 -1.0479228
-0.85661131 6.2122149 -1.0512112
-1.6379882 6.2154241 -1.0774684
-1.9635937 6.2167583 -1.0928671
-2.1300879 6.2174406 -1.101703
-2.2994139 6.2181315 -1.1113349
-3.1984863 6.2217975 -1.1727092
-3.7924805 6.2242107 -1.2217933
-4.2183595 6.2259402 -1.2606561
-4.6733203 6.2277813 -1.3052112
-5.096406 6.1496525 -1.3388631
-5.616621 6.1478143 -1.3958929
-7.2642283 6.2421732 -1.6055349
-7.9339743 6.4915347 -1.7184368
-8.2273731 6.0934343 -1.7162405
-8.5016499 5.6826911 -1.7142041
-8.6313963 5.4728265 -1.7132369
-8.8758783 5.0446672 -1.7114069
-8.9904785 4.8266044 -1.7105451
-9.0999212 4.6060529 -1.7097189
-9.2041693 4.3831339 -1.7089291
-10.163379 4.2512727 -1.8467517
-10.390556 3.7683427 -1.8528003
-10.474746 3.5152984 -1.8521451
-10.691641 2.74594 -1.8504289
-10.854404 1.9640216 -1.8490925
-10.896513 1.7012304 -1.8487324
-10.962382 1.1732166 -1.8481414
-11.020478 0.11124939 -1.8474784
-11.019599 -0.15466918 -1.8474215
-11.012578 -0.42050293 -1.8474081
-10.980078 -0.95132691 -1.8475115
-10.923057 -1.4801391 -1.8477892
-10.735801 -2.5273871 -1.8488641
-10.673877 -2.7862387 -1.8492404
-10.605957 -3.0436578 -1.8496593
-10.532061 -3.2994969 -1.8501208
-10.452216 -3.5536196 -1.8506249
-10.366484 -3.8058965 -1.8511709
-10.074355 -4.5503345 -1.8530593
-9.9654493 -4.7939239 -1.8537713
-9.8508883 -5.0350208 -1.8545239
-9.1896973 -6.1951256 -1.8578475
-8.7443647 -6.2069483 -1.7975796
-8.326601 -6.2178736 -1.7420361
-7.8952441 -6.5119615 -1.7155938
-7.7405467 -6.7046542 -1.7166417
-7.2494235 -7.2610354 -1.7199813
-6.9002438 -7.6128473 -1.7223661
-6.5344434 -7.9484215 -1.7248724
-5.9561715 -8.4195795 -1.7288482
-5.7558789 -8.5676632 -1.730229
-5.5520115 -8.7111444 -1.731636
-5.3446288 -8.8498764 -1.7330691
-5.1338377 -8.9838104 -1.7345273
-4.7025585 -9.2368946 -1.7375159
-4.4822755 -9.3558969 -1.739045
-4.2590332 -9.4697638 -1.7405959
-4.0328808 -9.5784044 -1.7421689
-3.8755662 -10.608755 -1.8933194
-3.3648045 -10.801099 -1.8964339
-3.1058593 -10.888349 -1.8980395
-2.8446875 -10.969569 -1.8996768
-2.3162792 -11.113682 -1.9030414
-1.7806933 -11.232993 -1.9065211
-1.5105761 -11.283216 -1.9083019
-1.2390527 -11.327097 -1.9101092
-0.6925 -11.395648 -1.9137985
-0.14223632 -11.438356 -1.9175811
0.96464843 -11.445266 -1.9253955
1.5188378 -11.409149 -1.9294103
1.7955565 -11.381149 -1.9314413
2.8963084 -11.202802 -1.9396932
3.1691699 -11.14165 -1.9417828
3.4408104 -11.073894 -1.9438807
3.979619 -10.918636 -1.9480966
4.2465234 -10.831191 -1.9502124
4.7744336 -10.636801 -1.9544526
5.1135154 -9.4884844 -1.8068472
5.3459277 -9.3709984 -1.8085181
5.8022852 -9.118722 -1.8118041
6.0259666 -8.9840765 -1.8134173
6.6772752 -8.5468445 -1.8181252
6.8873239 -8.3902636 -1.8196472
7.0935841 -8.2284021 -1.8211437
7.6883593 -7.7120752 -1.825471
7.8781543 -7.5300522 -1.8268559
8.0635061 -7.3432207 -1.8282106
8.2443256 -7.1516895 -1.8295343
8.4204102 -6.9555912 -1.8308254
8.5916986 -6.7550488 -1.8320842
8.758008 -6.5501652 -1.8333086
9.2804489 -6.2663336 -1.8771299
9.7668848 -6.2570987 -1.9444097
10.177237 -6.1788187 -1.995833
10.329208 -5.9348245 -1.9969653
10.475126 -5.6869721 -1.9980558
10.875381 -4.921855 -2.0010669
11.110068 -4.3954086 -2.002851
11.318164 -3.8573887 -2.0044501
11.412109 -3.5844929 -2.0051787
11.579335 -3.0317781 -2.0064924
11.6525 -2.7523193 -2.0070758
11.981153 -0.4663977 -2.0099423
11.990947 0.11215454 -2.0101488
11.984882 0.4014447 -2.0101748
11.950937 0.97908992 -2.010072
11.888007 1.554237 -2.0097637
11.739482 2.4089844 -2.0089169
11.604893 2.9712956 -2.0080991
11.527012 3.2496479 -2.0076146
11.442236 3.5258763 -2.007081
10.16125 4.2415252 -1.8457919
10.05206 4.4837298 -1.8450775
9.9368944 4.7230082 -1.8443202
9.8157711 4.959239 -1.84352
9.5561523 5.4219108 -1.8417945
9.4178219 5.6480718 -1.8408705
8.9697361 6.3039541 -1.8378158
8.3489552 6.1739593 -1.7406508
7.9430175 6.1756887 -1.6866
7.5612988 6.1773138 -1.6367278
7.2012887 6.1788445 -1.5906183
6.5379977 6.1816645 -1.508297
6.2311034 6.1829681 -1.4714929
5.938652 6.1842084 -1.4372603
4.2013669 6.1910076 -1.2542125
3.9872363 6.1919107 -1.2345414
3.3817577 6.1944633 -1.1830481
2.8219628 6.1968169 -1.1414173
2.4689648 6.1982999 -1.118422
2.2975585 6.199019 -1.1082236
2.1291504 6.1997232 -1.0988429
1.963457 6.2004166 -1.0902489
1.480332 6.202436 -1.068921
1.1675586 6.2037406 -1.058194
1.0133399 6.2043815 -1.0538254
0.86029297 6.20502 -1.0501013
0.40636718 6.2069049 -1.0426944
0.25618163 6.2075272 -1.0414578
-0.19083984 6.1255984 -1.0273368
-0.6454004 6.2113442 -1.0468167
-0.79737306 6.2119718 -1.0498602
-0.95035154 6.2126007 -1.0535359
-1.1044726 6.2132354 -1.0578558
-1.2599707 6.2138739 -1.0628316
-1.7366503 6.2158294 -1.081866
-2.0651562 6.2171745 -1.0981801
-2.2333496 6.2178631 -1.1074998
-2.4045312 6.2185612 -1.1176351
-2.7569921 6.2199993 -1.1404972
-3.1250293 6.2214994 -1.1670867
-3.3157909 6.2222748 -1.1818998
-3.9199803 6.2247295 -1.2331238
-4.8191404 6.2283721 -1.3201048
-5.8689551 6.2365532 -1.4355651
-6.1605468 6.23773 -1.4696344
-6.7882128 6.2402592 -1.5456713
-7.1274705 6.2416239 -1.5881556
-7.875 6.5673661 -1.7189102
-8.0256443 6.3710732 -1.7177325
-8.1718845 6.1716909 -1.7166514
-8.4499311 5.7633562 -1.7145888
-8.5816212 5.5546174 -1.7136084
-8.9466209 4.9115348 -1.7108752
-9.0580759 4.6919389 -1.7100352
-9.1643362 4.4699173 -1.7092313
-9.3308401 4.2756009 -1.7205421
-10.263955 4.1163492 -1.8537778
-10.52335 3.3595605 -1.8517644
-10.597968 3.1036944 -1.8511761
-10.666631 2.8462408 -1.8506296
-10.836406 2.0657501 -1.8492439
-10.951504 1.2758832 -1.8482428
-10.977646 1.0111377 -1.8479949
-10.997646 0.74590272 -1.8477906
-11.020664 -0.051478881 -1.8474383
-11.005254 -0.58306152 -1.8474212
-10.9883 -0.84845394 -1.847478
-10.965244 -1.1133953 -1.847578
-10.936045 -1.3777374 -1.8477215
-10.811796 -2.1659119 -1.8484128
-10.758242 -2.4265637 -1.8487294
-10.633018 -2.9439499 -1.8494917
-10.400458 -3.7082181 -1.8509539
-10.311152 -3.959305 -1.8515258
