# .PCD v0.7 - Point Cloud Data file format
VERSION 0.7
FIELDS x y z
SIZE 4 4 4
TYPE F F F
COUNT 1 1 1
WIDTH 1497
HEIGHT 1
VIEWPOINT 0 0 0 1 0 0 0
POINTS 1497
DATA ascii
-2.670459 -5.011682 -1.9054244
-2.4276855 -5.1392274 -1.9071075
-2.3040137 -5.1986518 -1.9079664
-2.0523827 -5.3086286 -1.9097161
-1.9245605 -5.359107 -1.910606
-1.6653222 -5.4508772 -1.9124136
-0.99949217 -5.625371 -1.9170703
-0.86387694 -5.6506572 -1.9180208
-0.72763669 -5.6726828 -1.9189769
-0.59083009 -5.6914401 -1.9199377
-0.45354491 -5.7069054 -1.9209024
0.098730467 -5.7356396 -1.9247911
0.23734374 -5.7344975 -1.925769
0.37583983 -5.7300115 -1.9267467
0.51425779 -5.7221751 -1.9277251
1.3386133 -5.6050181 -1.9335661
1.6090918 -5.5394115 -1.9354888
1.7431543 -5.501677 -1.936443
1.8763183 -5.4606895 -1.9373916
2.1396582 -5.3690019 -1.9392698
2.2696972 -5.3183503 -1.9401987
2.398535 -5.2645226 -1.9411196
2.5260448 -5.207561 -1.942032
3.4907227 -4.6426411 -1.9489648
3.6032324 -4.5589595 -1.9497775
3.7137401 -4.4725099 -1.9505768
4.0322948 -4.1971121 -1.9528863
4.424531 -3.7944646 -1.9557446
4.6921387 -3.4679406 -1.9577066
4.7759571 -3.3547673 -1.9583235
4.9352145 -3.1223016 -1.9594997
5.0829687 -2.8821514 -1.9605966
5.2187986 -2.6349123 -1.9616113
5.4533787 -2.1215515 -1.9633825
5.5040722 -1.9897254 -1.9637703
5.7081933 -1.3137792 -1.965364
5.7663474 -1.0370758 -1.9658374
5.8107715 -0.75779659 -1.9662144
5.8413868 -0.47662413 -1.9664944
5.8581152 -0.19424926 -1.966677
5.8612695 -0.052823484 -1.9667312
5.7331347 1.2111334 -1.9661157
5.7016993 1.348991 -1.9659255
5.6286716 1.6221557 -1.9654723
5.5871482 1.7572687 -1.9652106
5.5423145 1.8913103 -1.9649249
5.3882322 2.286104 -1.9639279
5.0683985 2.9149573 -1.9618155
4.9953513 3.0356665 -1.9613278
4.9193649 3.154511 -1.9608189
4.8404784 3.2714117 -1.9602891
4.6743455 3.4991467 -1.9591693
4.497324 3.718327 -1.9579707
4.3098731 3.928432 -1.9566964
4.2124023 4.0299125 -1.956032
4.1124802 4.1289554 -1.9553498
3.9900486 4.2042265 -1.9448221
3.8083105 4.2118049 -1.9052471
3.4652832 4.2255402 -1.833602
3.30791 4.2382512 -1.803942
3.0855076 4.3729863 -1.7957584
2.8685253 4.51299 -1.7942598
2.7575879 4.5789433 -1.7934924
2.4159374 4.7601275 -1.7911239
2.2993457 4.8148627 -1.790314
2.0624609 4.9156656 -1.7886662
1.9422948 4.9616838 -1.7878289
1.6990527 5.0448222 -1.7861325
1.4522754 5.1159797 -1.7844081
1.3277344 5.1470146 -1.7835367
1.0767773 5.1999588 -1.7817787
0.95052731 5.2218289 -1.7808932
0.69678712 5.2563443 -1.7791113
0.56942379 5.2689729 -1.7782159
0.31423828 5.2849665 -1.7764196
0.058828123 5.2886052 -1.774619
-0.068789057 5.2857976 -1.7737182
-0.32339844 5.2709699 -1.7719193
-0.70279294 5.2258291 -1.7692327
-0.95315427 5.1806278 -1.7674567
-1.3234472 5.0905118 -1.7648245
-1.4451855 5.0546098 -1.7639575
-1.6857226 4.9741545 -1.7622427
-2.0382226 4.8322611 -1.7597241
-2.1532226 4.7794304 -1.7589008
-2.2668848 4.7238922 -1.7580866
-2.5991406 4.5413604 -1.7557014
-2.8127637 4.4068036 -1.7541641
-2.9170117 4.3357844 -1.7534125
-3.0195312 4.262332 -1.7526727
-3.1637108 4.2448554 -1.7763716
-3.3217285 4.2393656 -1.8071001
-3.6547363 4.2272124 -1.8749919
-4.2740235 3.6967621 -1.8960992
-4.4444823 3.4839416 -1.8948485
-4.5258398 3.3746068 -1.8942497
-4.6805468 3.1504076 -1.8931074
-4.7538671 3.0356665 -1.8925641
-4.8243747 2.9192646 -1.89204
-4.9570312 2.6816864 -1.8910503
-5.019043 2.5606499 -1.8905854
-5.0781932 2.4382188 -1.8901403
-5.1344137 2.3144403 -1.8897156
-5.2851462 1.9357836 -1.8885659
-5.3705077 1.6779425 -1.8879052
-5.4085937 1.5476178 -1.887607
-5.4435644 1.416438 -1.8873303
-5.5041504 1.1518451 -1.8868426
-5.5297165 1.0185688 -1.8866321
-5.5874314 0.61572385 -1.8861331
-5.6003027 0.48068482 -1.8860115
-5.6197166 0.074294433 -1.8857818
-5.6197848 -0.061329953 -1.8857505
-5.6166406 -0.19692688 -1.8857418
-5.4766407 -1.2714605 -1.8864844
-5.331162 -1.7942663 -1.8873913
-5.2871094 -1.9226706 -1.8876727
-5.1899118 -2.1762607 -1.8883004
-5.136826 -2.3012824 -1.8886462
-4.9599509 -2.6684911 -1.8898101
-4.895205 -2.7880425 -1.8902395
-4.6083689 -3.2501767 -1.8921574
-4.4487109 -3.4707134 -1.8932333
-4.3649607 -3.5781307 -1.8937994
-3.6071386 -4.3610315 -1.8989661
-3.1749511 -4.695745 -1.901938
-3.0619922 -4.7729473 -1.9027172
-2.830498 -4.9192553 -1.9043167
-2.5920997 -5.0544744 -1.9059674
-2.3472948 -5.1782675 -1.9076656
-2.222666 -5.2357769 -1.9085315
-1.5799414 -5.4780869 -1.9130098
-1.18125 -5.5861516 -1.9157972
-1.0466113 -5.6157932 -1.9167401
-0.36391601 -5.7152061 -1.9215325
-0.22598632 -5.7252135 -1.9225031
-0.08779297 -5.7319012 -1.9234762
0.050517578 -5.7352567 -1.9244511
0.60430664 -5.7152758 -1.9283618
0.8802734 -5.685214 -1.9303153
1.0177246 -5.6651697 -1.9312891
1.1547265 -5.6418004 -1.9322608
1.4269922 -5.585103 -1.934194
1.5621289 -5.5517955 -1.9351547
1.6964843 -5.5152068 -1.9361109
1.8300097 -5.4753466 -1.9370615
1.9625195 -5.4322491 -1.938006
2.3537402 -5.2836504 -1.9407994
2.481709 -5.2277865 -1.9417148
2.8573437 -5.0415416 -1.9444067
2.9795313 -4.9733624 -1.9452839
3.3358691 -4.7510605 -1.9478478
3.996289 -4.2303324 -1.9526248
4.198916 -4.0356417 -1.9540983
4.2966309 -3.934571 -1.9548106
4.7470212 -3.3944697 -1.9581103
4.8290625 -3.2799387 -1.9587152
4.9082813 -3.1633947 -1.9593005
5.0580273 -2.9245577 -1.9604112
5.2604098 -2.5529621 -1.9619234
5.3799314 -2.2972527 -1.9628247
5.5806642 -1.7694039 -1.9643607
5.6226754 -1.6344891 -1.9646879
5.7286134 -1.2240082 -1.9655285
5.8370504 -0.52576661 -1.9664526
5.8483691 -0.38477415 -1.9665645
5.8562207 -0.2435382 -1.9666522
5.8605661 -0.10214844 -1.9667151
5.8614354 0.039310914 -1.9667535
5.8588281 0.18072693 -1.9667672
5.843154 0.46319702 -1.9667212
5.8300977 0.60405213 -1.966661
5.7701659 1.0240252 -1.9663342
5.74332 1.1628808 -1.9661764
5.713037 1.3010186 -1.9659944
5.6793942 1.4383355 -1.9657882
5.6423826 1.5747882 -1.9655584
5.55832 1.8447002 -1.9650271
5.5113282 1.9779925 -1.9647259
5.2282324 2.6245673 -1.9628767
4.9461813 3.113286 -1.9609987
4.7876072 3.3464758 -1.9599334
4.5289354 3.6807561 -1.9581851
4.2466698 3.9948015 -1.9562658
4.1475978 4.0947037 -1.9555899
3.3591309 4.2300115 -1.8124037
3.1227245 4.3474774 -1.796015
2.906826 4.489357 -1.7945246
2.6845605 4.6204057 -1.7929864
2.5711424 4.6817913 -1.7922007
2.4563086 4.7403703 -1.7914041
1.7417382 5.0311847 -1.7864304
1.6190234 5.0693159 -1.7855737
1.4955273 5.1044378 -1.7847106
1.2462695 5.1656013 -1.7829663
1.1207031 5.1916056 -1.7820866
0.99458981 5.2145514 -1.7812023
0.61387694 5.2649198 -1.7785285
0.48637694 5.2755375 -1.7776316
0.35874999 5.2830667 -1.7767332
0.23105468 5.2875066 -1.7758336
-0.024296874 5.287127 -1.7740322
-0.53270507 5.2495074 -1.7704378
-1.034121 5.1633282 -1.7668817
-1.5239843 5.0296659 -1.7633961
-1.9978222 4.8500357 -1.760013
-2.1132617 4.7981682 -1.759187
-2.4514551 4.6263347 -1.7567624
-2.5612402 4.5637774 -1.7559738
-2.7760057 4.4309878 -1.7544289
-2.8808398 4.360827 -1.7536733
-5.2077146 -0.5291211 -1.8885502
-5.1336036 -1.0288311 -1.8889592
-5.0788574 -1.275545 -1.889289
-4.9346094 -1.7599765 -1.8901958
-4.8914452 -1.8788186 -1.8904732
-4.8454394 -1.9966232 -1.890771
-4.6338377 -2.4561605 -1.8921586
-4.5741892 -2.5678258 -1.8925539
-4.4469333 -2.786762 -1.8934016
-4.3794432 -2.8939509 -1.8938531
-4.1618457 -3.2056427 -1.8953171
-4.0843844 -3.3060527 -1.8958404
-4.00458 -3.404623 -1.8963809
-3.9223828 -3.5012984 -1.8969384
-3.7511914 -3.6887388 -1.8981032
-3.6622655 -3.7793911 -1.8987098
-3.5711718 -3.8679335 -1.8993323
-3.1861522 -4.1999645 -1.9019721
-2.7706738 -4.4942646 -1.9048355
-2.5526171 -4.6263742 -1.9063433
-2.3283398 -4.7480164 -1.9078976
-1.8629882 -4.9587173 -1.9111319
-1.7435449 -5.0044088 -1.9119638
-1.6230078 -5.0472455 -1.9128042
-1.3788086 -5.124239 -1.9145089
-1.2553124 -5.1583405 -1.9153723
-1.0058984 -5.2176547 -1.9171178
-0.62668943 -5.2840719 -1.9197775
-0.37136719 -5.3131151 -1.9215717
-0.24314453 -5.3230286 -1.9224737
0.013984375 -5.3335829 -1.9242849
0.52898437 -5.3174291 -1.9279211
0.65745115 -5.3056164 -1.9288299
0.91355467 -5.2726731 -1.9306437
1.0409961 -5.2515516 -1.9315475
1.1679688 -5.2273393 -1.9324485
1.2943847 -5.2000451 -1.9333465
1.9152832 -5.0178742 -1.9377673
2.0367186 -4.9724188 -1.9386343
2.1570995 -4.9240074 -1.9394943
2.276289 -4.8726587 -1.9403466
2.3942578 -4.8184094 -1.9411911
2.5109081 -4.7612748 -1.942027
2.7400098 -4.6385074 -1.9436709
3.0721679 -4.4335947 -1.9460604
3.4905858 -4.1232362 -1.9490823
3.5904002 -4.039299 -1.9498054
3.6881738 -3.9529233 -1.9505148
3.8773534 -3.7730267 -1.9518901
3.9686131 -3.6796176 -1.9525552
4.0576072 -3.5839682 -1.9532046
4.3102927 -3.2841725 -1.9550552
4.4663672 -3.0741892 -1.9562038
4.7469139 -2.6321776 -1.9582833
4.8102145 -2.5174718 -1.9587561
4.8707032 -2.4012163 -1.9592091
4.9283009 -2.2834835 -1.9596423
5.0348043 -2.0438836 -1.9604479
5.0836425 -1.9221579 -1.9608203
5.282207 -1.2972583 -1.9623632
5.3126268 -1.169558 -1.9626069
5.3399119 -1.0411346 -1.9628286
5.3640232 -0.91206539 -1.9630282
5.3401365 1.0468652 -1.9633062
5.3128805 1.175329 -1.9631432
5.212285 1.5560718 -1.9625207
5.1725488 1.6811835 -1.9622689
4.9285936 2.2897558 -1.9606869
4.8709669 2.4075568 -1.9603071
4.8104491 2.5238836 -1.9599069
4.5406151 2.9730546 -1.9581062
4.4664159 3.0809729 -1.9576074
3.7832811 3.8715117 -1.9529693
3.6875293 3.9603508 -1.9523141
2.9196973 4.2228045 -1.8522224
2.7749901 4.2281108 -1.8246379
2.6375389 4.2382197 -1.8010012
2.4165235 4.3364019 -1.7910315
2.2026465 4.4442582 -1.7895474
2.0938768 4.4942193 -1.7887918
1.9839746 4.5415006 -1.7880273
1.7609961 4.6279068 -1.7864742
1.6481152 4.6669974 -1.785687
1.304414 4.7675691 -1.7832856
0.95481443 4.8427777 -1.7808371
0.83728516 4.8621526 -1.7800125
0.60116208 4.8923273 -1.7783538
0.24532226 4.91606 -1.7758496
0.12657227 4.9182305 -1.7750125
0.0078417966 4.9175286 -1.7741748
-0.11077148 4.9139652 -1.7733374
-0.22919922 4.9075432 -1.7725005
-0.34741211 4.8982682 -1.7716647
-0.58279294 4.8712201 -1.7699984
-0.69983399 4.8534598 -1.7691689
-0.93232417 4.8095512 -1.767519
-1.2760448 4.7229667 -1.7650751
-1.3889941 4.6886592 -1.7642704
-1.5010546 4.6516666 -1.7634716
-1.7221972 4.5697308 -1.7618932
-1.8311719 4.5248432 -1.7611145
-1.9389746 4.4773722 -1.760343
-2.0455663 4.4273562 -1.75958
-2.1508496 4.3748274 -1.7588253
-2.2548046 4.3198175 -1.7580795
-2.9051659 4.2305717 -1.8515664
-3.0541601 4.2253141 -1.880982
-3.193584 4.2008076 -1.9038348
-3.2927928 4.1209636 -1.9031168
-3.4852245 3.9543865 -1.9017216
-3.7582128 3.6880584 -1.8997353
-3.8448339 3.5950944 -1.8991032
-3.9291992 3.5001311 -1.8984866
-4.0909276 3.3044066 -1.8973013
-4.1682615 3.203764 -1.8967327
-4.2430954 3.1013439 -1.8961816
-4.3154883 2.9972057 -1.8956473
-4.3853612 2.8914044 -1.8951303
-4.4526854 2.7840037 -1.894631
-4.5795312 2.5646441 -1.8936862
-4.6390038 2.4528089 -1.8932414
-4.6957812 2.3396204 -1.8928152
-4.7498436 2.2251427 -1.8924078
-4.938447 1.7556329 -1.8909705
-5.01583 1.5148315 -1.8903697
-5.0501852 1.3931555 -1.8900998
-5.0816698 1.270714 -1.8898498
-5.1102343 1.1475744 -1.8896201
-5.1783104 0.77466917 -1.8890548
-5.1950879 0.64943355 -1.888908
-5.2088962 0.5238446 -1.888782
-5.2197461 0.397973 -1.8886768
-5.2324414 0.14564759 -1.8885297
-5.2291017 -0.2332312 -1.8884671
-5.1988769 -0.6109271 -1.888594
-5.1828709 -0.73623961 -1.8886782
-5.1638575 -0.86114317 -1.8887838
-5.1419239 -0.98556697 -1.8889103
-5.0892382 -1.2327185 -1.8892256
-5.0248923 -1.4771484 -1.8896236
-4.988379 -1.5981683 -1.8898535
-4.8617868 -1.9556664 -1.8906649
-4.8139939 -2.0727596 -1.8909756
-4.7100587 -2.3034465 -1.8916558
-4.6540232 -2.4169099 -1.8920252
-4.595283 -2.5290322 -1.8924141
-4.5338864 -2.6397555 -1.8928219
-4.469873 -2.749017 -1.8932482
-4.4032617 -2.856755 -1.8936938
-4.3341212 -2.9629054 -1.8941572
-4.1882715 -3.1702089 -1.8951386
-3.8676367 -3.5632181 -1.8973105
-3.7816796 -3.6566436 -1.8978955
-3.6031737 -3.8373055 -1.8991134
-3.4161229 -4.0093851 -1.9003934
-3.3195312 -4.092083 -1.9010558
-2.8080077 -4.4701867 -1.9045776
-2.591084 -4.6040878 -1.9060773
-2.4802442 -4.6671524 -1.9068445
-2.2540038 -4.7853184 -1.9084132
-1.9043554 -4.9421191 -1.9108437
-1.2984766 -5.1467834 -1.9150707
-1.1744336 -5.178966 -1.915938
-0.79781246 -5.257586 -1.9185765
-0.6710254 -5.2777543 -1.9194663
-0.54371095 -5.294878 -1.9203603
-0.28786132 -5.319922 -1.9221591
-0.030908203 -5.332634 -1.9239684
0.097841792 -5.3343415 -1.9248763
0.35543945 -5.3284388 -1.9266946
0.4841699 -5.3208227 -1.9276042
0.61269528 -5.310092 -1.9285132
0.74100584 -5.2962537 -1.9294213
0.86901367 -5.279314 -1.9303281
0.9966113 -5.2592673 -1.9312327
1.2503809 -5.2099156 -1.9330338
1.3763672 -5.1806202 -1.9339291
1.5016894 -5.1482725 -1.9348205
1.749912 -5.0744567 -1.936588
1.8726953 -5.0330248 -1.9374635
2.1152637 -4.9412208 -1.9391952
2.2348633 -4.8908949 -1.9400504
2.3532519 -4.8376513 -1.9408975
2.9246483 -4.5287461 -1.9449981
3.0343261 -4.4586625 -1.9457877
3.2484863 -4.3104906 -1.9473319
3.3528416 -4.2324848 -1.9480859
3.4553223 -4.1519208 -1.9488271
3.5558398 -4.0688453 -1.9495548
3.6543455 -3.9833128 -1.9502691
3.7507226 -3.8953693 -1.9509691
3.845 -3.805063 -1.9516547
4.0268359 -3.6175723 -1.9529798
4.1142969 -3.5204937 -1.9536189
4.3622556 -3.216646 -1.9554371
4.4399023 -3.1113515 -1.9560087
4.5149708 -3.0041604 -1.9565628
4.7241993 -2.6717982 -1.958114
4.8499413 -2.4419239 -1.9590534
4.908545 -2.3246994 -1.9594936
4.9642868 -2.2060483 -1.9599137
5.0170898 -2.0860317 -1.9603133
5.1138182 -1.8422312 -1.9610513
5.1576757 -1.71859 -1.9613888
5.1984863 -1.5938854 -1.9617051
5.2362204 -1.4681921 -1.9620001
2.6784863 -0.085836791 -0.9668507
5.3488965 1.0019207 -1.9633578
5.3227439 1.1306158 -1.9632028
5.2934375 1.2586163 -1.9630252
5.22542 1.5122223 -1.9626032
5.1867676 1.6376715 -1.9623591
4.947988 2.2483478 -1.9608144
4.8318849 2.4834948 -1.9600488
4.7695312 2.5988269 -1.9596354
4.7043848 2.712564 -1.9592019
4.6364841 2.8246441 -1.9587485
4.4925876 3.0435576 -1.9577835
4.4166794 3.1502569 -1.9572723
4.2571874 3.3578374 -1.9561948
4.087832 3.5572412 -1.9550457
3.9995604 3.6537261 -1.9544451
3.8161914 3.8399811 -1.9531943
3.7211523 3.9296453 -1.9525443
3.6240137 4.0169291 -1.9518789
3.5248046 4.1017814 -1.9511987
3.4235547 4.1841536 -1.9505033
3.2774999 4.2089128 -1.9246054
2.8249512 4.2262993 -1.8340493
2.5577734 4.257791 -1.7920097
2.4532714 4.3165288 -1.7912861
2.3474121 4.3726788 -1.7905521
2.2403123 4.4262176 -1.7898089
2.0224218 4.5253215 -1.7882947
1.800166 4.6136308 -1.7867472
1.6875585 4.6536808 -1.7859622
1.228955 4.7860627 -1.7827579
1.1125878 4.8121281 -1.781943
0.87832028 4.855722 -1.7803004
0.76051754 4.8732376 -1.7794735
0.52402341 4.8996768 -1.7778115
0.40543944 4.9085879 -1.7769772
0.28673828 4.9146304 -1.7761413
0.16797851 4.9177985 -1.7753042
0.049238279 4.9180999 -1.7744669
-0.18793945 4.9101067 -1.7727923
-0.54184568 4.87675 -1.7702883
-0.65907228 4.8599725 -1.7694577
-0.77582031 4.840384 -1.7686299
-0.89197266 4.818007 -1.7678055
-1.0075097 4.7928534 -1.7669848
-1.1223534 4.7649407 -1.7661685
-1.2364355 4.7342887 -1.7653567
-1.3497266 4.7009258 -1.7645501
-1.4620702 4.6648712 -1.7637495
-1.5735155 4.626142 -1.7629547
-1.6839453 4.5847721 -1.7621664
-1.7933007 4.5407891 -1.7613852
-2.0085547 4.445086 -1.7598449
-2.1143553 4.3934283 -1.7590868
-2.21875 4.3392777 -1.7583383
-2.3218458 4.2826667 -1.7575983
-2.5718651 4.2416167 -1.7896502
-2.8542187 4.2323246 -1.8417547
-3.1537499 4.2216935 -1.901206
-3.2584178 4.1490655 -1.9033657
-3.3562987 4.0677094 -1.9026567
-3.4522557 3.9840753 -1.901961
-3.5461133 3.898211 -1.9012792
-3.6378808 3.8101666 -1.9006119
-3.7274804 3.7199883 -1.8999593
-3.8148925 3.6277368 -1.8993219
-3.9828906 3.4372246 -1.8980936
-4.1415625 3.2390623 -1.8969291
-4.2172751 3.1372545 -1.8963721
-4.2905273 3.0337067 -1.8958317
-4.4951463 2.713217 -1.8943155
-4.6185741 2.4919555 -1.8933945
-4.8798728 1.9158697 -1.8914201
-4.9649024 1.6776086 -1.8907659
-5.0031543 1.5570666 -1.8904687
-5.0385351 1.4356707 -1.8901914
-5.1005955 1.1905859 -1.8896978
-5.1717577 0.81823975 -1.8891109
-5.18958 0.69314271 -1.8889569
-5.216289 0.44188657 -1.8887112
-5.2251954 0.31586608 -1.8886197
-5.2310839 0.18967773 -1.8885493
-5.2340136 0.063383177 -1.8884999
-5.2308688 -0.1892218 -1.8884646
-5.2248144 -0.31539917 -1.8884784
-5.2157712 -0.44139647 -1.8885134
-5.2037692 -0.56714964 -1.8885692
-5.1708202 -0.8176434 -1.8887447
-5.0695605 -1.3126446 -1.8893462
-5.0369334 -1.4347521 -1.8895484
-5.0014453 -1.5560671 -1.8897711
-4.9218554 -1.7960501 -1.8902776
-4.8778124 -1.9145849 -1.8905613
-4.8309469 -2.0320621 -1.8908651
-4.6738377 -2.377496 -1.8918945
-4.5556054 -2.6013405 -1.8926774
-4.4924903 -2.7110906 -1.8930976
-4.4267774 -2.8193657 -1.8935363
-4.3585057 -2.9260778 -1.8939935
-4.2876954 -3.0311623 -1.8944689
-4.2144141 -3.1345651 -1.8949624
-4.1386423 -3.2362218 -1.8954736
-3.7245116 -3.7163954 -1.8982852
-3.6349218 -3.8064151 -1.8988966
-3.4493358 -3.9800243 -1.9001659
-3.2555566 -4.1447144 -1.9014953
-3.1557226 -4.2235913 -1.9021811
-3.0540526 -4.3001041 -1.902881
-2.9504492 -4.3741803 -1.9035947
-2.8451366 -4.4458003 -1.9043212
-2.629375 -4.5814834 -1.9058124
-2.1791015 -4.8214688 -1.9089334
-1.4643945 -5.098712 -1.9139111
-1.0931933 -5.1983299 -1.9165066
-0.84190428 -5.2498398 -1.9182674
-0.33256835 -5.3164396 -1.9218446
-0.20427734 -5.3254204 -1.9227475
-0.075761721 -5.3313093 -1.9236526
0.052939452 -5.3341002 -1.9245596
0.3105371 -5.3303623 -1.9263775
0.4392871 -5.3238292 -1.927287
0.69628906 -5.3014317 -1.9291047
0.95216793 -5.2666092 -1.9309175
1.0794922 -5.2445488 -1.9318206
1.2062988 -5.2194028 -1.9327208
1.3325 -5.1911826 -1.9336174
1.5828809 -5.1255603 -1.9353982
1.7068847 -5.0881934 -1.9362814
2.0732813 -4.9580789 -1.9388953
2.1932909 -4.9087744 -1.9397531
2.5459473 -4.7434254 -1.9422781
3.1048338 -4.4115677 -1.9462957
3.2116601 -4.3370819 -1.9470663
3.5210254 -4.0980964 -1.9493028
3.7173631 -3.926307 -1.9507267
3.9051855 -3.7450006 -1.9520929
4.0840626 -3.5545931 -1.9533978
4.3345604 -3.252903 -1.9552335
4.4890819 -3.0417492 -1.9563714
4.5624413 -2.9333456 -1.9569137
4.7011328 -2.7112224 -1.9579425
4.9451661 -2.2475803 -1.9597692
4.9990134 -2.1280305 -1.9601763
5.1427245 -1.7618231 -1.9612736
5.1845899 -1.6374868 -1.9615972
5.2591114 -1.3858416 -1.9621801
5.291738 -1.2586926 -1.9624394
5.3212109 -1.1307617 -1.9626764
2.6788671 -0.10842102 -0.96728474
2.6784961 0.085604243 -0.96685272
5.3572655 0.95689636 -1.9634064
5.3040037 1.214065 -1.9630896
5.2381735 1.4682537 -1.9626831
5.2005758 1.5940435 -1.9624466
5.1599412 1.718841 -1.9621884
5.1162109 1.8425958 -1.9619082
5.0694823 1.9652154 -1.9616067
4.4434471 3.1132653 -1.9574527
4.3658595 3.2187274 -1.9569294
4.0306153 3.6203313 -1.9546565
3.9408398 3.715379 -1.9540451
3.4590917 4.1557193 -1.9507475
3.0231934 4.2188983 -1.8725641
2.875459 4.2244477 -1.8436816
2.7320213 4.2296491 -1.8166414
2.3845215 4.3533955 -1.7908096
2.2778027 4.4078484 -1.7900692
2.169873 4.459661 -1.7893198
2.0607519 4.5088115 -1.7885613
1.7269336 4.6400285 -1.7862369
1.61375 4.6782804 -1.7854472
1.499707 4.7137604 -1.7846508
1.1532325 4.8033624 -1.7822274
0.91928709 4.8489423 -1.7805877
0.68363279 4.8831058 -1.7789334
0.565332 4.8958917 -1.778102
0.32813475 4.9128494 -1.7764328
0.090615235 4.9183197 -1.7747588
-0.14663085 4.912322 -1.773084
-0.26501954 4.9050398 -1.7722473
-0.61827147 4.8661432 -1.7697471
-0.73517579 4.8475323 -1.7689182
-0.85151362 4.8261271 -1.7680928
-1.0823828 4.7749834 -1.7664526
-1.196748 4.7452912 -1.7656393
-1.3103223 4.7128692 -1.7648309
-1.4229981 4.6777506 -1.764028
-1.5347754 4.6399469 -1.763231
-1.8639257 4.5107427 -1.7608801
-2.0775781 4.4117241 -1.7593505
-2.182451 4.3584428 -1.7585986
-2.949785 4.2290177 -1.8602653
-3.322412 4.0963383 -1.9029024
-3.4190331 4.0134916 -1.9022018
-3.6964941 3.7516692 -1.9001852
-3.9542577 3.470999 -1.8983032
-4.0356054 3.3735118 -1.8977072
-4.1145897 3.2741387 -1.8971274
-4.3368945 2.9653571 -1.895489
-4.4060059 2.8590698 -1.8949773
-4.5364943 2.6418035 -1.8940076
-4.7656837 2.1902509 -1.892288
-4.8161521 2.0741968 -1.8919054
-4.9088182 1.8387097 -1.8911984
-4.9508886 1.7194287 -1.8908743
-4.9901462 1.5991974 -1.8905702
-5.0600095 1.3561736 -1.8900219
-5.1430368 0.98623103 -1.889352
-5.1836915 0.73680419 -1.8890083
-5.1995897 0.61146116 -1.8888677
-5.2293553 0.23369019 -1.8885714
-5.232295 -0.14520019 -1.8884645
-5.177412 -0.77409118 -1.8887081
-5.1575294 -0.89885193 -1.8888201
-5.1346774 -1.0231255 -1.8889529
-5.1089258 -1.1468225 -1.8891064
-5.0802441 -1.2698963 -1.8892807
-5.0486326 -1.3922687 -1.8894757
-4.9767575 -1.634627 -1.8899273
-4.936543 -1.7544769 -1.8901837
-4.893486 -1.8733724 -1.8904601
-4.747539 -2.2235687 -1.8914099
-4.6933885 -2.3379216 -1.8917657
-4.576992 -2.5627117 -1.8925353
-4.3826075 -2.8890495 -1.8938321
-4.3126755 -2.9947095 -1.8943011
-4.1653614 -3.2009811 -1.8952932
-4.0880079 -3.3014681 -1.895816
-3.9262207 -3.4968963 -1.8969125
-3.8418651 -3.5917027 -1.897486
-3.6664159 -3.7752602 -1.8986814
-3.1907616 -4.196352 -1.9019402
-3.0896873 -4.2736931 -1.9026356
-2.9867969 -4.3486218 -1.9033444
-2.7755957 -4.4911017 -1.9048015
-2.6674707 -4.5585623 -1.9055487
-2.5577049 -4.6234508 -1.9063081
-2.3335352 -4.7453351 -1.9078616
-1.9866699 -4.9079018 -1.9102709
-1.8684765 -4.9565454 -1.9110936
-1.7490722 -5.0023675 -1.9119252
-1.2610253 -5.156836 -1.9153323
-1.0116796 -5.216423 -1.9170774
-0.88590819 -5.2417288 -1.917959
-0.5051074 -5.2994523 -1.9206314
-0.24905273 -5.322639 -1.9224322
0.1368164 -5.3342466 -1.9251513
0.265625 -5.3319111 -1.9260601
0.39440429 -5.3264599 -1.9269699
0.77978516 -5.2914548 -1.929696
1.4143652 -5.1711531 -1.9341992
1.6637402 -5.1015677 -1.9359741
1.909668 -5.0198975 -1.9377273
2.7348242 -4.6414542 -1.9436337
2.8472071 -4.5760145 -1.9444412
2.9580176 -4.5078192 -1.9452384
3.174619 -4.363349 -1.9467989
3.2802637 -4.2871556 -1.9475615
3.3840818 -4.2083683 -1.9483117
3.5858788 -4.0432205 -1.9497726
4.224668 -3.3908367 -1.954427
4.537168 -2.9713528 -1.9567267
4.6777344 -2.7504363 -1.9577686
4.7439451 -2.6374233 -1.9582613
4.807373 -2.5227847 -1.9587348
4.9257226 -2.2889342 -1.9596227
5.0324998 -2.049458 -1.9604305
5.0814548 -1.9277837 -1.9608036
5.1273923 -1.8049307 -1.9611557
5.2102246 -1.5559497 -1.9617965
5.2470312 -1.4299731 -1.9620849
5.3387208 -1.0470562 -1.9628189
2.6745312 -0.066159666 -0.96522617
2.6735938 0.062936403 -0.96485561
5.3652735 0.91179866 -1.9634527
5.3413181 1.0409362 -1.9633132
5.314209 1.1694342 -1.9631513
5.2839355 1.2972027 -1.9629669
5.2140231 1.5502887 -1.9625316
4.8736715 2.4021654 -1.960325
4.8132911 2.5185633 -1.9599258
4.6841211 2.7466631 -1.9590667
4.5439744 2.9680419 -1.9581288
4.2321973 3.3885498 -1.9560254
3.9724023 3.6824882 -1.9542601
3.7876463 3.8673613 -1.9529992
3.6919823 3.9563129 -1.9523447
3.5941992 4.0428691 -1.9516746
3.3891308 4.2043672 -1.9483334
2.926455 4.2225518 -1.8535383
2.6435351 4.2373638 -1.8018838
2.5262792 4.2758341 -1.7917918
2.0988965 4.4919791 -1.7888266
1.9890527 4.5393791 -1.7880626
1.6533105 4.6652579 -1.7857232
1.1937988 4.7942495 -1.7825116
0.60661131 4.8917618 -1.7783923
0.36952147 4.9107194 -1.7767243
0.25079101 4.9158926 -1.775888
0.13204101 4.9181929 -1.7750509
-0.10532226 4.9141936 -1.7733759
-0.69445312 4.8543386 -1.769207
-0.92700195 4.8106875 -1.7675567
-1.1569629 4.75595 -1.7659222
-1.383828 4.6902947 -1.7643073
-1.4959179 4.6534295 -1.7635083
-1.717168 4.571734 -1.7619292
-1.8261719 4.5269647 -1.76115
-2.0406835 4.4297147 -1.7596148
-2.1460741 4.3773003 -1.7588595
-2.352793 4.2650557 -1.757376
-2.4769237 4.2445698 -1.7730547
-2.6135936 4.2402921 -1.797096
-2.8984179 4.2308064 -1.8502573
-3.0472264 4.2255659 -1.8795853
-3.2882323 4.1246929 -1.9031498
-3.3855467 4.0426359 -1.9024447
-3.5741112 3.8717914 -1.9010757
-3.8408885 3.5994177 -1.899132
-3.9253612 3.5045433 -1.8985146
-4.0873241 3.3089972 -1.8973275
-4.1647167 3.2084351 -1.8967588
-4.239697 3.1061041 -1.8962066
-4.3821974 2.896306 -1.8951538
-4.514492 2.6801062 -1.8941714
-4.5767479 2.5697594 -1.893707
-4.6363378 2.4579852 -1.8932613
-4.6932421 2.3448534 -1.8928341
-4.9365525 1.761137 -1.890985
-5.0141602 1.5204114 -1.8903826
-5.0486817 1.3987732 -1.8901117
-5.1347556 1.0295166 -1.8894202
-5.1774511 0.78042537 -1.8890623
-5.1943846 0.65520078 -1.8889143
-5.2322755 0.15146057 -1.888532
-5.2342968 0.025147093 -1.888489
-5.2333102 -0.10116333 -1.8884672
-5.2293553 -0.22742675 -1.8884665
-5.2224121 -0.35354981 -1.8884866
-5.2124705 -0.47948545 -1.8885281
-5.1995411 -0.60514528 -1.8885905
-5.0599899 -1.3496832 -1.8894051
-4.9901171 -1.5926144 -1.8898425
-4.863945 -1.9502554 -1.8906511
-4.7657809 -2.1834006 -1.8912902
-4.6566501 -2.4117143 -1.8920081
-4.3373532 -2.9580538 -1.8941356
-4.1152539 -3.2666411 -1.8956317
-3.955117 -3.4633718 -1.8967162
-3.8715332 -3.5588686 -1.897284
-3.7857029 -3.652384 -1.8978682
-3.6073828 -3.8332393 -1.8990847
-3.5149901 -3.9204831 -1.8997165
-3.3240137 -4.0883288 -1.9010251
-3.2255468 -4.168828 -1.9017013
-3.022871 -4.3227744 -1.9030956
-2.9187889 -4.3961148 -1.9038131
-2.7053614 -4.5353298 -1.9052868
-2.4853613 -4.664309 -1.9068091
-2.3730469 -4.7248516 -1.9075875
-2.0275977 -4.8902802 -1.9099864
-1.7908496 -4.9867144 -1.9116342
-1.6707128 -5.0306807 -1.9124715
-1.1801562 -5.1775503 -1.915898
-0.80364257 -5.2565842 -1.9185357
-0.676875 -5.2768936 -1.919425
-0.421875 -5.3083549 -1.9212167
-0.29377928 -5.3194852 -1.9221176
-0.036835935 -5.33248 -1.9239269
0.22071289 -5.3330765 -1.9257433
0.47823241 -5.321239 -1.9275622
0.86312497 -5.2801576 -1.9302864
0.99074215 -5.2602549 -1.9311911
1.2445605 -5.211184 -1.9329925
1.3705761 -5.1820364 -1.9338881
1.4959277 -5.1498265 -1.9347795
1.7442578 -5.076292 -1.9365478
1.8670801 -5.034996 -1.9374233
2.1097167 -4.9434662 -1.9391556
2.347832 -4.840167 -1.9408587
2.4650195 -4.7841654 -1.941698
2.5808301 -4.7253103 -1.9425284
2.8081834 -4.5991459 -1.9441607
2.9195702 -4.5319085 -1.9449617
3.0293262 -4.461946 -1.9457518
3.4506543 -4.155683 -1.9487933
3.9328516 -3.7167559 -1.9522942
4.0227537 -3.6219878 -1.9529501
4.110332 -3.5250087 -1.9535898
4.2783103 -3.3246815 -1.9548204
4.358613 -3.2214406 -1.9554102
4.4363866 -3.1162415 -1.9559828
4.5115623 -3.0091305 -1.9565375
4.5841308 -2.9001851 -1.9570743
4.6540136 -2.7894518 -1.9575922
4.7211719 -2.6770089 -1.9580915
4.9058981 -2.3301296 -1.9594735
4.9617872 -2.2115369 -1.9598948
5.0147166 -2.0915902 -1.9602956
5.0647068 -1.9703485 -1.9606757
5.1117477 -1.8478912 -1.9610354
5.19666 -1.5996435 -1.9616909
5.2693162 -1.347442 -1.962261
5.3009958 -1.2200586 -1.9625133
5.3295312 -1.0919061 -1.9627438
2.666328 -0.15289368 -0.96354872
5.3240037 1.1247052 -1.9632101
5.2948532 1.2527343 -1.9630339
5.2625489 1.3800049 -1.9628351
5.227119 1.50643 -1.9626138
5.1470118 1.756416 -1.9621059
5.0547462 2.0020971 -1.9615111
4.8346581 2.478147 -1.9600672
4.7724805 2.593554 -1.9596549
4.7074313 2.7073615 -1.9592221
4.5691895 2.9299579 -1.9582978
4.4960251 3.0385993 -1.9578067
4.2609763 3.3531487 -1.9562205
4.0918164 3.5527458 -1.9550729
3.9132128 3.7436969 -1.9538565
3.7255957 3.9255657 -1.9525747
3.1289258 4.2148099 -1.8938552
2.8316112 4.2260566 -1.8353094
2.6893847 4.2311587 -1.8088046
2.5625391 4.2550273 -1.7920429
2.4581249 4.31388 -1.7913197
2.352334 4.3701506 -1.7905865
2.2452636 4.4238081 -1.7898434
2.0274901 4.5231571 -1.7883301
1.9169335 4.5688019 -1.7875607
1.6927637 4.6518974 -1.7859985
1.4650586 4.7239408 -1.7844088
1.2342968 4.7847929 -1.7827951
1.1179687 4.8109894 -1.7819805
0.88373047 4.8548465 -1.7803384
0.64784181 4.8872809 -1.7786821
0.29219726 4.9144168 -1.7761798
0.17344727 4.9177165 -1.7753427
0.054707032 4.9181485 -1.7745056
-0.063984372 4.9157147 -1.7736678
-0.18249999 4.9104242 -1.7728307
-0.300791 4.9022722 -1.7719946
-0.53644532 4.8774543 -1.7703266
-0.6537109 4.860805 -1.7694958
-0.77042967 4.8413467 -1.7686681
-0.88664061 4.8190985 -1.7678432
-1.4569433 4.6665874 -1.7637863
-1.7883008 4.5428681 -1.7614208
-2.0036426 4.4473991 -1.7598802
-2.1094725 4.3958611 -1.759122
-2.213994 4.3418231 -1.7583724
-2.3171484 4.2853303 -1.7576321
-2.4323926 4.2500272 -1.7667221
-2.9948046 4.2274332 -1.8691385
-3.2538476 4.1527619 -1.9033988
-3.3518748 4.071507 -1.9026889
-3.4478807 3.9879718 -1.9019926
-3.5418456 3.90221 -1.9013103
-3.7233984 3.7241864 -1.8999892
-3.896162 3.537852 -1.898728
-3.9791503 3.4416986 -1.898121
-4.1380177 3.2437053 -1.8969553
-4.2871971 3.0385144 -1.8958561
-4.4264255 2.8265789 -1.8948261
-4.5553317 2.6083972 -1.8938669
-4.61584 2.4971161 -1.8934149
-4.78125 2.1552515 -1.8921702
-4.9630566 1.6831409 -1.8907803
-5.0695801 1.3191278 -1.889946
-5.0992966 1.1962525 -1.8897085
-5.149951 0.94861573 -1.8892947
-5.1888185 0.69891053 -1.8889636
-5.2037988 0.57344788 -1.8888294
-5.2158103 0.44768432 -1.8887157
-5.2339454 0.069194943 -1.8885015
-5.233994 -0.057118528 -1.8884726
-5.2162695 -0.43559995 -1.8885113
-5.2043848 -0.56137145 -1.8885664
-5.1717091 -0.81189632 -1.8887399
-5.1509376 -0.93651485 -1.888858
-5.0031347 -1.5504968 -1.8897604
-4.9649024 -1.6709979 -1.8900027
-4.8331833 -2.0266833 -1.8908507
-4.7314353 -2.2583098 -1.8915155
-4.6764841 -2.3722765 -1.8918771
-4.3616991 -2.921196 -1.8939722
-4.2910156 -3.0263631 -1.8944467
-4.1421876 -3.231581 -1.8954496
-4.0641503 -3.3315301 -1.8959774
-3.8158886 -3.6200039 -1.8976626
-3.6391015 -3.8023109 -1.898868
-3.4536912 -3.9761264 -1.9001361
-3.3579004 -4.059711 -1.9007926
-3.1603711 -4.2200084 -1.9021493
-3.0587597 -4.2966328 -1.9028485
-2.9552734 -4.3708258 -1.9035617
-2.5241601 -4.6425729 -1.9065405
-2.4123731 -4.7040372 -1.9073147
-2.2991114 -4.7628503 -1.9081002
-2.0683692 -4.8723211 -1.9097029
-1.8324609 -4.9707093 -1.9113443
-1.7127246 -5.0156727 -1.9121786
-1.4700292 -5.0969801 -1.9138719
-1.3472167 -5.1332688 -1.9147298
-0.84769529 -5.2487912 -1.9182266
-0.72111326 -5.2701569 -1.9191146
-0.59404296 -5.2884817 -1.9200066
-0.46646485 -5.3037543 -1.920903
-0.33849609 -5.3159547 -1.9218029
-0.2101953 -5.3250737 -1.9227058
-0.081699215 -5.3311067 -1.9236108
0.30458984 -5.3305888 -1.9263355
0.43335935 -5.3241978 -1.927245
0.5619629 -5.3146982 -1.9281543
0.69038087 -5.3020868 -1.929063
0.94629878 -5.2675462 -1.930876
1.3267089 -5.1925516 -1.9335761
1.8243457 -5.0497403 -1.9371188
1.9465526 -5.0064969 -1.9379904
2.1877832 -4.9111085 -1.9397137
2.3066602 -4.8590198 -1.940564
2.7689843 -4.621942 -1.943879
3.3118749 -4.2635756 -1.9477897
3.4150877 -4.1840286 -1.948536
3.9009666 -3.749284 -1.952062
3.9916601 -3.6552894 -1.9527231
4.4095507 -3.1531472 -1.9557852
4.4856544 -3.0466924 -1.956346
4.5591211 -2.9383714 -1.956889
4.6299314 -2.8282714 -1.9574136
4.8260059 -2.4877803 -1.9588741
4.8857617 -2.3711376 -1.9593222
4.9965916 -2.133568 -1.960158
5.2575388 -1.3916724 -1.9621677
5.3463864 -1.0080804 -1.962882
5.3696971 -0.87885499 -1.9630759
2.6673241 -0.046491086 -0.96247494
2.678076 0.082610473 -0.96666747
2.6690722 0.14687011 -0.96441334
5.3053808 1.20818 -1.9630978
5.2741699 1.3357067 -1.962907
5.2398338 1.4624364 -1.9626936
5.2023826 1.5882684 -1.9624581
5.1618552 1.7131244 -1.9622005
5.0717087 1.9595879 -1.961621
5.02209 2.0810649 -1.9612988
4.9695702 2.2012689 -1.9609557
4.9140821 2.3201251 -1.9605914
4.8556833 2.4375587 -1.9602063
4.7944922 2.5534759 -1.9598013
4.6636229 2.7806053 -1.9589299
4.5218358 3.0009105 -1.95798
4.4469724 3.1083581 -1.9574765
4.2069626 3.4190733 -1.9558544
4.0346775 3.6158977 -1.9546843
3.9450097 3.7110455 -1.9540734
3.7589257 3.8945379 -1.9528027
3.662627 3.9827521 -1.9521435
3.564209 4.0685759 -1.9514691
3.3403516 4.2063665 -1.9379028
3.1826854 4.212697 -1.9048703
3.0301073 4.2186322 -1.8739407
2.7385449 4.2294159 -1.8178489
1.7321289 4.6381989 -1.7862729
1.5049707 4.7121878 -1.7846878
1.3902148 4.7449942 -1.7838857
1.2747265 4.7749982 -1.783078
1.0419043 4.8265214 -1.7814478
0.92469722 4.8480215 -1.7806257
0.80705076 4.8666668 -1.7798004
0.68907225 4.8824482 -1.7789717
0.57076168 4.8953667 -1.7781402
0.3336035 4.9125886 -1.7764713
-0.022617187 4.9168863 -1.7739599
-0.14120117 4.9125886 -1.7731225
-0.37767577 4.8954363 -1.7714508
-0.49545896 4.8825946 -1.770617
-0.61287105 4.8669305 -1.7697853
-0.72979492 4.8484502 -1.7689563
-1.3051074 4.714417 -1.764868
-1.4178613 4.6794205 -1.7640646
-1.5296386 4.6417484 -1.7632676
-1.9664356 4.464787 -1.7601465
-2.1776366 4.3609476 -1.7586331
-2.2813377 4.3053045 -1.757889
-2.3885643 4.2561111 -1.7608337
-2.5178809 4.2433076 -1.780159
-2.797246 4.2342582 -1.8309181
-4.8548727 -0.61196226 -1.8910202
-4.8201756 -0.84557736 -1.8912115
-4.7474704 -1.1923199 -1.8916453
-4.483408 -1.9753125 -1.8933294
-4.3843651 -2.1900854 -1.8939788
-4.2752342 -2.3999922 -1.8947009
-3.889492 -2.9958594 -1.8972857
-3.8170409 -3.0896444 -1.8977752
-3.7423534 -3.1817033 -1.8982812
-3.665498 -3.2719858 -1.8988028
-3.4221873 -3.5316477 -1.9004595
-3.249824 -3.6949432 -1.9016382
-3.069746 -3.8499389 -1.9028729
-2.8823826 -3.9962749 -1.904161
-2.7860742 -4.0660796 -1.9048245
-2.6880956 -4.133594 -1.9055002
-2.588496 -4.1987739 -1.9061879
-2.487334 -4.2615786 -1.9068868
-2.2805274 -4.3799143 -1.9083188
-1.8506445 -4.5864954 -1.9113036
-1.6285156 -4.6742258 -1.9128503
-1.5158594 -4.7140965 -1.9136358
-1.1723437 -4.8174362 -1.9160351
-0.82185543 -4.8958859 -1.9184893
-0.70376951 -4.9164171 -1.9193176
-0.58517575 -4.9341049 -1.9201502
-0.46614257 -4.9489446 -1.9209863
-0.34673828 -4.9609208 -1.9218256
-0.22701171 -4.9700208 -1.9226681
-0.10708007 -4.9762373 -1.9235126
0.013037109 -4.9795623 -1.9243591
0.13327149 -4.9799919 -1.9252071
0.37374023 -4.9721417 -1.9269049
0.4938086 -4.9638634 -1.9277536
0.61373043 -4.9526796 -1.9286021
1.44208 -4.7935591 -1.9344809
1.6731055 -4.7224131 -1.9361264
1.787334 -4.6826329 -1.9369411
2.0128613 -4.5947647 -1.9385519
2.1240234 -4.5467157 -1.9393469
2.2340233 -4.4959617 -1.9401345
2.4503124 -4.3864398 -1.9416848
2.5564356 -4.3277316 -1.9424468
2.7644043 -4.20258 -1.9439422
2.9661815 -4.0673485 -1.9453964
3.1612499 -3.9223382 -1.9468051
3.5294237 -3.604315 -1.9494745
3.616533 -3.5192425 -1.9501083
3.7015917 -3.4320352 -1.9507281
3.7845018 -3.3427474 -1.9513333
4.0199413 -3.0629332 -1.9530576
4.1653223 -2.866982 -1.9541278
4.2344141 -2.7663546 -1.954638
4.3010058 -2.6640363 -1.9551312
4.4266601 -2.4545875 -1.9560651
4.4856153 -2.3475826 -1.9565052
4.541914 -2.2391355 -1.9569272
4.5955958 -2.1293192 -1.9573307
4.646543 -2.0181999 -1.9577154
4.6466699 2.0239165 -1.9586376
4.4856544 2.3534679 -1.9575771
4.365088 2.5661058 -1.9567753
4.3009372 2.670105 -1.9563468
4.2342868 2.7724822 -1.9559
4.1651855 2.8731701 -1.9554354
3.8648338 3.2578654 -1.9534045
3.7840331 3.349237 -1.9528555
3.701035 3.4385791 -1.9522904
3.6158984 3.5258429 -1.9517099
3.5286815 3.6109655 -1.9511142
3.1601074 3.9291704 -1.9485869
2.9648046 4.0742521 -1.9472427
2.6207225 4.2112188 -1.9168255
2.4847069 4.2161441 -1.8912182
1.9721289 4.2328777 -1.8046188
1.7476856 4.2792144 -1.7863009
1.5379199 4.3549857 -1.7848387
1.4348534 4.3984098 -1.7879195
1.3248827 4.4204288 -1.7833511
1.1091309 4.4754105 -1.7818418
0.89113277 4.5198331 -1.7803143
0.78147459 4.5380607 -1.7795449
0.56112301 4.566503 -1.7779974
0.45055664 4.5767131 -1.7772197
0.0073339841 4.5907502 -1.7740966
-0.10341796 4.5875626 -1.773315
-0.54415035 4.5482254 -1.7701974
-0.76229489 4.5127263 -1.7686505
-1.1916602 4.4106169 -1.765599
-2.3379297 4.2270136 -1.8667431
-2.4704883 4.2227554 -1.8906475
-2.5953319 4.2002254 -1.9080541
-2.7929101 4.067071 -1.9066304
-2.9836817 3.9247441 -1.9052523
-3.0764551 3.8502409 -1.904581
-3.1673827 3.7735748 -1.9039221
-3.7483983 3.180222 -1.899689
-4.0330372 2.8010321 -1.8975948
-4.2219629 2.500103 -1.8961935
-4.3357129 2.2924542 -1.8953439
-4.3888574 2.1867003 -1.894945
-4.4394727 2.0797338 -1.8945637
-4.4874802 1.9716204 -1.8942004
-4.5329394 1.86242 -1.893855
-4.5757713 1.7521887 -1.8935276
-4.6159568 1.6409887 -1.893219
-4.6883693 1.4159436 -1.8926568
-4.7205567 1.3022199 -1.8924038
-4.8007421 0.95700192 -1.8917596
-4.8691111 0.48967466 -1.8911709
-4.8792677 0.37201416 -1.8910724
-4.886611 0.25415221 -1.8909936
-4.8911619 0.13614623 -1.8909347
-4.8880467 -0.21802002 -1.8908762
-4.8597751 -0.57107967 -1.8909948
-4.8447948 -0.68821776 -1.8910738
-4.8270116 -0.80496949 -1.8911728
-4.7571778 -1.1522906 -1.8915859
-4.7284374 -1.2668676 -1.8917626
-4.6969724 -1.3807538 -1.8919586
-4.6628318 -1.4938644 -1.8921735
-4.6259861 -1.6061447 -1.8924078
-4.586494 -1.7175381 -1.8926611
-4.5443554 -1.8279779 -1.892933
-4.499619 -1.937405 -1.8932235
-4.4522657 -2.0457613 -1.893533
-4.2949805 -2.3637722 -1.8945698
-4.2375488 -2.4672191 -1.8949515
-4.1776462 -2.5693021 -1.8953506
-4.0506349 -2.7691193 -1.8962008
-3.768662 -3.1498048 -1.898103
-3.6142774 -3.3298104 -1.8991508
-3.1920116 -3.7463484 -1.9020342
-3.1016796 -3.8235316 -1.9026536
-3.0095215 -3.898566 -1.9032866
-2.9155664 -3.9714 -1.9039326
-2.6234081 -4.1763172 -1.9059466
-2.5227733 -4.2399492 -1.906642
-2.4206152 -4.3011937 -1.9073486
-2.316992 -4.3599906 -1.908066
-2.2119532 -4.4163175 -1.908794
-1.9978613 -4.5214195 -1.9102801
-1.7787793 -4.6162262 -1.9118036
-1.5552734 -4.7004995 -1.913361
-1.3277539 -4.7740235 -1.9149489
-1.2126758 -4.8066916 -1.9157531
-1.0967773 -4.8366032 -1.9165639
-0.98016602 -4.8637342 -1.91738
-0.50770509 -4.9440951 -1.9206942
-0.38839844 -4.9570713 -1.9215328
0.091347657 -4.9801707 -1.9249113
0.33180663 -4.9743476 -1.9266087
0.81116211 -4.9278693 -1.9300003
1.4014844 -4.8048058 -1.9341918
1.7476171 -4.6968212 -1.936658
1.9738379 -4.6108704 -1.9382731
2.0854003 -4.5637794 -1.9390707
2.195791 -4.5139647 -1.9398608
2.5195899 -4.3484974 -1.9421823
2.6248145 -4.2880974 -1.9429382
2.8308203 -4.1596298 -1.9444205
3.0304589 -4.0211835 -1.9458603
3.1277344 -3.9483092 -1.9465629
3.223242 -3.8730559 -1.9472537
3.4985449 -3.6334674 -1.9492501
3.6721873 -3.4626825 -1.9505138
3.7558398 -3.3741133 -1.951124
4.1406641 -2.9016607 -1.9539459
4.2105861 -2.8016362 -1.9544619
4.3430567 -2.596519 -1.955443
4.5771875 -2.1677649 -1.9571921
4.6290722 -2.0570931 -1.9575833
4.6637888 1.9848578 -1.9587497
4.6137695 2.0964735 -1.9584222
4.5610251 2.2068079 -1.9580754
4.5056152 2.315794 -1.9577093
4.1895409 2.8382599 -1.9555993
4.1188378 2.9378123 -1.9551231
3.8924804 3.225539 -1.9535922
3.8124511 3.3176062 -1.9530488
3.5593262 3.5815301 -1.9513235
3.3802538 3.7467401 -1.9500983
3.2877734 3.8259723 -1.9494641
2.7984667 4.1866717 -1.9460949
2.531709 4.2144632 -1.8999537
2.1398242 4.227735 -1.8311589
2.0150487 4.2315912 -1.8112363
1.8952929 4.2408404 -1.7950908
1.6797363 4.3050175 -1.7858274
1.4688672 4.3774381 -1.7843566
1.362246 4.4097686 -1.783612
1.2549024 4.4394879 -1.7828616
1.0383496 4.4910431 -1.7813461
0.92928708 4.5128531 -1.7805816
0.70985347 4.5484977 -1.779042
0.5995996 4.562315 -1.7782677
0.26767579 4.5877018 -1.7759323
0.15681641 4.5908027 -1.775151
0.045957029 4.5912299 -1.7743691
-0.28589842 4.5764689 -1.7720251
-0.39608398 4.5662284 -1.7712457
-0.61540037 4.5378156 -1.7696923
-0.83290035 4.4989142 -1.7681494
-1.1546582 4.4211478 -1.7658623
-1.2604589 4.3901224 -1.7651089
-1.3654394 4.3565803 -1.7643608
-1.5727441 4.2820268 -1.7628818
-2.1640625 4.2323027 -1.836988
-2.2924609 4.2284284 -1.8587835
-2.4238868 4.2242732 -1.8821288
-2.8558006 4.0217118 -1.9061764
-3.0443261 3.8764677 -1.9048135
-3.1358788 3.8005524 -1.9041504
-3.313369 3.6423564 -1.9028625
-3.7972167 3.1203187 -1.8993309
-3.8703222 3.0269237 -1.8987939
-4.1396971 2.6370251 -1.896805
-4.2600975 2.4330664 -1.8959094
-4.3166208 2.3290327 -1.8954871
-4.370625 2.2237134 -1.8950822
-4.4221287 2.1171629 -1.8946944
-4.471045 2.0094452 -1.8943249
-4.6765037 1.4554119 -1.8927495
-4.7400293 1.22776 -1.8922495
-4.7926855 0.99740356 -1.8918256
-4.8510156 0.64792538 -1.8913345
-4.864912 0.5306378 -1.8912097
-4.8899021 0.1773053 -1.8909531
-4.8926268 0.059248045 -1.8909068
-4.8925781 -0.058834836 -1.8908803
-4.8897071 -0.17687988 -1.8908737
-4.8643556 -0.53015745 -1.8909719
-4.8335252 -0.7643097 -1.8911359
-4.8139548 -0.88077998 -1.8912474
-4.7916503 -0.996759 -1.8913784
-4.7082324 -1.3411279 -1.891888
-4.5593457 -1.789584 -1.8928361
-4.4690819 -2.0081055 -1.8934228
-4.4200878 -2.1157286 -1.8937439
-4.3144236 -2.3273714 -1.8944411
-4.2578416 -2.4312999 -1.8948165
-4.0734668 -2.7347162 -1.8960476
-4.007246 -2.8328795 -1.8964924
-3.7193358 -3.209218 -1.8984371
-3.5621581 -3.3868387 -1.8995053
-3.4804101 -3.4728339 -1.9000622
-3.3108106 -3.6389301 -1.9012207
-3.0418553 -3.8726501 -1.9030645
-2.9485059 -3.9462576 -1.903706
-2.8534081 -4.0176406 -1.9043607
-2.5580273 -4.2180328 -1.9063983
-2.353291 -4.3397679 -1.9078146
-2.1427929 -4.4516597 -1.9092736
-1.9270312 -4.5534339 -1.9107723
-1.8173144 -4.6004486 -1.9115356
-1.706455 -4.6448388 -1.9123074
-1.5945312 -4.6865745 -1.9130872
-1.481582 -4.7256346 -1.9138751
-1.2528808 -4.7956161 -1.915472
-1.0209082 -4.8545909 -1.9170947
-0.90386719 -4.8798995 -1.9179147
-0.78618163 -4.9023972 -1.9187396
-0.54919922 -4.938899 -1.9204028
-0.19074218 -4.9722085 -1.9229234
0.41008788 -4.9699445 -1.9271617
0.88875973 -4.9159107 -1.9305502
1.0075684 -4.8951678 -1.931393
1.1258887 -4.8715444 -1.932233
1.3608105 -4.8157082 -1.9339025
1.4772558 -4.7835169 -1.9347311
1.5929394 -4.7485003 -1.9355553
1.7077734 -4.7106681 -1.9363737
2.0466211 -4.5805097 -1.9387934
2.1574512 -4.5316386 -1.9395862
2.3754785 -4.4258313 -1.9411482
2.482578 -4.368947 -1.9419166
2.8965526 -4.1156249 -1.9448941
2.9961133 -4.0460286 -1.9456123
3.0940235 -3.9739881 -1.9463192
3.2844725 -3.8227851 -1.947697
3.4674609 -3.6623569 -1.9490243
3.5560057 -3.5787921 -1.9496676
3.6424901 -3.4930758 -1.9502974
3.7269139 -3.4052322 -1.9509128
3.8091502 -3.3153284 -1.9515133
4.0425487 -3.0337512 -1.9532238
4.1157227 -2.9361224 -1.9537622
4.1864743 -2.8367112 -1.9542841
4.3839941 -2.5283284 -1.9557474
4.4447751 -2.4223566 -1.9562002
4.5029297 -2.3149123 -1.9566348
4.5584569 -2.2060418 -1.9570514
4.6614256 -1.9843265 -1.9578282
4.5252442 2.2779529 -1.9578394
4.4083009 2.4926484 -1.9570634
4.3459373 2.5977502 -1.9566474
4.281045 2.701261 -1.9562134
4.213623 2.8031383 -1.9557611
3.7591307 3.3764927 -1.9526861
3.6754882 3.4652092 -1.9521164
3.5018847 3.6363006 -1.9509311
3.4120409 3.7185736 -1.9503158
3.3202538 3.7986028 -1.9496869
3.0336719 4.0247626 -1.947717
2.0582421 4.2302766 -1.8180237
1.7161719 4.2913346 -1.7860813
1.3995019 4.3987908 -1.7838724
1.1846386 4.4574347 -1.7823702
0.85798824 4.525629 -1.7800817
0.74822265 4.5430484 -1.7793115
0.5276953 4.5698748 -1.7777621
0.3063086 4.5859895 -1.7762045
0.19546874 4.5900264 -1.7754235
-0.1369043 4.5860734 -1.7730784
-0.24743164 4.5794172 -1.7722974
-0.79512691 4.5064459 -1.7684176
-0.90326172 4.4839983 -1.7676498
-1.010752 4.4589653 -1.766886
-1.1175781 4.4313688 -1.766126
-1.2250781 4.4068937 -1.7676455
-1.536875 4.2957401 -1.7631378
-1.7540234 4.2448101 -1.774943
-1.995332 4.2371025 -1.8099123
-2.3776953 4.2257547 -1.8738085
-2.51125 4.2214069 -1.8982061
-2.7247362 4.1145649 -1.907122
-2.8221972 4.0461187 -1.906419
-2.9179688 3.9753997 -1.9057274
-3.0119433 3.902426 -1.9050479
-3.1041796 3.8272636 -1.9043802
-3.1945312 3.7499516 -1.9037253
-3.2829688 3.6705327 -1.9030834
-3.5364842 3.4201117 -1.9012383
-3.6168456 3.3327489 -1.9006513
-3.6951072 3.2435167 -1.9000793
-3.7711914 3.1524827 -1.8995217
-3.8450584 3.0596814 -1.8989794
-3.9167187 2.9651794 -1.8984528
-4.1177049 2.6719971 -1.896968
-4.2398243 2.4690289 -1.8960605
-4.3520899 2.2605767 -1.8952212
-4.4542675 2.0471294 -1.8944519
-4.5015039 1.9386871 -1.8940939
-4.5461817 1.8291613 -1.8937539
-4.588203 1.7186248 -1.8934323
-4.6276073 1.6071557 -1.8931289
-4.6643553 1.4947858 -1.8928442
-4.7297459 1.2676544 -1.8923312
-4.758379 1.1530157 -1.892103
-4.8074512 0.92188233 -1.8917041
-4.8455176 0.688739 -1.8913826
-4.8724899 0.4540863 -1.8911389
-4.8817773 0.33636412 -1.8910468
-4.8883009 0.21844848 -1.8909738
-4.8910351 -0.13573059 -1.8908737
-4.8863378 -0.25371215 -1.89088
-4.8211036 -0.84021729 -1.8912063
-4.7756152 -1.0720019 -1.8914742
-4.7487793 -1.1870397 -1.8916372
-4.7191796 -1.3014178 -1.8918201
-4.6519432 -1.5279369 -1.8922426
-4.6143165 -1.6399536 -1.8924824
-4.5740137 -1.7510687 -1.8927413
-4.4855566 -1.9703152 -1.8933154
-4.2778516 -2.3952146 -1.8946835
-4.2196679 -2.4982622 -1.8950704
-4.1590528 -2.5999141 -1.8954748
-4.0305858 -2.7988281 -1.8963356
-3.962832 -2.8959694 -1.896791
-3.82041 -3.0853615 -1.8977526
-3.7458496 -3.1775064 -1.8982574
-3.4260547 -3.5277951 -1.9004332
-3.2538867 -3.6912739 -1.9016104
-3.1648729 -3.7699349 -1.9022201
-2.8867579 -3.9930062 -1.9041308
-2.7905567 -4.0629148 -1.9047936
-2.6926367 -4.1305408 -1.9054687
-2.5931249 -4.1958213 -1.9061558
-2.3894141 -4.3192463 -1.9075645
-2.2853417 -4.3772998 -1.9082851
-2.1798828 -4.4328752 -1.9090164
-1.9650097 -4.5364323 -1.9105084
-1.7452344 -4.6296592 -1.9120373
-1.6336719 -4.6723247 -1.9128145
-1.4075097 -4.7496233 -1.914392
-1.2930175 -4.7842011 -1.9151917
-1.0615624 -4.845109 -1.9168103
-0.70920897 -4.9155316 -1.9192795
-0.59065425 -4.9333544 -1.9201117
-0.47164062 -4.9483247 -1.9209476
-0.35222656 -4.9604306 -1.921787
-0.11258789 -4.9760151 -1.9234737
0.0075292969 -4.9794736 -1.9243203
0.12773438 -4.9800353 -1.9251679
0.3682031 -4.9724555 -1.9268658
0.60822266 -4.953259 -1.928563
0.72788084 -4.9393082 -1.9294101
1.4367285 -4.7950635 -1.9344428
1.5526855 -4.7610307 -1.9352685
1.7820996 -4.6845288 -1.936904
2.0077245 -4.5969071 -1.9385153
2.2290039 -4.4983573 -1.9400985
2.3378222 -4.4450464 -1.9408783
2.5516014 -4.3304877 -1.9424123
2.6563866 -4.2693119 -1.9431652
2.7596874 -4.2055697 -1.9439083
3.0600879 -3.9993823 -1.9460741
3.3449218 -3.7715359 -1.948135
3.4361131 -3.6909702 -1.9487966
3.6125782 -3.5232027 -1.9500796
3.6977148 -3.4360988 -1.9507
3.7807226 -3.3469021 -1.9513056
4.1620994 -2.8715732 -1.9541039
4.2312794 -2.7710276 -1.9546149
4.2979884 -2.6687853 -1.9551086
4.6442771 -2.0233374 -1.9576983
4.5980859 2.1300049 -1.9583193
4.4883008 2.3485069 -1.9575949
4.4294529 2.4556365 -1.9572042
4.1684079 2.8685734 -1.9554571
3.8684959 3.2536108 -1.9534293
3.6198535 3.5218737 -1.9517368
3.443584 3.6901386 -1.9505318
3.3524706 3.7709601 -1.9499078
3.2594335 3.8494999 -1.9492694
3.1645312 3.9257219 -1.9486175
3.0678222 3.9995732 -1.9479523
2.8692772 4.1400189 -1.9465839
2.3581054 4.2205524 -1.8683419
2.2285156 4.2248821 -1.8459105
2.1017773 4.228931 -1.8249798
1.9777441 4.2327094 -1.8054821
1.7524706 4.2773514 -1.7863342
1.542832 4.3533573 -1.7848729
1.3298242 4.4190397 -1.7833856
1.1141113 4.4742632 -1.7818767
1.0054004 4.4979215 -1.7811152
0.89617187 4.5189314 -1.7803497
0.56621093 4.5659699 -1.7780331
0.34493163 4.5839496 -1.7764764
0.23412108 4.5889263 -1.7756959
0.012402344 4.5908318 -1.7741326
-0.098330073 4.5877681 -1.773351
-0.20889647 4.5820403 -1.7725695
-0.42935547 4.5626078 -1.7710103
-0.53911132 4.5489216 -1.7702332
-0.75730467 4.5136614 -1.7686858
-0.86562496 4.4921145 -1.7679172
-1.0804199 4.4412799 -1.7663907
-1.397041 4.345933 -1.7641354
-1.5008984 4.309145 -1.7633946
-1.6037987 4.2698894 -1.7626599
-1.7141211 4.2492337 -1.7706982
-1.9525195 4.238266 -1.8033265
-2.0762012 4.2348442 -1.8226643
-2.2026269 4.2311602 -1.8434263
-2.3318846 4.2272015 -1.8656814
-2.6903613 4.1378765 -1.9073696
-3.0722265 3.8537238 -1.9046115
-3.1632421 3.7771502 -1.9039521
-3.2523632 3.6984625 -1.9033056
-4.2774611 2.4017229 -1.8957797
-4.3332324 2.2972944 -1.8953625
-4.3864841 2.1915917 -1.894963
-4.5308986 1.8674694 -1.8938705
-4.5738478 1.7572802 -1.8935423
-4.6141601 1.6461297 -1.8932327
-4.6868162 1.4211541 -1.8926691
-4.7487106 1.1930585 -1.8921803
-4.7755761 1.078001 -1.8919647
-4.7996874 0.96233702 -1.8917681
-4.8396873 0.72951168 -1.8914331
-4.8555369 0.61245906 -1.8912945
-4.8685641 0.49508423 -1.891176
-4.8788671 0.37742919 -1.8910764
-4.8910155 0.14158203 -1.890937
-4.8920016 -0.094565429 -1.8908762
-4.8724899 -0.44821471 -1.8909332
-4.8074803 -0.91593379 -1.8912851
-4.7843356 -1.0317565 -1.8914219
-4.6984763 -1.3755212 -1.8919491
-4.6644435 -1.4886733 -1.8921634
-4.5883689 -1.7124323 -1.8926491
-4.5463476 -1.8229214 -1.8929201
-4.5017285 -1.9323919 -1.8932098
-4.4047165 -2.1480639 -1.8938448
-4.3524122 -2.2541461 -1.8941897
-4.2402344 -2.4624853 -1.8949335
-3.9867187 -2.8622861 -1.8966305
-3.8459082 -3.0528331 -1.8975803
-3.4552734 -3.4984784 -1.9002337
-3.3708692 -3.5819197 -1.90081
