# .PCD v0.7 - Point Cloud Data file format
VERSION 0.7
FIELDS x y z
SIZE 4 4 4
TYPE F F F
COUNT 1 1 1
WIDTH 1498
HEIGHT 1
VIEWPOINT 0 0 0 1 0 0 0
POINTS 1498
DATA ascii
1.78083 -5.4907813 -1.9368234
2.434453 -5.2493248 -1.9415221
2.6872852 -5.1306272 -1.9433454
2.8115528 -5.0666599 -1.9442428
3.1748145 -4.8566732 -1.9468716
3.5222266 -4.6203833 -1.9493936
3.7440526 -4.4488297 -1.9510089
4.1617188 -4.0738091 -1.9540617
4.2603517 -3.973717 -1.9547855
4.7155957 -3.4381342 -1.9581419
4.7986622 -3.3244417 -1.9587579
4.8789258 -3.2087076 -1.9593546
4.956367 -3.0910101 -1.9599316
5.0309277 -2.9713852 -1.9604887
5.102529 -2.849957 -1.961025
5.1711521 -2.7267733 -1.9615408
5.2367282 -2.6019104 -1.9620352
5.2992578 -2.4754436 -1.9625082
5.3586426 -2.3474469 -1.9629595
5.5643554 -1.8217388 -1.964541
5.6076269 -1.687287 -1.9648792
5.6475973 -1.5517923 -1.9651941
5.684238 -1.4153339 -1.9654855
5.7174706 -1.2779968 -1.9657531
5.7473536 -1.1398627 -1.965997
5.773828 -1.0010186 -1.9662167
5.8164649 -0.72151977 -1.9665835
5.8326173 -0.58106321 -1.9667304
5.8453026 -0.44024292 -1.9668527
5.8612595 0.12494568 -1.9670951
5.8565331 0.26627868 -1.9670938
5.8215137 0.68899411 -1.9669416
5.7808399 0.96882385 -1.9667165
5.6941404 1.3838879 -1.9661956
5.6584764 1.5206536 -1.9659735
5.5314255 1.9250238 -1.9651632
5.4303417 2.1888018 -1.9645053
5.3164353 2.4471965 -1.9637551
5.254775 2.5741765 -1.963346
5.1221972 2.8233447 -1.9624612
5.0513768 2.9453545 -1.9619861
4.9776073 3.0655584 -1.9614893
4.9009275 3.183883 -1.9609716
4.8213768 3.3002582 -1.960433
4.6539159 3.5268762 -1.959295
4.475615 3.7449017 -1.9580783
4.2869725 3.9537702 -1.9567858
4.0884862 4.1530108 -1.9554212
3.584209 4.210722 -1.8553786
3.4178417 4.2172465 -1.8213906
3.0603223 4.3906779 -1.7957674
2.9522753 4.4613433 -1.7950158
2.5043652 4.7167997 -1.7918921
2.2719238 4.8276982 -1.7902663
2.1538281 4.8788362 -1.7894391
2.03458 4.9270587 -1.7886027
1.6706054 5.0540347 -1.7860461
1.5474609 5.090395 -1.7851794
1.4235351 5.1237297 -1.7843066
1.2988964 5.154036 -1.7834282
1.1736327 5.1812959 -1.7825445
1.0477831 5.205502 -1.7816558
0.92147458 5.2266397 -1.7807635
0.7947461 5.2447028 -1.7798672
0.66767579 5.2596855 -1.7789679
0.54031247 5.271585 -1.7780658
0.41280273 5.2803984 -1.777162
0.15750976 5.288764 -1.7753503
0.029892577 5.288321 -1.7744435
-0.097617187 5.2848029 -1.7735368
-0.35200194 5.2685623 -1.7717259
-0.73091793 5.2213383 -1.7690231
-0.85621095 5.1995611 -1.768128
-0.98086911 5.1747904 -1.7672369
-1.1048535 5.1470389 -1.7663496
-1.3504297 5.0826993 -1.7645903
-1.5924219 5.0067205 -1.7628536
-1.9474413 4.871419 -1.7603008
-2.1780372 4.7673259 -1.7586386
-2.2913184 4.7112164 -1.7578212
-2.6224022 4.5270305 -1.7554269
-2.729619 4.4604864 -1.7546499
-2.8405175 4.3997283 -1.7571969
-2.9390039 4.319921 -1.7531304
-3.1898143 4.2341118 -1.7787358
-3.3485253 4.2285624 -1.8098183
-3.5128515 4.2226276 -1.8430212
-3.8255761 4.1717119 -1.8992019
-4.0192966 3.9793913 -1.8977816
-4.112617 3.8798871 -1.8970959
-4.2919431 3.6744781 -1.895775
-4.6200485 3.2397337 -1.8933446
-4.6954784 3.1264317 -1.8927832
-4.7681251 3.0114062 -1.8922405
-4.8380466 2.8947198 -1.8917172
-4.9051466 2.7764513 -1.8912135
-4.9694138 2.656651 -1.8907297
-5.0308299 2.5353723 -1.8902655
-5.2470994 2.0371442 -1.888615
-5.2936912 1.9096301 -1.8882551
-5.4807029 1.2578253 -1.8867776
-5.508779 1.1251312 -1.8865477
-5.533711 0.99182552 -1.8863401
-5.555459 0.85798275 -1.886155
-5.5740724 0.7236737 -1.8859921
-5.5894823 0.58897579 -1.885852
-5.6017184 0.45393494 -1.8857342
-5.6107421 0.31867492 -1.885639
-5.6165915 0.18324767 -1.8855667
-5.6186523 -0.087823488 -1.8854901
-5.6148925 -0.22331786 -1.8854858
-5.5844235 -0.62877011 -1.8856097
-5.5679002 -0.76331604 -1.8856962
-5.5481935 -0.89744258 -1.8858056
-5.5253024 -1.0310718 -1.8859378
-5.4378419 -1.4282696 -1.8864683
-5.2777734 -1.9465655 -1.8874872
-5.2301464 -2.0736365 -1.8877963
-5.1795216 -2.1995656 -1.8881271
-5.1259179 -2.3242872 -1.8884796
-5.0098925 -2.5698473 -1.8892477
-4.7434864 -3.0434117 -1.8910321
-4.5936618 -3.2703722 -1.8920447
-4.5147071 -3.3811765 -1.8925803
-4.4331346 -3.4901035 -1.8931347
-4.2622752 -3.7021346 -1.8943002
-4.1731052 -3.8050854 -1.8949102
-4.0814843 -3.9059258 -1.8955381
-3.7923436 -4.1951981 -1.8975261
-3.5882518 -4.3764644 -1.8989346
-3.4829979 -4.4634504 -1.8996624
-3.2662597 -4.6298804 -1.9011642
-3.1549218 -4.7092285 -1.9019369
-2.6911035 -4.9997497 -1.9051657
-2.4490428 -5.1282597 -1.9068561
-2.3256934 -5.1881852 -1.9077188
-2.2008886 -5.2451706 -1.9085923
-1.947207 -5.3501868 -1.9103706
-1.8184375 -5.3981485 -1.9112743
-1.6885155 -5.4430356 -1.9121871
-1.5574707 -5.4848289 -1.9131085
-1.4254199 -5.5234776 -1.9140379
-1.1585449 -5.5912809 -1.9159182
-0.88842773 -5.6462584 -1.917825
-0.75235349 -5.6688828 -1.9187863
-0.61572266 -5.6882443 -1.9197525
-0.47856444 -5.7043281 -1.9207232
-0.34101561 -5.7171106 -1.9216975
-0.20313476 -5.7265806 -1.9226751
-0.064970702 -5.7327366 -1.923655
0.07335937 -5.7355609 -1.9246371
0.2117871 -5.7350554 -1.9256207
0.35023436 -5.7312074 -1.9266052
0.48862302 -5.7240171 -1.92759
0.62687498 -5.7134819 -1.9285744
0.90257812 -5.6823912 -1.9305404
1.0399121 -5.6618409 -1.9315207
1.4487597 -5.5802684 -1.934444
1.5837109 -5.5464702 -1.9354101
1.9835448 -5.425468 -1.9382784
2.1148632 -5.3786654 -1.9392221
2.5017967 -5.2191639 -1.9420074
2.6281836 -5.1597266 -1.942919
2.7531641 -5.0971985 -1.9438211
3.1187303 -4.8914294 -1.9464653
3.2372363 -4.8169084 -1.9473242
3.4687598 -4.6592102 -1.9490051
3.5816209 -4.5761156 -1.9498259
3.9079003 -4.3104143 -1.9522043
4.1144238 -4.1201248 -1.9537152
4.21417 -4.021194 -1.9544463
4.4986911 -3.7099431 -1.9565388
4.5884571 -3.6015573 -1.9572012
4.7598634 -3.3782811 -1.9584701
4.8414745 -3.263505 -1.9590759
1.8228222 -5.0505905 -1.9372224
1.9449902 -5.0074253 -1.9381002
2.066123 -4.9612837 -1.9389712
2.5389354 -4.7474842 -1.9423791
2.7672949 -4.6234422 -1.9440297
3.0981445 -4.4166965 -1.9464275
3.2050683 -4.3424211 -1.947204
3.3101757 -4.2655249 -1.9479682
3.4133885 -4.1860552 -1.9487197
3.5147069 -4.1040592 -1.9494582
3.8993554 -3.7517736 -1.9522713
4.078506 -3.5617549 -1.9535877
4.1645994 -3.4634688 -1.9542216
4.2482519 -3.3630724 -1.9548389
4.329463 -3.260628 -1.9554392
4.6287012 -2.8315794 -1.9576632
4.8847752 -2.3748097 -1.9595867
4.9957614 -2.1373916 -1.9604295
5.1401267 -1.7715884 -1.9615387
5.2212791 -1.5221359 -1.9621722
2.6783495 -0.1137384 -0.96718109
2.6777735 0.080162354 -0.9665361
2.6701367 0.14445983 -0.96475601
5.3601074 0.94584042 -1.9637225
5.3353415 1.074773 -1.9635758
5.2763476 1.3305786 -1.9632151
5.204834 1.5831238 -1.9627649
5.164453 1.7079779 -1.9625064
5.0251074 2.0759559 -1.9616007
4.9727049 2.1961694 -1.9612558
4.9173727 2.3150415 -1.9608898
4.8591504 2.4324927 -1.9605032
4.7980566 2.5484619 -1.9600955
4.7341504 2.662868 -1.9596676
4.6674805 2.7756488 -1.9592199
4.2940626 3.3127856 -1.9566897
4.126904 3.5139666 -1.9555482
3.9501953 3.7066033 -1.9543368
3.6681933 3.9785576 -1.9523956
3.4696093 4.1479154 -1.9510233
3.1838477 4.2025785 -1.9022144
3.0313964 4.2085247 -1.8712556
2.8836424 4.2141008 -1.8422658
2.2891796 4.4026313 -1.7902917
1.8512206 4.5948062 -1.7872243
1.3974414 4.7432952 -1.7840344
1.0493945 4.825274 -1.7815804
0.81468749 4.8657331 -1.7799225
0.69675779 4.88168 -1.7790881
0.46011719 4.9049788 -1.7774124
0.34151366 4.9123259 -1.7765713
0.22282226 4.9167986 -1.7757292
0.10410156 4.9184051 -1.7748861
-0.014541015 4.91715 -1.774043
-0.251416 4.9060612 -1.7723576
-0.36952147 4.8962431 -1.7715163
-0.60464841 4.8681159 -1.7698394
-0.95369136 4.8048725 -1.7673454
-1.1832031 4.7488689 -1.7657021
-1.409541 4.6819706 -1.7640786
-1.5213867 4.6444964 -1.7632757
-1.8507227 4.516264 -1.7609067
-2.2732618 4.3094807 -1.7578577
-2.3755469 4.2516055 -1.7571176
-2.5015721 4.2340055 -1.774274
-2.7795994 4.2250471 -1.8246304
-2.9245703 4.2200885 -1.8524238
-3.0739648 4.2147856 -1.8821032
-3.5013769 3.9391143 -1.9014519
-3.5940526 3.852144 -1.9007735
-3.6846483 3.7630169 -1.9001095
-3.8592381 3.5785253 -1.8988272
-4.1039844 3.2869959 -1.8970218
-4.1807909 3.1860912 -1.896453
-4.2551951 3.0834296 -1.8959011
-4.3964939 2.8730347 -1.8948492
-4.4633398 2.7654254 -1.8943496
-4.5892186 2.5456836 -1.8934051
-4.6482029 2.433681 -1.8929607
-4.8088965 2.0898767 -1.8917403
-4.8569531 1.9729004 -1.8913722
-4.9446778 1.7357507 -1.8906949
-4.9843063 1.6157153 -1.890386
-5.0210447 1.4947937 -1.8900971
-5.0549216 1.3730596 -1.8898288
-5.0859079 1.2505664 -1.8895805
-5.113955 1.1273919 -1.8893533
-5.1613183 0.8792755 -1.8889601
-5.1805758 0.75446045 -1.8887948
-5.1968651 0.6292358 -1.8886504
-5.2101855 0.50366879 -1.888527
-5.232295 0.12562072 -1.8882836
-5.2321091 -0.12685424 -1.8882272
-5.2275391 -0.25302184 -1.8882308
-5.2199802 -0.37904114 -1.8882557
-5.1959372 -0.63037777 -1.8883691
-5.0841017 -1.2514026 -1.8890218
-5.052949 -1.3738116 -1.889215
-4.9819922 -1.6162777 -1.8896637
-4.9422264 -1.7362069 -1.8899188
-4.8996387 -1.8551822 -1.8901943
-4.8542285 -1.9731323 -1.8904899
-4.7013769 -2.3201809 -1.8914965
-4.6449413 -2.433387 -1.8918716
-4.5858593 -2.5452449 -1.8922659
-4.4597754 -2.7646778 -1.8931112
-4.3928418 -2.8721304 -1.8935623
-4.3233495 -2.9779861 -1.8940319
-4.2513475 -3.082186 -1.8945193
-4.1768947 -3.1846859 -1.895025
-4.0999804 -3.285418 -1.8955483
-4.0207129 -3.3843188 -1.896089
-3.9390526 -3.4813356 -1.896647
-3.6804783 -3.7605467 -1.8984201
-3.3055565 -4.1032128 -1.9010055
-3.2067871 -4.1832504 -1.9016888
-3.003535 -4.3362436 -1.9030977
-2.793076 -4.4794874 -1.9045602
-2.57583 -4.612637 -1.9060731
-2.2383497 -4.7927237 -1.9084295
-2.0063086 -4.8992624 -1.9100536
-1.8883691 -4.9483676 -1.9108804
-1.7692382 -4.994657 -1.9117161
-1.2820996 -5.1510878 -1.915141
-1.1580371 -5.1828794 -1.9160153
-1.0331542 -5.211699 -1.916896
-0.65455079 -5.2801142 -1.91957
-0.52722657 -5.2968516 -1.9204706
-0.39951172 -5.3105259 -1.9213748
-0.2714453 -5.3211288 -1.9222822
-0.14307617 -5.3286505 -1.9231924
-0.014521484 -5.3330808 -1.9241049
0.11418945 -5.3344126 -1.9250189
0.37166014 -5.3277597 -1.9268495
0.75698239 -5.2944775 -1.9295946
0.88486326 -5.2771749 -1.9305072
1.0123827 -5.2567739 -1.9314177
1.1394141 -5.233284 -1.9323254
1.2658887 -5.206718 -1.93323
1.3917675 -5.1770787 -1.9341311
1.6413379 -5.1086564 -1.9359198
1.7648926 -5.0699024 -1.9368063
1.8875195 -5.0281439 -1.937687
2.1297264 -4.935699 -1.9394289
2.2491503 -4.8850589 -1.9402889
2.3673534 -4.8315134 -1.941141
2.4842968 -4.7750764 -1.9419845
2.713994 -4.6536865 -1.943644
2.8266504 -4.5887976 -1.9444592
3.0471485 -4.4507952 -1.9460574
3.2608495 -4.3020964 -1.9476095
3.7618456 -3.8857756 -1.9512638
3.85583 -3.7952478 -1.9519522
3.9475975 -3.7024148 -1.9526254
4.1242967 -3.5100667 -1.9539247
4.2915039 -3.3091698 -1.9551585
4.4487205 -3.1002131 -1.9563231
4.5956345 -2.8836637 -1.9574163
4.7318163 -2.6600661 -1.9584351
4.7957716 -2.5457823 -1.9589154
4.970654 -2.1938467 -1.9602381
5.1192479 -1.8297695 -1.9613769
5.1627536 -1.7060614 -1.9617144
5.240664 -1.455548 -1.9623251
5.2749901 -1.3289038 -1.962598
2.6703906 -0.14383544 -0.96483684
5.3706737 0.88485962 -1.9637835
5.3474121 1.0140698 -1.9636477
5.3209567 1.1426648 -1.9634893
5.2228026 1.5239245 -1.9628789
5.1838574 1.6492468 -1.9626309
4.7646289 2.6091344 -1.9598719
4.2508302 3.3667614 -1.9563949
3.9926562 3.6619964 -1.9546282
3.9019432 3.7560308 -1.9540052
3.8089647 3.847796 -1.9533657
3.6165037 4.0242729 -1.9520389
3.4157813 4.1910172 -1.9506507
3.2574315 4.1996403 -1.9175258
3.1026659 4.2057695 -1.8855969
2.952744 4.2115178 -1.8556947
2.8072948 4.2169085 -1.827695
2.4454687 4.3212581 -1.7913833
2.2323828 4.4304805 -1.7898946
2.1239648 4.4811344 -1.7891358
1.9037402 4.5743985 -1.7875928
1.7920605 4.616962 -1.7868091
1.6794336 4.6567817 -1.786018
1.5659082 4.6938372 -1.78522
1.4516113 4.7281098 -1.7844158
0.9875195 4.8370771 -1.7811438
0.87015623 4.8572245 -1.7803144
0.51596677 4.9005179 -1.7778081
0.39743164 4.9092155 -1.7769678
0.27876952 4.9150434 -1.7761264
0.04135742 4.9180951 -1.7744404
-0.077207029 4.9153266 -1.7735974
-0.19566406 4.9097013 -1.7727544
-0.549375 4.875761 -1.770234
-0.66648436 4.8587971 -1.7693982
-0.78312498 4.839025 -1.7685648
-0.89919919 4.8164678 -1.7677352
-1.2433691 4.7322392 -1.7652708
-1.3565234 4.698709 -1.7644591
-1.5800977 4.6236162 -1.7628536
-1.6903808 4.5820928 -1.7620608
-1.7996191 4.537962 -1.7612747
-2.1240137 4.398006 -1.7620933
-2.2245605 4.3359208 -1.7582097
-2.4410155 4.2408624 -1.7653973
-2.5736132 4.2317557 -1.7869364
-2.7126856 4.2272696 -1.812153
-3.0029688 4.2173295 -1.8678689
-3.2634375 4.1445169 -1.9031893
-3.3611717 4.0630732 -1.9024762
-3.4569237 3.9793561 -1.9017768
-3.5506346 3.8934174 -1.9010916
-3.6422069 3.8052959 -1.9004208
-3.8188963 3.6227489 -1.8991238
-3.9865625 3.4321239 -1.8978893
-4.0669141 3.3339276 -1.897296
-4.432158 2.8163495 -1.8945827
-4.4976268 2.707926 -1.8940929
-4.7852831 2.1446288 -1.8919204
-4.8346581 2.028178 -1.8915433
-4.9659667 1.6724188 -1.8905292
-5.0393262 1.430542 -1.8899527
-5.07166 1.3083984 -1.889695
-5.1276169 1.0620307 -1.8892413
-5.1512108 0.93794495 -1.8890454
-5.171865 0.81335449 -1.8888699
-5.1895509 0.68831724 -1.8887157
-5.204277 0.56289732 -1.8885827
-5.2333984 0.058885496 -1.8882605
-5.223906 -0.31965271 -1.8882414
-5.1695509 -0.82155943 -1.888513
-5.1485643 -0.94607908 -1.8886335
-5.1246386 -1.0700647 -1.8887752
-5.0679979 -1.3161969 -1.8891214
-4.8759861 -1.9176577 -1.890348
-4.7794333 -2.1512961 -1.8909805
-4.7270117 -2.2663665 -1.8913267
-4.4904199 -2.71349 -1.8929052
-4.4247069 -2.8216684 -1.8933474
-4.3564062 -2.9282875 -1.8938082
-4.2856054 -3.0332785 -1.8942873
-4.2122951 -3.1365824 -1.8947845
-4.1365528 -3.2381506 -1.8952993
-3.8949902 -3.5318387 -1.8969485
-3.6328514 -3.8078268 -1.8987478
-3.5411425 -3.8956378 -1.8993791
-3.2535839 -4.1458154 -1.9013648
-3.1537793 -4.2246165 -1.902056
-3.0520995 -4.3010478 -1.9027607
-2.843291 -4.4466233 -1.904211
-2.736289 -4.5156741 -1.9049554
-2.6276269 -4.5821791 -1.9057122
-2.5173535 -4.6460967 -1.906481
-2.4055176 -4.7073951 -1.9072616
-1.9441016 -4.92557 -1.9104898
-1.7058105 -5.0179825 -1.9121614
-1.216621 -5.168263 -1.9156023
-1.0921191 -5.198483 -1.9164801
-0.84092772 -5.2499566 -1.9182528
-0.58730465 -5.2893414 -1.9200456
-0.33185548 -5.316515 -1.9218543
-0.20360351 -5.3254895 -1.9227633
-0.075146481 -5.3313775 -1.9236745
0.31097656 -5.3304467 -1.9264178
0.69657224 -5.3015604 -1.9291638
0.82463866 -5.2857141 -1.9300772
1.0795898 -5.2447419 -1.9318979
1.4580274 -5.1601791 -1.9346057
1.829834 -5.0482011 -1.9372725
1.9519433 -5.0048656 -1.9381502
2.0730176 -4.9585552 -1.939021
2.4293358 -4.8020396 -1.941588
2.545537 -4.7440968 -1.9424267
2.6603808 -4.683311 -1.9432565
2.7737401 -4.6197309 -1.9440763
3.3161328 -4.2610469 -1.9480116
3.4192674 -4.1814346 -1.9487624
4.0835056 -3.556191 -1.9536242
4.1694336 -3.4577825 -1.9542571
4.334033 -3.2547064 -1.9554729
4.8880954 -2.3680944 -1.9596119
5.0976658 -1.8877008 -1.9612106
5.1426268 -1.7645117 -1.961558
5.1845508 -1.6402346 -1.9618843
5.2234278 -1.5149438 -1.962189
5.2591991 -1.3887067 -1.9624721
5.2918553 -1.2616217 -1.9627331
5.3478026 -1.0051892 -1.9631892
5.3710155 -0.87598264 -1.9633836
2.6788085 -0.11005371 -0.9672935
2.6667187 -0.045172118 -0.9622556
5.3057127 1.2103558 -1.9633964
5.2744431 1.3378546 -1.9632034
5.2400684 1.4645202 -1.9629881
5.2025976 1.5902898 -1.9627507
5.0222168 2.0828655 -1.9615817
4.9696484 2.203006 -1.9612356
4.9141212 2.321804 -1.9608684
4.8557324 2.4391723 -1.9604803
4.7944822 2.5550475 -1.9600717
4.6635938 2.7820525 -1.9591937
4.5940428 2.8930359 -1.958725
4.4469042 3.1096318 -1.9577291
4.2894139 3.3186564 -1.956658
3.6626365 3.9835346 -1.9523572
2.7321093 4.2196183 -1.8136218
2.3896484 4.3511405 -1.7909936
2.2830565 4.405683 -1.7902489
2.0661621 4.5068378 -1.7887312
1.9560351 4.5533915 -1.7879595
1.7326465 4.6383548 -1.7863919
1.3908496 4.7450943 -1.783988
0.92552733 4.8480854 -1.7807058
0.57177734 4.8954239 -1.7782034
0.33470702 4.9126554 -1.7765231
0.21602538 4.9169683 -1.775681
-0.021337891 4.9169903 -1.7739947
-0.13986328 4.9127107 -1.7731516
-0.37627929 4.8955975 -1.7714682
-0.49399412 4.882781 -1.7706289
-0.6113379 4.8671465 -1.7697917
-1.075371 4.7766361 -1.7664744
-1.4159765 4.6798992 -1.7640326
-1.6385351 4.6019964 -1.7624338
-1.7482812 4.5590897 -1.7616442
-2.27916 4.3062334 -1.7578149
-2.3818359 4.2490897 -1.7574346
-2.5093262 4.2337675 -1.7756212
-2.6466601 4.2294207 -1.8000555
-2.9329882 4.2197928 -1.8540704
-3.0826561 4.2144732 -1.8838611
-3.3153417 4.1017485 -1.9028108
-3.4120409 4.0190973 -1.9021047
-3.5067089 3.9342022 -1.901413
-3.5993066 3.847105 -1.9007351
-3.7780468 3.6665142 -1.8994241
-3.8641014 3.5731328 -1.8987914
-3.9478514 3.4777617 -1.8981745
-4.1084275 3.28127 -1.8969887
-4.3311524 2.9730322 -1.8953362
-4.5311913 2.6500061 -1.8938411
-4.5926852 2.5393224 -1.8933792
-4.7610545 2.1991222 -1.8921052
-4.8117185 2.0832231 -1.8917187
-4.8596191 1.9661694 -1.8913517
-4.904736 1.8480456 -1.8910043
-4.9864745 1.6088275 -1.8903689
-5.0230761 1.4878491 -1.8900812
-5.0875778 1.2435412 -1.889567
-5.1154785 1.1203363 -1.8893408
-5.1404686 0.99650508 -1.8891351
-5.181582 0.74730831 -1.888786
-5.1976953 0.62206483 -1.8886428
-5.2282419 0.24458008 -1.8883395
-5.232451 0.1184027 -1.8882807
-5.2194724 -0.38624084 -1.8882577
-5.2087598 -0.51204282 -1.8883051
-5.1950779 -0.63755184 -1.8883735
-5.1784372 -0.76270628 -1.8884633
-5.1362791 -1.0116791 -1.8887057
-5.1108103 -1.1353717 -1.8888586
-5.0168848 -1.5023874 -1.8894418
-4.9398727 -1.7430426 -1.8899341
-4.897119 -1.8619528 -1.8902105
-4.6982226 -2.3266916 -1.8915176
-4.6416407 -2.4398193 -1.8918936
-4.455996 -2.7708664 -1.8931369
-4.1725583 -3.1904941 -1.8950546
-3.8502538 -3.5817935 -1.8972549
-3.7638965 -3.6747689 -1.8978469
-3.5846288 -3.8545151 -1.8990796
-3.4918065 -3.9411831 -1.8997192
-3.3968847 -4.0256429 -1.9003744
-3.1002636 -4.2653174 -1.9024267
-2.997617 -4.3404751 -1.9031389
-2.8931541 -4.4132032 -1.9038644
-2.6790428 -4.5511479 -1.9053539
-2.5695312 -4.6162915 -1.9061168
-2.1163573 -4.850409 -1.909283
-1.99958 -4.9021463 -1.9101008
-1.881582 -4.9510932 -1.910928
-1.7623925 -4.9972219 -1.9117641
-1.5207031 -5.0809116 -1.9134622
-1.2750489 -5.1529856 -1.9151908
-1.1509179 -5.184607 -1.9160655
-0.77410156 -5.2615466 -1.9187249
-0.39218751 -5.3112183 -1.9214267
0.25028321 -5.3324451 -1.9259863
0.5076465 -5.3192225 -1.9278177
0.76431638 -5.2935715 -1.9296468
1.0196582 -5.2555132 -1.9314697
1.5240819 -5.1424255 -1.935079
1.6484375 -5.1065192 -1.9359707
1.8944921 -5.0256662 -1.9377372
2.016084 -4.9807549 -1.9386113
2.1365819 -4.9328785 -1.9394784
2.2559471 -4.882072 -1.9403378
2.3740821 -4.8283582 -1.9411895
2.7204883 -4.6500492 -1.943691
2.8330469 -4.5850005 -1.9445056
2.9440136 -4.5171995 -1.9453094
3.053369 -4.4466844 -1.9461025
3.2668653 -4.2976871 -1.9476532
3.3708789 -4.2192802 -1.94841
3.6712401 -3.9689643 -1.9506011
4.0421581 -3.6018298 -1.9533203
4.2138867 -3.4049108 -1.9545852
4.2961326 -3.303299 -1.9551927
4.4530859 -3.0941205 -1.9563556
4.5996776 -2.8773611 -1.9574466
4.7355661 -2.653568 -1.9584631
4.7993555 -2.5392001 -1.9589422
4.9184766 -2.3058434 -1.9598418
4.9737206 -2.1870105 -1.9602615
5.0754395 -1.9453704 -1.9610394
5.2054782 -1.5741251 -1.9620479
5.276865 -1.3216296 -1.9626129
5.3078613 -1.1941223 -1.9628623
5.3604689 -0.9369635 -1.9632946
2.671787 -0.14021118 -0.96527016
2.6702247 0.053238526 -0.96357298
5.3694434 0.89226985 -1.9637765
5.3459959 1.0214453 -1.9636395
5.3193555 1.1499976 -1.9634795
5.2566504 1.4049194 -1.9630923
5.220654 1.5311219 -1.9628656
5.1393847 1.7806426 -1.9623449
5.0941601 1.9038 -1.962052
5.0459571 2.0257878 -1.9617373
4.9947753 2.1465375 -1.9614013
4.8237109 2.5006151 -1.9602669
4.7609668 2.6156757 -1.9598473
4.6954298 2.729135 -1.9594078
4.5561814 2.95099 -1.9584692
4.4825292 3.0592456 -1.9579707
4.2461133 3.3725719 -1.9563627
4.0761132 3.5712945 -1.9552004
3.8966699 3.7613482 -1.9539691
3.7082908 3.9422698 -1.9526721
3.5114062 4.1136565 -1.9513125
2.9442871 4.2118363 -1.8540421
2.4394433 4.3245306 -1.7913415
2.3368554 4.3866668 -1.7932039
2.2262011 4.4334478 -1.7898513
2.1177149 4.4839568 -1.7890921
1.8973632 4.576911 -1.7875478
1.7856348 4.6193147 -1.7867639
1.6729687 4.6589737 -1.7859726
1.4450293 4.7299848 -1.7843695
1.3299316 4.7612982 -1.7835587
1.2141407 4.7897992 -1.7827429
1.0977539 4.8154731 -1.7819216
0.86344725 4.858294 -1.780267
0.74566406 4.8754253 -1.7794342
0.62754881 4.8896918 -1.7785983
0.50918943 4.9010944 -1.7777601
0.39063475 4.9096255 -1.7769198
-0.20243163 4.9092937 -1.7727063
-0.32066405 4.9006524 -1.7718645
-0.55608398 4.8748651 -1.7701861
-0.67316407 4.8577385 -1.7693504
-0.90582031 4.8150921 -1.7676877
-1.1359375 4.7613664 -1.7660409
-1.3629687 4.6967096 -1.7644131
-1.8058496 4.5353556 -1.7612299
-2.0206835 4.4390898 -1.7596817
-2.1310937 4.3971467 -1.7629234
-2.3333592 4.2758698 -1.7574229
-3.0115235 4.2170258 -1.8695734
-3.1637206 4.2115154 -1.9004157
-3.2690821 4.139915 -1.9031481
-3.3667188 4.0583429 -1.9024357
-3.4623437 3.9744976 -1.9017373
-3.8238084 3.6174047 -1.8990878
-3.9086621 3.5229633 -1.8984634
-4.1492772 3.2281041 -1.8966866
-4.224668 3.1261601 -1.8961277
-4.3680758 2.9171441 -1.895061
-4.5012989 2.7016771 -1.8940655
-4.5640235 2.591676 -1.8935946
-4.6815038 2.3674388 -1.8927087
-4.7362013 2.2533405 -1.8922943
-4.7881641 2.1380036 -1.8918986
-4.9274411 1.7851897 -1.8908285
-4.9682322 1.6655462 -1.8905114
-5.102705 1.1784918 -1.8894448
-5.1290426 1.0549432 -1.8892294
-5.1904783 0.6811499 -1.8887075
-5.205039 0.55570799 -1.8885756
-5.2166405 0.42997801 -1.8884643
-5.2252245 0.30401734 -1.8883746
-5.2308493 0.17789184 -1.8883057
-5.2334666 0.051658936 -1.8882583
-5.229785 -0.20077941 -1.8882269
-5.2234669 -0.32686523 -1.888243
-5.21417 -0.45276609 -1.8882803
-5.2018847 -0.57842773 -1.8883389
-5.168447 -0.8286975 -1.888519
-5.1231833 -1.0771435 -1.8887839
-5.0961523 -1.2005029 -1.8889477
-5.0662012 -1.3232019 -1.8891325
-4.9976268 -1.566347 -1.8895642
-4.9176269 -1.806025 -1.8900778
-4.7239256 -2.2729154 -1.8913471
-4.6686325 -2.3866546 -1.891714
-4.2080369 -3.1424453 -1.8948135
-4.0537696 -3.3435638 -1.8958634
-3.9731543 -3.4413869 -1.8964138
-2.9426172 -4.3792257 -1.9035208
-2.8372264 -4.450644 -1.9042532
-2.7301073 -4.5195513 -1.9049984
-2.6213574 -4.585907 -1.9057559
-2.5109863 -4.6496778 -1.9065255
-1.8187402 -4.9758282 -1.9113687
-1.6989355 -5.0204587 -1.9122097
-1.5780468 -5.0622211 -1.913059
-1.2095214 -5.1700702 -1.9156524
-1.0849805 -5.2001209 -1.9165303
-0.83370113 -5.2512531 -1.9183038
-0.70711911 -5.2722907 -1.9191983
-0.067763671 -5.3316197 -1.9237268
0.3183496 -5.3301597 -1.9264702
0.70391601 -5.3007345 -1.9292161
0.83195311 -5.2847147 -1.9301294
1.0868652 -5.2433867 -1.9319497
1.2135937 -5.2180905 -1.932856
1.4651953 -5.1582975 -1.9346571
1.5899218 -5.1238227 -1.935551
1.9589062 -5.0022936 -1.9382
2.1998436 -4.9063864 -1.9399338
2.3185644 -4.8540416 -1.9407891
2.5521679 -4.7406945 -1.9424746
2.7801855 -4.6160059 -1.944123
3.0020311 -4.4802647 -1.94573
3.3220701 -4.2565575 -1.9480549
3.5261815 -4.0945206 -1.9495419
3.6252735 -4.0097623 -1.9502652
4.0003319 -3.646987 -1.9530127
4.0884962 -3.5506151 -1.9536612
4.2576661 -3.351454 -1.9549084
4.3386035 -3.2487752 -1.9555068
4.4928513 -3.0375435 -1.956651
4.6366601 -2.8188741 -1.9577224
4.831953 -2.4781084 -1.9591879
4.8914356 -2.3613734 -1.959637
5.0525389 -2.0027864 -1.9608636
5.1451073 -1.7574273 -1.9615773
5.1868553 -1.6330889 -1.9619023
5.2255564 -1.5077472 -1.9622058
5.322998 -1.126416 -1.9629854
2.6567383 -0.16973938 -0.96046883
2.6790721 -0.10635925 -0.96733397
5.3039942 1.2176733 -1.9633859
5.2725682 1.3451263 -1.9631917
5.2003417 1.5974591 -1.9627364
5.1596289 1.722196 -1.9624755
5.1158495 1.8458862 -1.9621928
4.9665427 2.2098393 -1.9612151
4.7908888 2.5616338 -1.9600477
4.7266698 2.6758544 -1.9596176
4.5899706 2.8993347 -1.9586974
4.5175681 3.0084453 -1.9582081
4.4425387 3.1157215 -1.9576995
4.3649316 3.2210972 -1.9571724
4.2847657 3.324522 -1.9566263
4.0295606 3.6223881 -1.9548815
3.9397948 3.7173588 -1.9542654
3.847744 3.8100712 -1.9536326
3.7534666 3.9004717 -1.9529835
3.5585449 4.0741434 -1.9516385
3.4580078 4.1573076 -1.9509431
3.1661522 4.2032781 -1.8985684
2.8670213 4.214716 -1.8390683
2.7240331 4.2199054 -1.8121276
2.5929198 4.2377667 -1.7924119
1.9496777 4.5559759 -1.7879149
1.2687988 4.7767158 -1.783128
1.1526855 4.8037248 -1.7823095
0.44652343 4.9059625 -1.777316
0.3279199 4.9129801 -1.7764748
0.090527341 4.9184051 -1.7747897
-0.028124999 4.9168229 -1.7739463
-0.14663085 4.9123797 -1.7731036
-0.50073242 4.8819633 -1.770581
-0.85118163 4.826149 -1.7680784
-0.96691406 4.8019633 -1.7672508
-1.309746 4.7129278 -1.7647948
-1.6448437 4.5996113 -1.7623882
-1.8630956 4.5109086 -1.7608175
-2.0766308 4.4119487 -1.7592779
-2.1814454 4.3587003 -1.7585211
-2.2850487 4.302978 -1.7577723
-2.7959764 4.2244949 -1.8277196
-2.9414356 4.219501 -1.8557227
-3.091367 4.2141571 -1.8856257
-3.3209276 4.0970807 -1.9027699
-3.4175196 4.0142984 -1.9020648
-3.6045313 3.8420525 -1.900697
-3.7830369 3.6612236 -1.8993875
-3.8689549 3.5677257 -1.8987558
-3.9525976 3.4722443 -1.8981396
-4.0339255 3.3748295 -1.8975396
-4.1128807 3.275537 -1.8969558
-4.2635546 3.071574 -1.8958391
-4.335166 2.9670141 -1.8953062
-4.4042969 2.8607976 -1.8947908
-4.5961132 2.532943 -1.8933532
-4.6547751 2.4207745 -1.8929108
-4.8145409 2.0765557 -1.8916972
-4.9493651 1.7220606 -1.8906584
-5.0250683 1.4808996 -1.8900654
-5.0586133 1.3590777 -1.8897994
-5.117002 1.1132654 -1.8893282
-5.1637011 0.86501157 -1.88894
-5.1825976 0.74015075 -1.8887771
-5.2115235 0.48927793 -1.8885142
-5.2285643 0.23736145 -1.8883356
-5.2336717 -0.015062866 -1.8882415
-5.2317381 -0.14130187 -1.8882266
-5.2268162 -0.26745054 -1.8882327
-5.2189255 -0.39344543 -1.88826
-5.1773825 -0.76985717 -1.8884691
-5.134902 -1.0187726 -1.888714
-5.0807028 -1.2654517 -1.8890427
-5.0148535 -1.5093234 -1.8894547
-4.9375 -1.7498764 -1.8899493
-4.8945799 -1.8687308 -1.890227
-4.8488574 -1.9865539 -1.890525
-4.8003321 -2.1032932 -1.8908432
-4.5789452 -2.5579598 -1.8923119
-4.4522362 -2.7770529 -1.8931621
-4.3850193 -2.8843176 -1.8936151
-4.3152442 -2.9899993 -1.8940866
-4.0910349 -3.2968249 -1.8956094
-4.0114746 -3.3955107 -1.896152
-3.7588866 -3.6800268 -1.8978814
-3.6702342 -3.7708282 -1.8984905
-3.3913965 -4.0304065 -1.9004122
-3.2943456 -4.1124878 -1.9010828
-3.1953614 -4.1922636 -1.9017678
-2.9916894 -4.3447042 -1.90318
-2.8871288 -4.4172864 -1.9039063
-2.7808201 -4.4873819 -1.9046454
-2.6728222 -4.5549498 -1.9053973
-2.5632129 -4.6199427 -1.9061612
-2.4520214 -4.6823287 -1.9069369
-2.3393555 -4.7420683 -1.9077237
-1.9928808 -4.9050202 -1.9101477
-1.8747948 -4.9538093 -1.9109756
-1.755537 -4.9997783 -1.9118122
-1.6351562 -5.0428925 -1.9126577
-1.3913085 -5.1204681 -1.9143722
-1.1437891 -5.1863279 -1.9161156
-1.0188378 -5.2148023 -1.9169968
-0.38489258 -5.3118925 -1.9214784
-0.2567578 -5.3221469 -1.9223863
-0.12839843 -5.3293128 -1.9232966
0.38637695 -5.3270011 -1.9269543
0.51499021 -5.3186622 -1.92787
0.6434375 -5.3072114 -1.9287851
1.4061328 -5.1734943 -1.934234
1.5312011 -5.1404538 -1.93513
1.7789648 -5.0652781 -1.9369074
2.1434374 -4.9300599 -1.9395275
2.4975879 -4.7684388 -1.9420806
2.6129785 -4.7088327 -1.9429139
2.7269628 -4.6464052 -1.9437377
2.8394237 -4.5811992 -1.9445518
3.8664258 -3.7847512 -1.9520298
3.9579589 -3.6916664 -1.9527013
4.0472069 -3.5963144 -1.9533575
4.2186718 -3.3991487 -1.9546205
4.3007617 -3.297431 -1.955227
4.3803611 -3.1937041 -1.9558161
4.4574218 -3.0880263 -1.9563878
4.6037107 -2.8710713 -1.9574766
4.6728711 -2.7599061 -1.9579934
4.7392774 -2.6470668 -1.9584908
4.8029294 -2.5326076 -1.9589692
4.86374 -2.4165921 -1.9594277
4.9217186 -2.2990899 -1.9598664
5.028945 -2.059926 -1.9606827
5.0781641 -1.9384052 -1.9610603
5.2447462 -1.4411029 -1.9623574
5.3095603 -1.1868134 -1.962876
5.337256 -1.0585272 -1.9631021
5.3617868 -0.92958248 -1.9633058
2.6715918 0.056950681 -0.96409565
2.6770117 0.12171569 -0.96682811
5.3681931 0.89966732 -1.9637692
5.2877927 1.2851275 -1.963286
5.1368747 1.7877105 -1.9623288
5.0914841 1.9108026 -1.9620346
5.0431151 2.0327227 -1.9617187
4.9374509 2.272754 -1.9610229
4.8802538 2.3907201 -1.9606435
4.8201857 2.5072429 -1.9602435
4.7572947 2.6222124 -1.9598228
4.6916113 2.7355781 -1.9593822
4.3228807 3.2760015 -1.9568861
4.1574411 3.478673 -1.9557571
3.8914158 3.7666435 -1.9539331
3.798203 3.8581414 -1.9532915
3.6052539 4.0340681 -1.951961
3.2394531 4.2003608 -1.9137655
2.6534569 4.2279353 -1.8009006
2.538125 4.2695708 -1.79203
2.4334471 4.3277826 -1.7912996
2.1114745 4.4867606 -1.7890484
2.0017774 4.5344315 -1.78828
1.7792284 4.6216569 -1.7867188
1.4384766 4.7318559 -1.7843233
1.32333 4.7630057 -1.7835124
1.2075 4.7913432 -1.7826959
0.85671872 4.8593497 -1.7802194
0.73891598 4.8763151 -1.7793864
0.62082028 4.8904204 -1.7785506
0.38386717 4.9100285 -1.7768718
0.26519531 4.9155293 -1.7760299
0.0278125 4.9179239 -1.7743441
-0.20920898 4.9088764 -1.772658
-0.56280273 4.8739614 -1.770138
-0.79643553 4.836585 -1.7684697
-0.91242188 4.8137102 -1.7676405
-1.0278027 4.7880659 -1.7668149
-1.1424512 4.7596698 -1.7659941
-1.2563477 4.7285419 -1.7651778
-1.369375 4.6947088 -1.764367
-1.4815723 4.6581802 -1.7635617
-1.5927734 4.6189923 -1.7627627
-1.7029394 4.5771756 -1.7619705
-1.8120507 4.5327497 -1.7611852
-1.9199902 4.485745 -1.7604077
-2.0267479 4.4361906 -1.7596377
-2.1321971 4.3841157 -1.7588766
-2.2363966 4.3295598 -1.758124
-2.728828 4.2267365 -1.8151447
-3.1725585 4.2111859 -1.9022404
-3.2746778 4.135324 -1.9031073
-3.4677539 3.9696319 -1.9016976
-3.7417381 3.7045989 -1.8996909
-3.8287303 3.6120574 -1.8990514
-3.9958594 3.4209955 -1.8978206
-4.0759473 3.3225853 -1.8972291
-4.4397755 2.804024 -1.894526
-4.5049415 2.6954284 -1.8940381
-4.5675197 2.5853429 -1.8935684
-4.6847072 2.3609424 -1.8926846
-4.7910547 2.1313665 -1.8918765
-4.840127 2.0147882 -1.8915014
-4.8863864 1.8971038 -1.8911459
-4.929863 1.7783794 -1.8908099
-4.9704785 1.6586791 -1.890494
-5.0082617 1.5380707 -1.8901979
-5.1537304 0.92372191 -1.889024
-5.1740232 0.79907346 -1.8888514
-5.1913962 0.67399168 -1.8886993
-5.205781 0.54854429 -1.8885686
-5.225615 0.29680052 -1.8883702
-5.2310743 0.17066956 -1.8883026
-5.2335253 0.044445802 -1.8882562
-5.2330079 -0.081795655 -1.8882312
-5.2295213 -0.2079895 -1.8882272
-5.2230272 -0.33406493 -1.8882443
-5.1856933 -0.7109198 -1.8884234
-5.1673145 -0.83583558 -1.8885255
-5.1217184 -1.0842102 -1.8887926
-5.0313864 -1.4521338 -1.8893503
-4.9955077 -1.5732549 -1.8895776
-4.823545 -2.0483985 -1.8906907
-4.6654005 -2.3931344 -1.8917354
-4.5464649 -2.6164393 -1.8925294
-4.2037597 -3.1482906 -1.8948425
-3.7999315 -3.6365073 -1.8975997
-3.7123046 -3.7282846 -1.8982012
-3.6224608 -3.8179774 -1.8988192
-3.2422459 -4.1549487 -1.9014435
-3.142246 -4.2334833 -1.9021358
-3.0403514 -4.3096428 -1.9028424
-2.8311522 -4.4546494 -1.9042953
-2.7239549 -4.5234089 -1.9050411
-2.5046289 -4.6532502 -1.9065698
-2.1643066 -4.8281798 -1.9089473
-1.930625 -4.9311566 -1.9105841
-1.811914 -4.9784589 -1.9114165
-1.6920409 -5.0229216 -1.9122579
-1.5711035 -5.0645213 -1.9131079
-1.4491308 -5.1032348 -1.9139655
-0.95249021 -5.2286487 -1.9174652
-0.82648438 -5.2525358 -1.9183547
-0.57275391 -5.2912235 -1.9201486
-0.18892577 -5.3263211 -1.9228674
-0.060429685 -5.3318553 -1.9237789
0.068222657 -5.3342943 -1.9246924
0.58292967 -5.3129954 -1.9283538
1.2208008 -5.2165513 -1.9329075
1.4723339 -5.1564088 -1.9347082
1.597041 -5.1217575 -1.9356021
1.8438672 -5.0433917 -1.9373736
2.0867968 -4.9530649 -1.9391199
2.3253026 -4.8509626 -1.9408376
2.4426951 -4.7955561 -1.9416842
2.5587597 -4.737287 -1.9425223
2.7866211 -4.6122751 -1.9441695
2.8982518 -4.5456114 -1.944978
3.1166112 -4.4041376 -1.9465616
3.223242 -4.3294077 -1.9473361
3.3280272 -4.2520719 -1.9480981
3.4309375 -4.1721668 -1.9488477
3.5319238 -4.0897303 -1.9495836
3.8225293 -3.8278279 -1.9517082
3.9151073 -3.7358177 -1.9523869
4.1791306 -3.4463921 -1.9543288
4.2623825 -3.3456242 -1.9549432
4.3431544 -3.2428362 -1.9555404
1.8149999 -4.6728315 -1.9372531
2.0399609 -4.5836906 -1.9388717
2.1508203 -4.5350189 -1.9396703
2.260498 -4.4836497 -1.9404614
2.3689356 -4.429606 -1.941244
2.4760742 -4.3729219 -1.942018
2.7890332 -4.187324 -1.9442837
2.8903124 -4.1203928 -1.9450185
2.9899609 -4.0509925 -1.9457425
3.0879395 -3.9791491 -1.9464549
3.1841698 -3.9049153 -1.9471554
3.2785742 -3.8283334 -1.9478436
3.3711329 -3.7494383 -1.9485192
3.5504296 -3.5849099 -1.9498305
3.8039453 -3.3219862 -1.9516919
3.88416 -3.2302449 -1.9522825
3.9620898 -3.1365459 -1.9528577
4.1820021 -2.8442338 -1.9544868
4.3800292 -2.5363288 -1.955964
4.4409471 -2.430511 -1.956421
4.4993067 -2.3232076 -1.9568599
4.5549998 -2.2144849 -1.9572805
4.6583691 -1.9930383 -1.9580654
4.5852146 2.1586578 -1.9584945
4.5309668 2.2682042 -1.9581341
4.474072 2.3763738 -1.9577546
4.4145508 2.4830902 -1.9573561
4.2206345 2.7939136 -1.9560494
4.1510253 2.8942027 -1.955578
4.00458 3.089447 -1.9545822
3.9278417 3.1842871 -1.9540585
3.8488183 3.2771955 -1.9535185
3.7675977 3.3681152 -1.9529623
3.598623 3.5437846 -1.951802
3.2363379 3.86903 -1.9493024
3.1410155 3.9446282 -1.9486425
3.0439062 4.0178547 -1.9479693
2.8445604 4.1570125 -1.9465851
2.3207324 4.2118716 -1.858404
2.0665526 4.220098 -1.815894
1.9451171 4.2273831 -1.7983106
1.8310156 4.2461944 -1.787001
1.6227636 4.3260159 -1.7855399
1.517334 4.3620844 -1.7847989
1.4110839 4.3955765 -1.7840518
1.1964648 4.4547343 -1.7825407
0.87009764 4.5237308 -1.7802377
0.76040035 4.54142 -1.7794626
0.20799804 4.5898042 -1.7755489
0.097177729 4.5914469 -1.7747623
-0.12424804 4.5867219 -1.773188
-0.89054686 4.4867291 -1.7677214
-0.99806637 4.4619999 -1.7669519
-1.1049316 4.4347076 -1.7661862
-1.5244336 4.3002863 -1.7631754
-1.6270117 4.2604814 -1.7624373
-2.0997264 4.2244134 -1.8230702
-2.3560448 4.2166777 -1.8666503
-2.4888086 4.2123857 -1.8907812
-2.7122655 4.1227336 -1.9070998
-2.8099022 4.0546074 -1.9063908
-2.905791 3.9841962 -1.9056933
-2.9999609 3.9115422 -1.9050077
-3.1828809 3.7596757 -1.9036735
-3.271533 3.6805584 -1.9030257
-3.358242 3.5993779 -1.9023912
-3.4429393 3.5161791 -1.9017702
-3.5256348 3.4310205 -1.9011635
-3.6062305 3.3439386 -1.900571
-3.6847167 3.2549956 -1.8999929
-3.7610447 3.1642308 -1.8994302
-3.8351758 3.0717077 -1.8988823
-3.9766502 2.8815887 -1.8978338
-4.0439453 2.7840984 -1.8973335
-4.1088572 2.6850646 -1.8968496
-4.1713867 2.5845373 -1.8963825
-4.2891798 2.3792498 -1.8954986
-4.3443651 2.2746058 -1.8950827
-4.4471874 2.0615985 -1.8943036
-4.4947557 1.9533569 -1.893941
-4.5397263 1.8440429 -1.8935964
-4.658916 1.5102367 -1.8926735
-4.6933103 1.3972253 -1.8924032
-4.725039 1.2834473 -1.892152
-4.780293 1.0538324 -1.8917068
-4.8246188 0.82191467 -1.8913391
-4.8426466 0.70524657 -1.8911841
-4.8703809 0.47081909 -1.8909336
-4.8910837 0.11742736 -1.8907058
-4.8909082 -0.11858337 -1.890653
-4.8866405 -0.23652038 -1.8906566
-4.8795605 -0.35432312 -1.8906798
-4.85708 -0.58926636 -1.8907859
-4.8234863 -0.82290101 -1.8909712
-4.8025489 -0.93906611 -1.8910934
-4.7788572 -1.0547082 -1.8912354
-4.7524314 -1.1697638 -1.8913968
-4.7232809 -1.2841785 -1.8915776
-4.6914353 -1.3978814 -1.8917779
-4.6196775 -1.622889 -1.8922362
-4.537324 -1.8443167 -1.8927706
-4.4922071 -1.953522 -1.8930664
-4.3942871 -2.1686304 -1.8937128
-4.286211 -2.3789334 -1.8944324
-4.228447 -2.4821301 -1.8948193
-4.1682324 -2.5839489 -1.895224
-4.1055956 -2.6843364 -1.8956459
-3.9732616 -2.8805654 -1.8965411
-3.9035938 -2.9763069 -1.8970143
-3.7574804 -3.1627591 -1.8980097
-3.6025975 -3.3421493 -1.8990691
-3.5219629 -3.4290729 -1.8996218
-3.2678223 -3.678129 -1.9013705
-3.0886524 -3.833941 -1.902608
-2.9962597 -3.9086368 -1.9032474
-2.9021094 -3.9811327 -1.9038996
-2.8062303 -4.0513892 -1.9045645
-2.0909178 -4.4770579 -1.9095489
-1.9831152 -4.527977 -1.9103034
-1.8740526 -4.576323 -1.9110671
-1.652539 -4.6651592 -1.9126205
-1.312539 -4.7784014 -1.91501
-1.1973926 -4.8107018 -1.9158207
-0.61120117 -4.930449 -1.9199579
-0.49230468 -4.9459257 -1.9207989
-0.37301758 -4.9585376 -1.9216435
-0.25341797 -4.9682837 -1.9224908
-0.013554688 -4.9791293 -1.9241924
0.10660156 -4.9802155 -1.9250458
0.34695312 -4.9736938 -1.9267548
0.58693355 -4.9555655 -1.9284641
0.82596678 -4.9258475 -1.930169
1.1815234 -4.8596234 -1.9327101
1.2989453 -4.8318119 -1.9335507
1.4157226 -4.8011537 -1.9343872
1.6470507 -4.7313461 -1.9360466
1.874873 -4.650341 -1.9376837
2.0986915 -4.5582981 -1.9392947
2.2089453 -4.5082002 -1.9400893
2.3179882 -4.4554133 -1.9408761
2.4257421 -4.3999705 -1.9416543
2.5321679 -4.3419018 -1.9424237
2.6371777 -4.2812371 -1.9431835
2.7407324 -4.2180119 -1.9439337
3.0419629 -4.0133162 -1.9461204
3.1390135 -3.9402063 -1.9468266
3.2343066 -3.8647232 -1.9475207
3.419287 -3.7068176 -1.9488711
3.5088866 -3.6244848 -1.9495264
3.6819921 -3.453294 -1.9507953
4.0023727 -3.0862389 -1.9531555
4.0768065 -2.9896472 -1.9537061
4.1488671 -2.8912396 -1.9542407
4.3503904 -2.5856769 -1.9557421
4.4125485 -2.4805849 -1.9562079
4.4721189 -2.3739703 -1.9566553
4.5833888 -2.156462 -1.9574953
4.6349707 -2.0456958 -1.9578872
4.6600876 1.9950848 -1.9589889
4.5012302 2.3255591 -1.9579359
4.4429297 2.4329631 -1.9575464
4.318584 2.6432769 -1.9567109
4.2526169 2.746043 -1.9562658
4.1841407 2.8471398 -1.9558024
4.1132517 2.9465106 -1.9553217
3.8863573 3.23364 -1.9537753
3.8061426 3.325506 -1.9532263
3.7237499 3.4153576 -1.9526614
3.5525682 3.588798 -1.9514849
3.4638965 3.6722918 -1.9508741
3.3732324 3.7535686 -1.9502487
3.186162 3.9092877 -1.9489552
3.0898926 3.9836333 -1.9482882
2.9918652 4.0555887 -1.9476084
2.892158 4.1251044 -1.9469159
2.6521485 4.2000713 -1.9196258
2.3823829 4.2097673 -1.8693072
2.2524219 4.2141557 -1.8465889
2.1254492 4.2182598 -1.8253852
2.0011914 4.2220926 -1.805624
1.8833398 4.2344623 -1.7909614
1.5671484 4.3454022 -1.7851492
1.4639746 4.3882709 -1.7877288
1.1392969 4.4686174 -1.7821378
0.81215817 4.5334148 -1.7798284
0.48161131 4.5742512 -1.7774894
0.37096679 4.5825105 -1.7767053
0.14941406 4.5910053 -1.7751331
-0.072099611 4.5887971 -1.7735591
-0.18267578 4.5836868 -1.7727723
-0.62231445 4.5367327 -1.7696382
-0.73124999 4.518415 -1.7688601
-0.83963865 4.4974895 -1.7680852
-1.0546386 4.4478912 -1.7665466
-1.1611328 4.4192462 -1.7657837
-1.2690527 4.3957682 -1.7681212
-1.4757324 4.3181977 -1.7635254
-1.578789 4.2795501 -1.7627844
-1.9181933 4.2294292 -1.7947077
-2.0409961 4.2260785 -1.8136566
-2.1663573 4.2224751 -1.8340073
-2.4258008 4.2144489 -1.8792019
-2.9558105 3.94607 -1.9053293
-3.0490429 3.8722417 -1.9046502
-3.6479979 3.2971568 -1.9002637
-4.0785446 2.731936 -1.8970757
-4.1422071 2.6321111 -1.8966006
-4.2034764 2.5308228 -1.8961422
-4.2623143 2.4281256 -1.8957008
-4.3725195 2.2187781 -1.8948699
-4.4238672 2.1122344 -1.8944808
-4.5188575 1.8957019 -1.8937564
-4.6417675 1.5632311 -1.8928074
-4.6774216 1.4505963 -1.8925283
-4.7406836 1.2230139 -1.8920269
-4.793076 0.99273801 -1.8916022
-4.815156 0.87675595 -1.8914187
-4.8344922 0.76029599 -1.8912545
-4.8648338 0.52618164 -1.8909857
-4.8758397 0.40866882 -1.8908807
-4.891953 -0.062965088 -1.8906585
-4.8890038 -0.18093872 -1.8906524
-4.8832517 -0.2988092 -1.8906665
-4.8747168 -0.41651917 -1.8907
-4.863369 -0.53399289 -1.8907537
-4.849287 -0.65116334 -1.8908272
-4.8127441 -0.88437194 -1.8910333
-4.7903514 -1.0002661 -1.8911661
-4.7067771 -1.3443792 -1.8916812
-4.6734958 -1.4576757 -1.8918917
-4.6375489 -1.5701635 -1.8921214
-4.2559767 -2.4336541 -1.8946346
-4.1354294 -2.6371956 -1.8954446
-4.0715232 -2.7368026 -1.8958759
-3.6398828 -3.3005266 -1.8988137
-3.5602343 -3.3883297 -1.8993593
-3.4785058 -3.4742546 -1.8999205
-3.2211914 -3.7201314 -1.9016922
-3.0400293 -3.8736997 -1.9029443
-2.9467187 -3.947233 -1.9035903
-2.7548633 -4.0876031 -1.9049212
-2.5563672 -4.2187619 -1.9063014
-2.3517089 -4.3403773 -1.9077276
-2.141289 -4.4521708 -1.9091971
-2.0340722 -4.5042911 -1.9099466
-1.5932715 -4.6868749 -1.9130366
-1.4803516 -4.7258992 -1.9138299
-1.2517773 -4.7958207 -1.9154377
-0.90289062 -4.880033 -1.917897
-0.78528321 -4.9025116 -1.9187275
-0.66706055 -4.9221725 -1.9195629
-0.42928711 -4.9529505 -1.9212451
-0.30983397 -4.9640512 -1.922091
-0.19010742 -4.9722724 -1.9229399
-0.070166014 -4.9776144 -1.9237907
0.04995117 -4.9800673 -1.9246435
0.17013672 -4.9796195 -1.9254974
0.29032227 -4.9762759 -1.9263519
0.65022457 -4.9488349 -1.928915
1.007666 -4.895339 -1.9314666
1.1259668 -4.8717427 -1.9323126
1.3607812 -4.8159585 -1.9339935
1.4771582 -4.7837992 -1.9348277
1.5928222 -4.7488103 -1.9356573
1.7076172 -4.7110181 -1.9364816
1.8215039 -4.670435 -1.9373
2.3750975 -4.4264393 -1.9412884
2.6921093 -4.2481337 -1.9435813
2.7948632 -4.1835651 -1.9443262
3.2839453 -3.8238742 -1.947883
3.5554199 -3.580075 -1.9498672
3.6419237 -3.4944179 -1.9505013
3.8086133 -3.3167899 -1.9517262
3.9664745 -3.131129 -1.9528902
4.1151853 -2.9378519 -1.9539907
4.1859765 -2.8385031 -1.9545163
4.2543454 -2.7374268 -1.955025
4.3202243 -2.634671 -1.9555166
4.383584 -2.5303137 -1.9559906
4.4443455 -2.4244134 -1.9564465
4.6109958 -2.0980692 -1.957705
4.6611719 -1.986632 -1.9580868
4.5821681 2.1649628 -1.9584743
4.4707422 2.3825159 -1.9577323
4.4110742 2.4891498 -1.9573327
4.2840333 2.6978056 -1.9564779
4.1469626 2.8998859 -1.9555506
3.5936718 3.5486882 -1.9517678
3.5059569 3.6332066 -1.951164
3.4162109 3.7155328 -1.9505453
3.038291 4.0219684 -1.9479305
2.9393651 4.0926433 -1.9472436
2.8387694 4.1608539 -1.9465448
2.7178125 4.1975946 -1.9324957
2.4447265 4.2075944 -1.8805652
2.3132911 4.2121234 -1.8571039
2.1849608 4.2163577 -1.8351955
2.0594041 4.2203169 -1.814764
1.8250879 4.2486186 -1.7869595
1.7213964 4.2896576 -1.7862322
1.1902636 4.4562726 -1.7824969
1.0819726 4.4817619 -1.7817334
0.97312498 4.504611 -1.7809656
0.53370118 4.5694256 -1.7778584
0.42314452 4.5789485 -1.7770752
0.31243163 4.5857987 -1.7762903
0.20166016 4.5899701 -1.7755041
0.09083984 4.5914617 -1.7747172
-0.01993164 4.5902777 -1.7739301
-0.1305957 4.5864263 -1.7731429
-0.57080078 4.5444598 -1.7700059
-0.78862303 4.5076761 -1.76845
-0.89670897 4.4853826 -1.7676773
-1.4268163 4.3355632 -1.7638769
-1.5303026 4.2980757 -1.7631332
-1.7436426 4.2382746 -1.7710742
-1.9827832 4.2276912 -1.8045523
-2.1069043 4.224206 -1.8242346
-2.2337694 4.2204633 -1.8453561
-2.6187499 4.1848383 -1.9077786
-2.9112206 3.9801006 -1.905654
-3.0053027 3.907321 -1.9049689
-3.0975878 3.8323381 -1.9042963
-3.3631248 3.5946777 -1.9023553
-3.4477441 3.5113592 -1.9017352
-3.610791 3.3389056 -1.9005374
-3.7653515 3.1589825 -1.8993983
-3.9110839 2.9720366 -1.8983203
-3.9805663 2.8760576 -1.8978046
-4.1124902 2.679353 -1.8968225
-4.1749024 2.5787463 -1.8963561
-4.2348728 2.4767127 -1.8959067
-4.3474412 2.2685797 -1.8950595
-4.3999901 2.1626055 -1.894662
-4.4499707 2.0554388 -1.8942825
-4.4973927 1.9471374 -1.8939209
-4.5844531 1.7273669 -1.8932519
-4.7817187 1.0472375 -1.8916953
-4.8257227 0.81524837 -1.8913296
-4.8435936 0.69856018 -1.8911757
-4.8586912 0.58149046 -1.8910419
-4.870996 0.46409363 -1.8909277
-4.8805466 0.34645507 -1.8908331
-4.8872657 0.22862853 -1.8907583
-4.8912306 0.11067932 -1.8907032
-4.8690624 -0.47864988 -1.890726
-4.8223634 -0.82955384 -1.8909776
-4.777422 -1.0613086 -1.8912438
-4.6895213 -1.4043542 -1.8917902
-4.5774608 -1.7404147 -1.8925095
-4.5348144 -1.8505838 -1.8927871
-4.4895506 -1.9597378 -1.8930838
-4.3913279 -2.1747148 -1.8937324
-4.2250586 -2.4879949 -1.894842
-4.1019626 -2.6900311 -1.8956704
-4.0368161 -2.7888403 -1.8961107
-3.969326 -2.8860881 -1.8965679
-3.8995507 -2.981734 -1.8970417
-3.8274803 -3.0757177 -1.8975323
-3.5980468 -3.3471758 -1.8991002
-3.434453 -3.518883 -1.9002234
-3.2628026 -3.6827068 -1.9014051
-3.0833983 -3.8382766 -1.9026443
-2.9909277 -3.9128451 -1.9032841
-2.8006835 -4.0553379 -1.9046029
-2.6037304 -4.1886988 -1.9059719
-2.4004686 -4.3125896 -1.9073876
-1.0748144 -4.8418555 -1.9166844
-0.958125 -4.8684616 -1.9175073
-0.84079099 -4.8922668 -1.9183356
-0.48548827 -4.9467244 -1.9208473
-0.36618164 -4.959177 -1.9216919
-0.24660155 -4.9687567 -1.9225394
-0.006689453 -4.9792695 -1.9242413
0.11347656 -4.9801884 -1.9250948
0.23367187 -4.9782157 -1.9259491
0.35381836 -4.9733362 -1.9268038
0.59380859 -4.9548774 -1.9285128
0.71344727 -4.9412971 -1.9293661
0.95173824 -4.9054642 -1.9310671
1.0702734 -4.8832221 -1.9319143
1.3056641 -4.8301301 -1.9335986
1.6536132 -4.7291851 -1.9360937
1.7679199 -4.6899104 -1.9369147
1.9937304 -4.6030483 -1.9385388
2.2152147 -4.5052524 -1.9401345
2.3241894 -4.4523139 -1.9409208
2.4318652 -4.3967156 -1.9416986
2.5382128 -4.3384967 -1.9424673
2.7466211 -4.2143159 -1.9439764
2.9489062 -4.08003 -1.945444
3.2396972 -3.8603365 -1.9475602
3.3330371 -3.7823846 -1.9482411
3.5139453 -3.6197081 -1.9495635
3.6014256 -3.5350635 -1.9502041
3.6868162 -3.4482696 -1.9508307
3.770117 -3.3593972 -1.9514428
4.0066991 -3.0807588 -1.9531873
4.0810056 -2.9840658 -1.9537371
4.1529102 -2.8855541 -1.9542706
4.2224216 -2.7852843 -1.9547876
4.4754395 -2.3678298 -1.9566803
4.5322361 -2.2596786 -1.9571084
4.5863867 -2.1501577 -1.9575182
4.6378512 -2.0393181 -1.9579092
4.6572752 2.0014985 -1.9589704
4.6068554 2.1128979 -1.9586378
4.55375 2.2229986 -1.9582857
4.3784766 2.5449042 -1.9571141
4.2487302 2.7518768 -1.9562396
3.9599121 3.1452403 -1.9542774
3.8818262 3.2389507 -1.9537442
3.8015137 3.3306999 -1.9531947
3.7189844 3.4204376 -1.9526287
3.6343162 3.5080957 -1.9520473
3.4587696 3.6770012 -1.9508389
3.3679783 3.7581561 -1.9502124
3.2752831 3.8370366 -1.949572
3.1807129 3.9136028 -1.9489175
3.0843358 3.9878154 -1.9482498
2.9862206 4.0596342 -1.9475691
2.7843847 4.1950455 -1.9457711
2.3748631 4.2100239 -1.8679649
2.2450879 4.2143989 -1.845335
2.1182616 4.2184868 -1.824216
1.8766699 4.2352152 -1.7901808
1.7703906 4.2706294 -1.7865759
1.6661913 4.3103228 -1.7858447
1.5611132 4.3474565 -1.7851068
1.2411133 4.4433417 -1.7828552
1.0245019 4.494174 -1.7813281
0.91541016 4.5156231 -1.7805579
0.36463866 4.582902 -1.7766604
0.14305663 4.5910907 -1.7750882
0.03227539 4.5911722 -1.7743011
-0.078447267 4.5885749 -1.773514
-0.1890039 4.5833149 -1.7727274
-0.40945312 4.5648174 -1.7711569
-0.51921874 4.5516033 -1.7703741
-0.62856442 4.5357523 -1.7695935
-0.73747069 4.5172868 -1.7688158
-0.84583008 4.4962125 -1.768041
-1.5846484 4.2772636 -1.7627423
-1.8046582 4.2323575 -1.7780734
-2.1736329 4.2222624 -1.8352159
-2.5681739 4.2097273 -1.9056884
-2.6713476 4.1502738 -1.9073969
-2.7696874 4.0831022 -1.9066828
-2.9611816 3.9419024 -1.9052901
-3.0543261 3.8679485 -1.9046116
-3.1456053 3.7918291 -1.9039457
-3.3225584 3.6332469 -1.9026523
-3.4081054 3.5508776 -1.9020257
-3.6524706 3.2920575 -1.9002306
-3.729707 3.2020373 -1.8996614
-3.8047361 3.1102381 -1.8991073
-4.2655954 2.4222174 -1.895676
-4.321826 2.3181 -1.8952528
-4.3755274 2.2127123 -1.894847
-4.4267282 2.1060979 -1.8944591
-4.5214257 1.8894427 -1.8937368
-4.5648632 1.7795238 -1.8934029
-4.6057029 1.6686261 -1.8930877
-4.6793847 1.4441259 -1.8925129
-4.7122169 1.330658 -1.8922536
-4.794414 0.98611325 -1.891591
-4.8163476 0.87010437 -1.8914087
-4.8355079 0.75361633 -1.891246
-4.8519044 0.63672054 -1.8911029
-4.8655272 0.51946473 -1.8909793
-4.8764062 0.40193421 -1.8908752
-4.8844433 0.28418884 -1.8907912
-4.8897166 0.16629151 -1.8907266
-4.8741307 -0.42324033 -1.8907027
-4.8483787 -0.65785885 -1.8908322
-4.8115525 -0.89100522 -1.8910403
-4.7889938 -1.0068817 -1.891174
-4.763711 -1.1221893 -1.8913273
-4.7356834 -1.2368737 -1.8915004
-4.7049513 -1.3508728 -1.8916926
-4.6354098 -1.5765743 -1.892135
-4.4645896 -2.0170009 -1.893248
-4.4154005 -2.1244662 -1.8935729
-4.3636522 -2.2307508 -1.8939162
-4.3094044 -2.335804 -1.8942776
-4.252666 -2.4395556 -1.8946569
-3.9327245 -2.9368515 -1.8968164
-3.8617187 -3.0316217 -1.8972992
-3.7884862 -3.1247151 -1.8977981
-3.5555956 -3.3932998 -1.8993912
-3.4737694 -3.4791026 -1.899953
-3.3898535 -3.5629632 -1.9005301
-3.2161229 -3.7246428 -1.9017272
-3.0347459 -3.8779693 -1.9029808
-2.941328 -3.9513774 -1.9036278
-2.5506248 -4.2223759 -1.9063416
-2.345752 -4.3437147 -1.9077693
-1.9193749 -4.5566106 -1.9107497
-1.69875 -4.6476326 -1.9122961
-1.2451757 -4.7976594 -1.9154841
-1.1295702 -4.8283496 -1.9162985
-1.0132324 -4.856267 -1.9171187
-0.77851564 -4.9037156 -1.9187753
