# .PCD v0.7 - Point Cloud Data file format
VERSION 0.7
FIELDS x y z
SIZE 4 4 4
TYPE F F F
COUNT 1 1 1
WIDTH 1494
HEIGHT 1
VIEWPOINT 0 0 0 1 0 0 0
POINTS 1494
DATA ascii
1.4530468 6.1750751 -0.77165699
1.2967676 6.1756973 -0.76759934
0.83640623 6.1775298 -0.75829655
0.68513668 6.1781316 -0.75611973
-0.063124999 6.1811013 -0.75191236
-0.21238281 6.1816912 -0.75238913
-0.51191407 6.1828766 -0.75466222
-0.96639645 6.1846709 -0.76143634
-1.2749902 6.1858878 -0.76827192
-1.4315624 6.1865044 -0.77241528
-1.5681933 6.1027031 -0.7664547
-1.8867773 6.1039557 -0.777152
-2.2455664 6.1891484 -0.80087477
-2.4163768 6.1898184 -0.80827278
-2.5904686 6.1904998 -0.81628805
-2.7681444 6.1911969 -0.82494932
-2.9497364 6.191906 -0.83428854
-3.1356151 6.1926346 -0.84433872
-4.3638768 6.1974335 -0.92199987
-5.0746188 6.200202 -0.97460407
-5.33041 6.2011981 -0.99469465
-5.5971289 6.2022357 -1.0162345
-5.8758106 6.2033195 -1.0393474
-6.7961817 6.2068939 -1.1195861
-7.3938961 6.1254277 -1.1679527
-8.2822752 6.2127481 -1.2594081
-10.212812 6.2202249 -1.4545851
-12.610829 5.728632 -1.6848587
-12.858037 5.1078019 -1.6829654
-13.076328 4.4770145 -1.6812747
-13.48997 4.2578545 -1.7207419
-14.405703 4.1674418 -1.8241869
-14.578876 3.4649382 -1.8227993
-14.869775 1.6826495 -1.8203317
-14.928866 0.96300536 -1.8197488
-14.946045 0.60244691 -1.8195449
-14.90871 -1.200863 -1.8193983
-14.787803 -2.2768719 -1.8200101
-14.731123 -2.6335039 -1.8203301
-14.666348 -2.9888058 -1.8207083
-14.326435 -4.393424 -1.8227969
-13.987705 -5.424603 -1.8249623
-13.859072 -5.7631688 -1.825797
-13.722675 -6.0988927 -1.8266869
-13.123964 -6.2162375 -1.7664475
-12.217138 -6.526134 -1.684855
-11.73541 -7.4068427 -1.6880682
-11.561279 -7.6931729 -1.689237
-11.380478 -7.9756308 -1.6904538
-11.193086 -8.2540913 -1.6917185
-10.999189 -8.5283728 -1.6930299
-10.798857 -8.7983437 -1.694388
-10.160185 -9.5809174 -1.6987357
-10.522344 -10.928471 -1.8453964
-10.262138 -11.186316 -1.8465747
-9.9959078 -11.438354 -1.847811
-6.6624413 -8.0057516 -1.266946
-8.8733692 -12.3853 -1.8533229
-6.7070508 -13.787594 -1.8650597
-6.3788476 -13.959477 -1.866943
-5.3694725 -14.430115 -1.8728848
-5.0252929 -14.571601 -1.8749599
-4.6775098 -14.705227 -1.8770809
-3.6142774 -15.057911 -1.8836962
-2.5249414 -15.336431 -1.8906635
-1.0404687 -15.588986 -1.9004911
-0.66492188 -15.630459 -1.9030361
0.090205073 -15.686988 -1.9082241
0.46932617 -15.701937 -1.9108639
1.2297753 -15.704973 -1.9162296
1.610664 -15.693016 -1.9189526
3.1336815 -15.554406 -1.9300785
5.0543165 -15.279395 -1.957662
5.4289451 -15.17373 -1.960341
6.1713767 -14.934541 -1.9656569
6.5386715 -14.801088 -1.9682903
6.9030762 -14.658459 -1.9709051
7.2643261 -14.506675 -1.9734999
7.6221871 -14.345853 -1.9760727
7.9763961 -14.17603 -1.9786215
8.3267384 -13.997253 -1.9811451
8.6729879 -13.809653 -1.9836416
10.012129 -12.972473 -1.9933227
10.334374 -12.742033 -1.9956589
10.651035 -12.503353 -1.9979575
10.96205 -12.256548 -2.0002179
11.565957 -11.73917 -2.0046155
11.858477 -11.468883 -2.0067499
12.144433 -11.191045 -2.0088396
12.423535 -10.905823 -2.0108829
12.695624 -10.61339 -2.0128777
10.342636 -8.2306042 -1.6078461
12.171758 -9.2154217 -1.85708
12.401895 -8.9272003 -1.8587765
12.624863 -8.6329813 -1.8604238
13.249141 -7.716363 -1.8650569
14.614472 -6.2950349 -1.9356322
15.510976 -6.2419219 -2.0338259
15.66621 -5.8692455 -2.0350111
15.948105 -5.1120582 -2.0371814
16.074589 -4.7280278 -2.0381653
16.19125 -4.3407331 -2.0390804
16.394823 -3.5573552 -2.0407016
16.481621 -3.1618152 -2.0414069
16.624668 -2.3643651 -2.0426025
16.680878 -1.9629989 -2.0430923
16.726797 -1.5602521 -2.0435095
16.762402 -1.1563764 -2.0438538
16.802538 -0.34641784 -2.044323
16.807032 0.059137572 -2.0444472
16.801132 0.46466979 -2.0444977
16.784824 0.86992306 -2.0444748
16.758125 1.2746271 -2.0443778
16.721132 1.6784784 -2.0442076
16.673769 2.0812066 -2.0439639
16.616114 2.4825568 -2.0436466
16.548222 2.8822155 -2.0432565
14.541406 5.1661248 -1.8771516
14.405723 5.5129008 -1.8762692
14.261309 5.8559589 -1.875324
14.1083 6.1950407 -1.8743169
11.60541 6.1330242 -1.5967015
10.961621 6.1356363 -1.5280588
10.370527 6.1380339 -1.4658854
9.8253908 6.1402445 -1.4093677
9.3204489 6.1422906 -1.3578067
8.7186422 6.0524187 -1.2910401
8.2985249 6.0626459 -1.2501299
6.8999023 6.1435647 -1.123799
6.5748239 6.1448808 -1.0946913
6.265996 6.1461272 -1.067659
5.6911426 6.1484489 -1.0191227
5.1650977 6.1505704 -0.97698301
4.6797361 6.1525273 -0.94029117
4.4502244 6.15345 -0.92374808
3.3615625 6.0740433 -0.84445596
2.8524706 6.1694803 -0.826792
2.6740332 6.1701956 -0.81800109
2.499248 6.1708951 -0.80986083
2.327832 6.1715798 -0.80234271
1.9938476 6.1729169 -0.78907681
1.67 6.1742096 -0.77802372
1.3543652 6.175468 -0.7690419
1.1990722 6.1760869 -0.76529205
1.0452148 6.1766996 -0.76202053
0.44009766 6.1791043 -0.75353491
0.29048827 6.1796989 -0.75253302
0.14119141 6.1802912 -0.75197124
-0.45639646 6.1826568 -0.75410897
-0.60675782 6.18325 -0.7557478
-0.75786132 6.1838479 -0.75783569
-1.0630566 6.1850519 -0.76338559
-1.2175097 6.1856623 -0.76686502
-1.3734667 6.186276 -0.77082533
-1.8271972 6.1037211 -0.77501649
-1.9891015 6.1043582 -0.78096551
-2.1538086 6.1055608 -0.7875402
-2.3528514 6.1895671 -0.80546683
-2.5256934 6.1902456 -0.81325072
-3.0663769 6.1923637 -0.84053808
-3.2551074 6.1931009 -0.85105473
-3.4487791 6.1938591 -0.86234707
-3.6477439 6.1946378 -0.87445939
-3.8525 6.1954374 -0.88743854
-4.0635548 6.1962614 -0.90134227
-4.281455 6.1971121 -0.91623259
-4.9826269 6.1998444 -0.96752018
-5.2346191 6.2008257 -0.98710442
-5.7713084 6.2029133 -1.0306102
-6.0581346 6.2040277 -1.0547833
-6.3589063 6.2051959 -1.0807612
-6.6750779 6.2064238 -1.1087153
-7.2604198 6.1249113 -1.1554527
-8.1293745 6.2121572 -1.2445363
-9.0030756 6.2155414 -1.3307822
-9.4875488 6.2174187 -1.3798097
-10.573837 6.2216215 -1.4923495
-11.186982 6.2239933 -1.5572305
-12.425019 6.1473966 -1.6862711
-12.561982 5.8422003 -1.6852309
-12.691826 5.5341349 -1.6842403
-12.929971 4.9100323 -1.6824106
-13.038183 4.5943232 -1.6815716
-13.140908 4.2769632 -1.681018
-14.193798 4.243731 -1.8020791
-14.46374 3.946856 -1.8237252
-14.549296 3.5953362 -1.8230389
-14.626758 3.2421117 -1.8224093
-14.696113 2.8873322 -1.8218368
-14.891953 1.4561474 -1.8201228
-14.92041 1.0962085 -1.8198391
-14.952704 0.37502867 -1.8194457
-14.956493 0.014103393 -1.8193368
-14.918506 -1.0677874 -1.8193592
-14.852129 -1.7865787 -1.8196658
-14.80665 -2.1447263 -1.8199062
-14.753027 -2.5017869 -1.8202051
-14.69125 -2.8575976 -1.8205618
-14.621338 -3.2119961 -1.8209764
-14.457294 -3.9158003 -1.8219784
-14.363213 -4.2648921 -1.8225656
-14.151162 -4.9565167 -1.8239108
-14.0333 -5.2987499 -1.8246679
-13.907568 -5.6383257 -1.8254817
-13.774014 -5.9751077 -1.8263513
-12.645264 -6.2267175 -1.7145666
-12.121045 -6.713728 -1.6854932
-11.962997 -7.0086412 -1.6865461
-11.798096 -7.3000212 -1.6876483
-11.626435 -7.5877624 -1.6887991
-11.263124 -8.1516047 -1.6912454
-11.071621 -8.4274616 -1.6925397
-10.868798 -10.566054 -1.843877
-10.617011 -10.831679 -1.8449756
-10.095038 -11.345854 -1.8473473
-8.9808788 -12.302015 -1.8527758
-8.6884279 -12.525258 -1.8542724
-8.3906927 -12.741899 -1.8558236
-8.0878029 -12.95184 -1.8574289
-7.7798438 -13.154964 -1.8590876
-7.467031 -13.351132 -1.8607986
-6.8273044 -13.722172 -1.8643762
-6.1698141 -14.064023 -1.8681551
-5.1529684 -14.520187 -1.8741872
-4.8064942 -14.656736 -1.8762916
-4.1032519 -14.905984 -1.8806347
-3.3874218 -15.122643 -1.8851297
-3.0252244 -15.218586 -1.8874373
-2.2932031 -15.385334 -1.8921729
-1.5522949 -15.518036 -1.8970605
-0.42746094 -15.652095 -1.9046576
0.32904297 -15.697459 -1.9098843
1.0890331 -15.707125 -1.9152294
1.8507812 -15.680809 -1.9206814
2.6126854 -15.618227 -1.9262297
2.0124023 -8.2899952 -1.0376613
4.1591501 -15.492558 -1.9512695
4.9152832 -15.316098 -1.9566684
5.2906933 -15.213898 -1.959352
6.0348926 -14.981555 -1.9646789
7.1311522 -14.563857 -1.972543
7.8458691 -14.239857 -1.9776819
8.5454588 -13.880039 -1.9827218
8.8889942 -13.686871 -1.9852003
9.2279978 -13.485022 -1.9876488
10.534648 -12.59257 -1.997112
11.456172 -11.83719 -2.0038149
11.751055 -11.569699 -2.0059659
12.321094 -11.012141 -2.0101326
12.543262 -8.7424574 -1.8598208
12.972578 -8.1410303 -1.8630003
13.175957 -7.8319759 -1.864512
13.559199 -7.1982117 -1.8673724
13.738828 -6.873888 -1.8687195
13.910293 -6.5449028 -1.8700094
15.226973 -6.2860432 -2.0038576
15.609921 -6.0075364 -2.0345807
15.898887 -5.2531476 -2.0368001
16.028965 -4.8704295 -2.0378094
16.149277 -4.4843011 -2.0387502
16.259726 -4.0950618 -2.0396216
16.360214 -3.7030075 -2.0404232
16.531094 -2.9113567 -2.0418146
16.601309 -2.5123725 -2.042403
16.661327 -2.1115868 -2.0429196
16.711054 -1.7092984 -2.0433638
16.750469 -1.3058319 -2.0437353
16.806581 -0.090847164 -2.0444098
16.804531 0.31474182 -2.0444877
16.792089 0.72014767 -2.0444922
16.736015 1.5292681 -2.0442791
16.638632 2.3343267 -2.0437722
16.321133 3.9234357 -2.0418847
14.827421 4.3308063 -1.8789881
14.589316 5.0369987 -1.8774618
14.456933 5.3851089 -1.876603
14.315722 5.7295709 -1.8756808
11.193105 6.1346979 -1.5526348
8.885869 6.0517411 -1.3077534
8.4466505 6.0560064 -1.264261
8.1395798 6.1385503 -1.2401159
7.7455955 6.1401443 -1.2023162
7.3747168 6.141645 -1.167418
6.693037 6.1444025 -1.1052009
5.2590528 6.1501908 -0.98433828
5.0080857 6.1512041 -0.96487141
4.3096189 6.1540155 -0.9138869
3.2421484 6.074523 -0.83757055
3.0565233 6.0752678 -0.8272599
2.9194336 6.1692133 -0.83021379
2.7395701 6.1699333 -0.8211742
2.5634668 6.1706376 -0.81279588
2.3908203 6.17133 -0.80505127
2.0547559 6.1726727 -0.7913571
1.7291894 6.173974 -0.77990746
1.5697266 6.1746097 -0.7749747
0.94887692 6.177083 -0.76019841
0.79691404 6.1776872 -0.7576856
0.64584959 6.178288 -0.75562668
0.34576172 6.1794806 -0.75285226
-0.10200195 6.1812539 -0.75199425
-0.25131837 6.1818452 -0.75258571
-0.40094724 6.1824369 -0.75361639
-0.55108398 6.1830301 -0.7550903
-0.7019043 6.1836271 -0.75701076
-0.85357422 6.1842256 -0.75938499
-1.1602441 6.1854362 -0.76552266
-1.6092187 6.1028643 -0.76773077
-1.9289453 6.1041217 -0.77870148
-2.0926659 6.1053214 -0.78507018
-2.2897558 6.1893206 -0.80274349
-2.4613965 6.1899943 -0.81030029
-2.8150585 6.19138 -0.82731581
-2.9977441 6.1920953 -0.8368367
-3.1847949 6.1928263 -0.84707844
-3.5735254 6.1943474 -0.86988157
-3.7760937 6.1951385 -0.88253528
-3.984746 6.1959538 -0.89609152
-4.2000585 6.1967936 -0.91060829
-4.4225879 6.1976604 -0.92615288
-4.6529689 6.1985602 -0.94279414
-5.1402731 6.2004571 -0.97970533
-5.3987989 6.2014642 -1.000162
-5.6685252 6.2025127 -1.0220993
-5.9505372 6.2036099 -1.045645
-6.245986 6.2047577 -1.0709339
-6.5562987 6.2059636 -1.0981365
-7.1297655 6.1244035 -1.1433083
-8.3922262 6.2131743 -1.2701638
-9.3043261 6.2167082 -1.3611749
-9.8117771 6.2186723 -1.4130453
-10.954189 6.2230935 -1.5324936
-12.226425 6.5607705 -1.6878406
-12.372598 6.2595038 -1.686668
-12.512168 5.9553862 -1.6856096
-12.644668 5.6483784 -1.6846006
-12.769971 5.3385649 -1.6836419
-12.888115 5.0261602 -1.6827334
-14.430068 4.0763531 -1.8239934
-14.518594 3.7255168 -1.8232861
-14.671426 3.0186853 -1.8220419
-14.735644 2.6629925 -1.8215057
-14.879335 1.5890539 -1.8202425
-14.934131 0.86909604 -1.8196899
-14.956044 0.14753601 -1.8193704
-14.945048 -0.57415158 -1.8192837
-14.901162 -1.2945971 -1.8194305
-14.715049 -2.7262061 -1.8204231
-14.573134 -3.4345393 -1.8212674
-14.490058 -3.7862475 -1.8217758
-14.192773 -4.8293719 -1.8236449
-13.954951 -5.5130839 -1.8251743
-13.824277 -5.8509398 -1.8260232
-12.922617 -6.2206535 -1.7445769
-12.326347 -6.3043966 -1.6841317
-11.859843 -7.1927104 -1.6872351
-11.690702 -7.4817843 -1.6883678
-11.514805 -7.7671432 -1.6895493
-11.332294 -8.048584 -1.6907787
-11.143203 -8.3259411 -1.6920555
-10.947607 -8.5991278 -1.6933793
-10.71083 -10.734111 -1.8445623
-9.9255953 -11.503018 -1.8481425
-6.6043749 -8.038229 -1.2654874
-6.3817673 -8.1610842 -1.2602113
-8.7971869 -12.443479 -1.8537127
-8.2003803 -12.875011 -1.8568292
-7.8942871 -13.080659 -1.8584682
-7.5832324 -13.279432 -1.86016
-6.2926464 -14.003052 -1.8674417
-4.2342677 -14.862342 -1.8798183
-3.8789549 -14.977812 -1.882036
-3.5206347 -15.085079 -1.8842868
-1.6898534 -15.496078 -1.8961461
-0.56684572 -15.63981 -1.9037048
0.18888672 -15.691745 -1.908909
0.94836915 -15.708058 -1.9142331
1.3289746 -15.702734 -1.9169366
4.0186915 -15.521079 -1.9502676
4.3981347 -15.440971 -1.9529749
4.7760153 -15.351546 -1.9556732
6.2673535 -14.900665 -1.9663447
6.9975095 -14.6198 -1.9715832
9.4392576 -13.353367 -1.9891762
9.7704487 -13.137535 -1.9915724
10.096601 -12.913252 -1.9939348
10.732617 -12.439829 -1.9985499
11.642774 -11.669501 -2.0051758
11.933594 -11.397209 -2.0072985
12.217773 -11.117436 -2.0093765
12.495078 -10.83034 -2.0114071
11.754883 -9.702035 -1.8540149
10.340683 -8.123374 -1.5995712
12.232402 -9.1409235 -1.8575268
12.895469 -8.2539091 -1.8624279
13.101621 -7.9468632 -1.863959
13.490723 -7.316896 -1.86686
13.673379 -6.9943562 -1.868228
14.014101 -6.3352432 -1.8707927
15.552343 -6.1452203 -2.0341413
15.705097 -5.7714953 -2.0353088
15.848339 -5.3937607 -2.0364101
16.105917 -4.6274433 -2.0384102
16.576523 -2.6600893 -2.0421939
16.806503 0.16478881 -2.0444677
16.79789 0.57029176 -2.0444989
16.778906 0.97544128 -2.0444567
16.709805 1.7835253 -2.0441513
16.599413 2.5868382 -2.0435522
16.448105 3.3832147 -2.0426614
14.875644 4.2012458 -1.8802772
14.636015 4.907443 -1.8777632
14.506894 5.2568364 -1.8769277
14.222265 5.9446893 -1.8750676
12.876445 6.1278653 -1.7346325
12.120175 6.1309342 -1.6522092
10.802832 6.136281 -1.5112715
9.6901369 6.1407928 -1.3954786
8.6033392 6.052886 -1.27958
8.2822561 6.1309772 -1.2534643
7.5092869 6.1411014 -1.1800011
6.4928708 6.1452103 -1.0874562
5.3544726 6.1498075 -0.99188304
4.6191602 6.1527715 -0.93587303
4.3917384 6.1536856 -0.91962063
3.9591992 6.1554265 -0.89026475
3.3119628 6.0742426 -0.84157246
3.124619 6.0749946 -0.83098727
2.986953 6.168941 -0.83373135
1.951123 6.1730876 -0.78751433
1.7886816 6.173737 -0.78186196
1.6284472 6.1743755 -0.77673912
1.31375 6.1756291 -0.76801848
1.005332 6.1768584 -0.76124352
0.85298824 6.177464 -0.75856161
0.70162106 6.1780667 -0.75633538
0.40109375 6.1792593 -0.7532317
0.25157225 6.179853 -0.75234467
0.10232422 6.1804447 -0.75189656
-0.046835937 6.1810369 -0.75188679
-0.79739255 6.1840043 -0.75845379
-0.94968748 6.1846061 -0.76111722
-1.1031641 6.1852102 -0.76424688
-1.5667382 6.1643353 -0.77367276
-2.0316992 6.1045256 -0.78260529
-2.1971385 6.1057329 -0.78932786
-2.3975585 6.189743 -0.80743492
-2.5712891 6.190424 -0.81538254
-3.3050976 6.1932988 -0.85392112
-3.7005174 6.1948442 -0.87775517
-3.9068553 6.1956487 -0.89097106
-5.3019824 6.201087 -0.99243301
-5.8447657 6.2031975 -1.0367435
-6.7601757 6.2067547 -1.1163441
-8.6662502 6.2142377 -1.297179
-9.6196871 6.2179289 -1.3933169
-11.355596 6.2246451 -1.5752237
-12.31918 6.3711591 -1.6870722
-12.596475 5.7622232 -1.6849681
-12.724492 5.4534197 -1.6839905
-12.958886 4.8280206 -1.6821868
-13.065166 4.5116959 -1.6813617
-14.570253 3.5034704 -1.8228694
-14.712841 2.7946594 -1.8216972
-14.771943 2.4381573 -1.8211972
-14.822871 2.0805182 -1.8207546
-14.865634 1.7218695 -1.8203698
-14.926494 1.0023663 -1.8197744
-14.954463 0.28098631 -1.8194119
-14.934755 -0.80139768 -1.8193048
-14.880498 -1.521163 -1.8195252
-14.737704 -2.5946188 -1.8202925
-14.673799 -2.9500875 -1.8206643
-14.433564 -4.0069613 -1.8221258
-14.337431 -4.3554873 -1.8227276
-14.12123 -5.0459352 -1.8241024
-11.754013 -7.375349 -1.6879436
-11.020674 -8.4986153 -1.6928844
-10.615029 -9.0351057 -1.6956369
-10.402832 -9.2965107 -1.697081
-10.184365 -9.5531874 -1.6985708
-10.290869 -11.15846 -1.8464432
-10.025273 -11.411124 -1.8476733
-6.4644237 -8.1164923 -1.2621816
-8.0080662 -13.005432 -1.8578558
-6.7426462 -13.768372 -1.8648571
-6.4149117 -13.941084 -1.8667349
-6.0829196 -14.106365 -1.8686621
-5.7468262 -14.264106 -1.8706378
-5.4068456 -14.414177 -1.8726611
-4.7156248 -14.69102 -1.8768474
-4.0106931 -14.936085 -1.8812133
-3.6534569 -15.046367 -1.8834498
-3.29333 -15.148449 -1.8857269
-2.9304395 -15.242218 -1.8880453
-2.5650001 -15.327617 -1.8904037
-1.8271972 -15.472959 -1.8952361
0.048828125 -15.684814 -1.9079373
0.42788085 -15.700747 -1.9105743
1.1881835 -15.705764 -1.9159338
1.9500879 -15.674728 -1.921399
3.0921874 -15.560118 -1.9297705
2.0572166 -8.2480879 -1.0340487
4.6364841 -15.385725 -1.9546766
5.0132813 -15.290378 -1.9573687
5.388154 -15.185721 -1.960049
5.7608008 -15.071782 -1.962716
6.4987302 -14.816091 -1.9680036
7.937871 -14.195003 -1.9783442
8.6353903 -13.830567 -1.9833704
8.9777346 -13.635139 -1.985841
9.3155661 -13.431005 -1.9882818
10.299395 -12.767605 -1.9954052
10.928379 -12.283897 -1.9999728
11.533652 -11.768212 -2.0043797
11.826836 -11.498767 -2.0065188
12.113477 -11.221734 -2.0086136
12.666269 -10.645678 -2.0126624
12.14623 -9.2465239 -1.856892
12.37711 -8.9589701 -1.8585937
12.600879 -8.6654015 -1.8602465
12.817324 -8.3660145 -1.8618487
13.026289 -8.0610275 -1.863399
13.227617 -7.7505722 -1.8648967
13.606816 -7.1141796 -1.8677288
13.784297 -6.7886024 -1.8690609
15.796542 -5.5338836 -2.036011
16.061249 -4.7701468 -2.0380609
16.178965 -4.3831844 -2.0389838
16.384747 -3.6004219 -2.0406203
16.61791 -2.4081175 -2.0425446
16.722265 -1.6042815 -2.0434673
16.785429 -0.79590392 -2.0440991
16.80707 0.014824829 -2.0444374
16.802284 0.42038938 -2.0444961
16.679434 2.0373046 -2.0439937
16.479139 3.2366107 -2.0428479
16.294825 4.02565 -2.0417213
15.319921 4.1794939 -1.9316446
14.798398 4.4235015 -1.8788036
14.681503 4.7774029 -1.8780559
14.555664 5.1280622 -1.8772442
14.420957 5.475214 -1.8763686
14.12539 6.1582193 -1.8744296
13.175586 6.1266499 -1.7675002
12.39127 6.1298347 -1.6816423
11.029219 6.1353617 -1.5352236
9.8828707 6.1400113 -1.4152844
8.7675877 6.0522199 -1.2959253
8.344326 6.062459 -1.2546247
8.0345697 6.1389751 -1.229972
7.6468358 6.1405449 -1.1929569
7.2815528 6.1420231 -1.1587614
6.9364452 6.1434183 -1.1271122
6.6095114 6.1447392 -1.0977668
6.0033298 6.1471882 -1.0451801
5.7211814 6.1483283 -1.0215983
5.4513278 6.149416 -0.99962431
4.7053027 6.1524248 -0.94216746
4.4749022 6.1533513 -0.92550117
3.5823338 6.0827689 -0.85869521
2.8721874 6.1694012 -0.82779336
2.3463769 6.1715069 -0.8031339
2.1776953 6.1721821 -0.79615009
1.6874511 6.17414 -0.77857244
1.3713964 6.1753998 -0.76948118
0.9091894 6.1772404 -0.75949913
0.75748044 6.1778445 -0.75710613
0.60662109 6.1784439 -0.75516409
0.4564746 6.17904 -0.75367051
0.15748046 6.1802263 -0.75201184
-0.1408789 6.1814079 -0.752105
-0.44000974 6.1825919 -0.75395691
-0.59030271 6.1831851 -0.75554657
-0.89325196 6.1843829 -0.76007867
-1.2005664 6.185595 -0.76646167
-1.513828 6.1868277 -0.77477133
-1.6503711 6.1030254 -0.76904225
-1.8096582 6.103653 -0.77439862
-1.971289 6.1042862 -0.78029048
-2.1357031 6.1054902 -0.78680432
-2.3341699 6.1894937 -0.80465317
-2.5066504 6.1901712 -0.81237072
-3.234287 6.1930218 -0.84986913
-4.0401855 6.1961699 -0.89977771
-4.2573142 6.1970158 -0.91455656
-4.4818358 6.1978922 -0.93037945
-4.7143555 6.1987982 -0.94731963
-4.9557028 6.1997395 -0.9654637
-5.4679589 6.2017341 -1.0057311
-5.7407813 6.2027946 -1.0280732
-8.0848827 6.2119842 -1.2402276
-8.9522266 6.2153449 -1.325682
-9.432929 6.217205 -1.3742436
-10.509941 6.2213736 -1.4856411
-12.547363 5.8756595 -1.6853421
-12.677988 5.5679154 -1.6843463
-12.801475 5.2574186 -1.6834003
-12.917725 4.9443536 -1.6825051
-13.128428 4.3111944 -1.6808676
-14.540341 3.633817 -1.8231111
-14.688935 2.9261491 -1.8218968
-14.850761 1.8545769 -1.8205056
-14.938857 0.77516478 -1.8196352
-14.951797 0.4144049 -1.8194613
-14.956484 0.053528443 -1.8193457
-14.921201 -1.0284381 -1.8193492
-14.893007 -1.3882855 -1.8194669
-14.552275 -3.5263383 -1.8213942
-14.272715 -4.5740666 -1.8231366
-14.163554 -4.9190049 -1.8238314
-13.788975 -5.938477 -1.8262537
-11.816445 -7.2683811 -1.6875254
-11.645527 -7.5565023 -1.6886709
-11.4679 -7.8408413 -1.6898651
-11.283652 -8.1212368 -1.6911068
-10.482031 -9.2003908 -1.6965417
-10.12416 -11.318398 -1.8472118
-9.0124903 -12.277234 -1.8526157
-8.7206154 -12.501183 -1.8541064
-8.4234667 -12.718572 -1.8556519
-6.8627048 -13.702654 -1.8641757
-6.536582 -13.878094 -1.866035
-6.2061524 -14.046116 -1.8679436
-5.871572 -14.206653 -1.8699017
-5.532959 -14.359592 -1.8719076
-3.7859275 -15.006536 -1.8826181
-3.4267676 -15.111667 -1.8848803
-3.0649121 -15.208523 -1.8871833
-1.9642285 -15.448669 -1.8943316
-1.2197851 -15.566025 -1.8992844
-0.46867186 -15.648601 -1.9043756
-0.09102539 -15.67668 -1.9069705
0.28762695 -15.695893 -1.9095957
0.66719723 -15.706191 -1.9122509
1.0474902 -15.707531 -1.9149348
1.4281836 -15.69988 -1.9176451
2.5711036 -15.622607 -1.9259242
-1.9466406 6.1040606 -0.92619258
-2.1106348 6.1052604 -0.93383217
-2.6556542 6.190618 -0.97378933
-2.8347461 6.1913176 -0.98437679
-3.20541 6.1927652 -1.0080476
-3.5952733 6.1942863 -1.0353562
-4.6785254 6.1985002 -1.1226544
-4.918457 6.1994314 -1.1439909
-5.1678419 6.2003999 -1.1668473
-5.4275489 6.201407 -1.1913457
-5.6985545 6.2024579 -1.2176154
-6.278955 6.2047052 -1.2761062
-8.4386034 6.21314 -1.5148846
-9.8230467 6.5258999 -1.7048504
-9.9708881 6.2827139 -1.7036936
-10.113261 6.0365081 -1.7026286
-10.380439 5.5350237 -1.7006207
-10.623867 5.0223269 -1.6987787
-10.736533 4.7621222 -1.6979212
-10.843124 4.4995074 -1.6971056
-11.010733 4.2606244 -1.7067454
-12.171035 3.7224724 -1.839922
-12.328076 3.1288233 -1.8386737
-12.39624 2.8295915 -1.8381225
-12.511826 2.2270849 -1.8371658
-12.55917 1.9241083 -1.8367612
-12.599502 1.6201837 -1.8364062
-12.632812 1.3154755 -1.8361007
-12.690596 0.39813477 -1.8354821
-12.695771 0.091790773 -1.8353757
-12.646025 -1.1322716 -1.835449
-12.616006 -1.4371905 -1.8355923
-12.578984 -1.7413675 -1.8357853
-12.534951 -2.0446587 -1.8360282
-12.210712 -3.5423503 -1.8379846
-12.125234 -3.8370819 -1.8385233
-11.933935 -4.4205298 -1.8397458
-11.828174 -4.7089481 -1.8404295
-10.77165 -6.2200327 -1.7981411
-10.217392 -6.2334714 -1.7302297
-9.8959866 -6.3700328 -1.7013402
-9.4267864 -7.0822735 -1.7045028
-9.2593069 -7.3125472 -1.7056372
-8.908164 -7.7615914 -1.7080232
-8.7246675 -7.9801111 -1.7092738
-8.3422756 -8.4045773 -1.711887
-7.7313571 -9.0079832 -1.7160788
-6.5706053 -8.0402212 -1.5010654
-7.432539 -10.572206 -1.8682345
-7.1803222 -10.756031 -1.8695478
-6.6628809 -11.106316 -1.8723117
-6.1289158 -11.432778 -1.8752545
-5.8560548 -11.586826 -1.8767912
-5.0155759 -12.011098 -1.8816546
-4.7285743 -12.139598 -1.883358
-3.8490038 -12.485164 -1.8887025
-2.6384473 -12.849801 -1.8963455
-1.7075391 -13.048742 -1.9024338
-1.3937012 -13.100492 -1.9045217
-0.44396484 -13.211389 -1.9109421
0.19438477 -13.247959 -1.9153574
0.51459962 -13.254933 -1.9176016
1.4772949 -13.230198 -1.9244694
2.4392772 -13.136594 -1.9315127
2.7589452 -13.090032 -1.933894
3.0778027 -13.035789 -1.9362897
3.408994 -13.024716 -1.9463009
3.7270117 -12.955183 -1.9487857
4.6704392 -12.695454 -1.9555306
5.5954003 -12.366155 -1.9621606
5.8986912 -12.241117 -1.9643383
6.1991696 -12.108518 -1.966498
7.0815821 -11.665972 -1.9728525
7.3687401 -11.503764 -1.9749243
7.9314451 -11.157807 -1.978991
8.7436619 -10.586273 -1.9848772
8.5286322 -9.3662348 -1.8312277
8.7601852 -9.1661539 -1.8329144
8.9869337 -8.9601831 -1.8345681
9.4251757 -8.5310564 -1.8377715
9.8421288 -8.0798149 -1.8408296
10.607422 -7.1154065 -1.8464727
11.11707 -6.3424835 -1.8502606
12.562207 -6.0073571 -2.0129821
12.710606 -5.7056656 -2.0141027
12.851386 -5.4001703 -2.0151699
12.984433 -5.0910568 -2.0161834
13.109746 -4.7785416 -2.0171428
13.437988 -3.8225894 -2.0196867
13.61625 -3.17204 -2.0210984
13.693047 -2.8434355 -2.0217175
13.761464 -2.5128946 -2.0222776
13.916308 -1.5119076 -2.0236032
13.950937 -1.1758642 -2.0239253
13.97709 -0.83900875 -2.0241873
13.994629 -0.50154662 -2.0243886
14.003652 -0.16373168 -2.0245295
13.995917 0.51208985 -2.0246286
13.920116 1.522871 -2.0243223
13.877753 1.8581097 -2.0240984
13.346484 4.1581221 -2.0208576
11.845351 4.9878716 -1.8580049
11.716152 5.2698259 -1.8571535
11.57998 5.5483036 -1.8562518
11.436874 5.8231182 -1.8553004
11.286894 6.0941033 -1.8542994
10.163554 6.1386309 -1.7164571
9.6339254 6.1407866 -1.6515613
9.1426077 6.1427875 -1.5922863
8.2460546 6.1379094 -1.4860452
7.4690037 6.1410661 -1.397835
7.1136618 6.1425104 -1.3586847
6.7774997 6.1438737 -1.3224173
5.5903125 6.1486845 -1.2013226
4.8285937 6.1517668 -1.1305369
4.3672657 6.1536307 -1.0908415
3.7306151 6.156199 -1.040603
3.2911913 6.0741839 -0.99870342
3.1043749 6.0749359 -0.98622113
2.7859862 6.1696086 -0.97860342
2.2651758 6.1716986 -0.95038098
1.9332324 6.1730256 -0.93511671
1.6110449 6.1743131 -0.92244917
1.4530176 6.1749454 -0.91703677
0.98862302 6.176796 -0.90428764
0.83638668 6.177403 -0.90115905
0.68511719 6.1780047 -0.89857185
0.38472655 6.1791983 -0.89499998
0.2352539 6.1797919 -0.89400274
-0.36192381 6.1821575 -0.89522636
-0.66251951 6.1833439 -0.89898545
-0.81394529 6.1839423 -0.90166563
-0.96637696 6.1845427 -0.90489119
-1.1199707 6.1851492 -0.90866995
-1.2749609 6.1857586 -0.91301507
-1.8867285 6.103826 -0.92356688
-2.0497558 6.105021 -0.93096244
-2.2455175 6.1890116 -0.95175755
-2.59041 6.1903629 -0.97007596
-2.7680762 6.1910577 -0.98036879
-2.9496679 6.1917667 -0.99146605
-3.3260448 6.1932354 -1.0162421
-3.5216112 6.1939983 -1.0300142
-3.722666 6.1947832 -1.0447818
-4.1431932 6.1964188 -1.0775539
-5.3302636 6.2010293 -1.182088
-5.5969725 6.2020636 -1.2076857
-5.8756442 6.2031436 -1.2351518
-6.1674805 6.2042742 -1.2646497
-7.8765526 6.2109699 -1.4500623
-9.9167871 6.3729386 -1.7040977
-10.200009 5.8797503 -1.7019781
-10.459745 5.3746147 -1.7000222
-10.580703 5.1179132 -1.6991066
-10.695605 4.8586197 -1.6982331
-10.9071 4.332818 -1.6966145
-11.488809 4.2458768 -1.7706364
-12.047695 4.1248298 -1.8408877
-12.138994 3.8314433 -1.8401736
-12.371836 2.9404004 -1.8383206
-12.435654 2.6402757 -1.8377999
-12.492549 2.3388288 -1.837328
-12.54246 2.0362427 -1.8369051
-12.686904 0.51135862 -1.835534
-12.695419 -0.10129578 -1.8353342
-12.655341 -1.0193615 -1.8354089
-12.552041 -1.932633 -1.8359326
-12.503623 -2.2352915 -1.8362069
-12.067861 -4.0218391 -1.8388876
-11.641523 -5.1739354 -1.8416464
-9.9502735 -6.2801361 -1.7009758
-9.8016014 -6.5222325 -1.7019742
-9.6472454 -6.7609615 -1.7030138
-9.4873238 -6.9962125 -1.7040936
-8.4144726 -8.3274097 -1.7113931
-8.2175484 -8.5347357 -1.7127413
-8.0157223 -8.7375813 -1.7141253
-7.8090134 -8.9358644 -1.7155451
-6.652832 -7.9942002 -1.5034943
-6.4309959 -8.1183233 -1.4972099
-6.9356933 -9.6807117 -1.7215639
-7.2741013 -10.688731 -1.8690569
-7.0191016 -10.868937 -1.8703995
-6.496367 -11.211804 -1.8732198
-5.1208496 -11.961928 -1.8810352
-4.2538962 -12.334892 -1.8862194
-3.958828 -12.445859 -1.8880253
-3.6609373 -12.549993 -1.8898687
-3.3603711 -12.647261 -1.8917489
-3.0573437 -12.737538 -1.8936648
-2.751914 -12.820803 -1.8956158
-1.8231348 -13.027736 -1.9016681
-1.5099121 -13.082236 -1.9037484
-0.87895507 -13.169051 -1.9079794
-0.5615918 -13.20133 -1.9101374
-0.24317382 -13.226154 -1.9123224
0.076142579 -13.243475 -1.9145334
0.71666014 -13.255425 -1.9190283
1.037539 -13.250002 -1.9213101
1.3585839 -13.236948 -1.923613
1.6796093 -13.216262 -1.9259356
2.0004492 -13.187902 -1.9282773
2.3209276 -13.151862 -1.9306365
2.9600098 -13.056736 -1.9354023
3.9264843 -12.906421 -1.9502102
4.2416992 -12.822721 -1.9524632
4.5550489 -12.731236 -1.9547045
4.8664646 -12.632017 -1.9569342
5.1757226 -12.525065 -1.9591502
5.4825778 -12.410467 -1.9613509
5.7868552 -12.288235 -1.9635351
6.0884275 -12.158418 -1.9657018
6.6823926 -11.876297 -1.9699756
7.5477929 -11.397846 -1.9762176
8.3778028 -10.854917 -1.9822232
8.2037592 -9.6305294 -1.8288653
8.6751461 -9.2408228 -1.8322946
9.127285 -8.827405 -1.8355931
10.16541 -7.6963925 -1.843208
10.356093 -7.4545593 -1.8446143
10.540723 -7.2078223 -1.8459791
10.891523 -6.700335 -1.8485806
11.057422 -6.439878 -1.8498157
12.088223 -6.2797036 -1.9692276
12.505468 -6.1179166 -2.0125549
12.936132 -5.2057538 -2.015815
13.064355 -4.8944745 -2.0167944
13.184668 -4.5799155 -2.0177188
13.29709 -4.2622814 -2.0185878
13.401425 -3.9417713 -2.0194004
13.497695 -3.6186152 -2.0201564
13.98912 -0.62636536 -2.0243213
13.964277 1.0621209 -2.0245299
13.933594 1.3986615 -2.0243893
13.894414 1.7342877 -2.024188
13.846719 2.0687902 -2.0239263
13.790566 2.4019146 -2.0236044
13.726015 2.7334576 -2.0232222
13.571836 3.3909063 -2.0222795
13.384628 4.0393744 -2.0211008
12.737089 4.1818328 -1.9379972
12.010703 4.5963545 -1.8590872
11.764746 5.1659732 -1.8574743
11.631152 5.4457526 -1.8565911
11.343144 5.9943695 -1.8546753
11.188965 6.262836 -1.8536439
9.8250189 6.1400089 -1.6748636
9.3200979 6.1420646 -1.61359
8.7183199 6.0522037 -1.5342523
8.2982321 6.0624371 -1.4856374
6.5746288 6.1446953 -1.3009182
6.26582 6.1459489 -1.2687948
5.6909666 6.1482768 -1.2111162
5.4224119 6.1493659 -1.1852041
5.1649609 6.1504059 -1.1610398
4.9176464 6.1514068 -1.1384888
4.4501171 6.1532965 -1.0977774
4.2283983 6.154191 -1.0794142
3.8059375 6.1558952 -1.0462501
3.5607519 6.0827103 -1.0189084
3.0348241 6.1686087 -0.9938184
2.6739745 6.1700592 -0.97211057
2.4991894 6.1707597 -0.9624365
2.1594043 6.172121 -0.9452793
1.9938085 6.1727839 -0.93773842
1.8307323 6.1734357 -0.93085247
1.6699609 6.1740775 -0.92460233
1.5112402 6.1747136 -0.91896695
1.1990527 6.1759586 -0.9094727
0.74095702 6.1777835 -0.89946532
0.5901953 6.1783819 -0.89721787
0.29048827 6.1795721 -0.89430976
-0.30659178 6.1819391 -0.89476418
-0.45638672 6.1825299 -0.89618284
-0.60673827 6.1831241 -0.89813077
-1.063037 6.1849246 -0.90720767
-1.2174804 6.1855326 -0.91134143
-1.5311133 6.1867657 -0.92134565
-1.9890527 6.1042266 -0.92809767
-2.1537597 6.1054301 -0.93591106
-2.5256348 6.1901093 -0.96646661
-2.7019532 6.1907988 -0.97647148
-2.8820605 6.1915021 -0.98726708
-3.0662987 6.1922221 -0.99889278
-3.2550292 6.1929584 -1.0113903
-3.4486914 6.1937151 -1.0248097
-3.6476464 6.1944904 -1.0392029
-3.852412 6.1952872 -1.0546281
-4.2813573 6.1969571 -1.0888461
-4.5066991 6.1978326 -1.1077899
-4.7401562 6.1987405 -1.1280742
-4.9824901 6.1996818 -1.1497945
-5.771152 6.2027397 -1.2247691
-6.0579686 6.2038507 -1.2534959
-6.913125 6.1234651 -1.335047
-7.2601852 6.1247149 -1.3731239
-8.1290913 6.2119465 -1.4789864
-8.5512695 6.2135749 -1.528066
-9.0027437 6.2153168 -1.5814748
-9.8620119 6.4627848 -1.7045275
-10.149394 5.9718561 -1.7023578
-10.653799 4.9547758 -1.6985513
-10.764912 4.6939225 -1.6977044
-11.198945 4.2526922 -1.7317413
-12.012217 4.2327986 -1.8411639
-12.273203 3.349107 -1.8391128
-12.41289 2.7513964 -1.8379866
-12.472314 2.4504309 -1.8374969
-12.570352 1.8450091 -1.8366641
-12.608848 1.540866 -1.8363219
-12.682236 0.62455928 -1.8355929
-12.692627 0.31834412 -1.8354495
-12.695967 0.011967163 -1.835356
-12.692256 -0.29436827 -1.8353125
-12.66372 -0.90640074 -1.8353752
-12.638886 -1.2117693 -1.8354815
-12.607031 -1.5165108 -1.8356378
-12.568173 -1.8204845 -1.835844
-12.522344 -2.1235137 -1.8360996
-12.469522 -2.4254532 -1.8364052
-12.269521 -3.3232338 -1.8376178
-11.799521 -4.7837057 -1.8406156
-11.68539 -5.0690684 -1.8413594
-11.16331 -6.183248 -1.8448052
-9.7049799 -6.6731009 -1.7026244
-9.3836622 -7.142633 -1.7047945
-9.2147751 -7.3719244 -1.7059393
-9.0404882 -7.5973864 -1.707123
-8.8608589 -7.8189273 -1.7083453
-8.4860249 -8.2496424 -1.7109036
-6.7353415 -7.9480205 -1.5060525
-6.5128121 -8.0725584 -1.4994268
-7.0193748 -9.6152143 -1.720986
-7.3672462 -10.620653 -1.8685724
-7.1138768 -10.802984 -1.8698976
-6.3281932 -11.314909 -1.8741457
-6.0581932 -11.473497 -1.8756506
-5.7843356 -11.625946 -1.8771985
-5.2256541 -11.911872 -1.8804214
-4.0682616 -12.405627 -1.8873532
-3.1696484 -12.704988 -1.8929526
-2.8651073 -12.790845 -1.8948904
-2.5582812 -12.869631 -1.8968627
-1.9385449 -13.005747 -1.9009063
-0.67906249 -13.19027 -1.9093363
-0.3609668 -13.217862 -1.9115117
-0.042001951 -13.237944 -1.913713
0.27776366 -13.250495 -1.9159397
1.2398731 -13.242678 -1.9227591
1.5609082 -13.224812 -1.9250745
1.8818554 -13.19928 -1.9274095
2.5226269 -13.125207 -1.9321318
3.4922655 -13.008414 -1.9471096
4.1253419 -12.854575 -1.9516313
4.439414 -12.765969 -1.9538772
4.7515917 -12.669597 -1.9561116
5.0616598 -12.565517 -1.9583327
5.6746583 -12.334309 -1.9627296
6.8669138 -11.781237 -1.9713049
7.4429393 -11.460319 -1.9754602
7.7252636 -11.289033 -1.9775
8.1146193 -9.6999168 -1.8282177
8.3543653 -9.5103426 -1.82996
8.819746 -9.1130714 -1.8333486
9.4807224 -8.4735079 -1.8381784
9.690547 -8.2491608 -1.8397164
9.894824 -8.0194607 -1.8412167
10.286269 -7.5445566 -1.844099
10.653965 -7.0498986 -1.8468173
10.828574 -6.7955227 -1.8481129
10.996836 -6.5366783 -1.8493643
12.447695 -6.227891 -2.0121207
12.601602 -5.9291449 -2.0132792
12.748027 -5.6264391 -2.0143859
12.886758 -5.3199668 -2.015439
13.141093 -4.6965928 -2.0173836
13.36377 -4.0606098 -2.0191066
13.463027 -3.7383981 -2.0198834
13.637051 -3.0866375 -2.0212653
13.711699 -2.7575028 -2.0218692
13.8358 -2.093848 -2.0229001
13.885215 -1.7597522 -2.0233264
13.926152 -1.424444 -2.0236928
13.958593 -1.0881817 -2.0239997
14.00457 -0.075699463 -2.0245562
14.002792 0.26226562 -2.0246205
13.973456 0.93748409 -2.0245667
13.909922 1.6103253 -2.0242696
13.865352 1.9452472 -2.0240302
13.812324 2.2789147 -2.0237305
13.602851 3.2699871 -2.0224719
13.421699 3.9202325 -2.0213366
13.10084 4.1721416 -1.9875996
12.183476 4.2063704 -1.8632798
11.812383 5.0616422 -1.8577881
11.543359 5.6202593 -1.8560089
11.398457 5.8940778 -1.8550444
8.4449511 6.0547919 -1.5021774
8.1393061 6.1383429 -1.4737326
7.3744822 6.1414509 -1.3873439
7.0243359 6.1428714 -1.3489715
6.3782225 6.1454926 -1.2804015
5.2589159 6.1500273 -1.1697791
5.0079589 6.1510415 -1.1466459
4.7665915 6.1520181 -1.125052
4.5340333 6.152957 -1.1048908
3.8820899 6.1555877 -1.0520438
3.6338184 6.0824161 -1.0242469
3.4324608 6.0736175 -1.008521
3.2420604 6.0743842 -0.99536514
3.0564454 6.07513 -0.9831121
2.3907714 6.1711946 -0.95672148
2.2213085 6.1718731 -0.9482398
1.7291503 6.173842 -0.92684132
1.5696973 6.1744804 -0.92098033
1.4121289 6.1751089 -0.91572297
1.256289 6.1757302 -0.91105324
0.94885743 6.1769547 -0.90341973
0.34575194 6.1793523 -0.8946898
0.047177732 6.1805377 -0.89349014
-0.10199218 6.1811285 -0.89367056
-0.25131837 6.1817203 -0.89437211
-0.55107421 6.1829047 -0.8973484
-1.0062695 6.1847 -0.9058221
-1.1602148 6.185307 -0.90974677
-2.092617 6.1051898 -0.93297637
-2.2897069 6.1891861 -0.95398021
-2.8149998 6.1912417 -0.98317999
-2.9976757 6.1919537 -0.99449509
-3.3764844 6.1934333 -1.0197369
-3.5734472 6.194201 -1.0337642
-4.1999512 6.196641 -1.0821627
-4.4224806 6.1975055 -1.1006349
-4.6528416 6.1984 -1.1204108
-4.8918066 6.1993279 -1.1415887
-5.1401367 6.2002921 -1.1642742
-5.3986521 6.2012959 -1.188585
-7.1295309 6.1242108 -1.3586929
-7.5925097 6.2098737 -1.4179454
-7.9797459 6.211369 -1.4618411
-8.8321972 6.2146587 -1.561195
-9.9549904 6.3094058 -1.7038125
-10.097998 6.0635428 -1.7027429
-10.235175 5.8145928 -1.7017142
-10.366484 5.5627189 -1.700726
-10.724541 4.7906547 -1.6980125
-10.831778 4.5282941 -1.6971928
-12.320195 3.161402 -1.838737
-12.38916 2.8623285 -1.8381801
-12.451172 2.5618615 -1.8376721
-12.50624 2.2601001 -1.837213
-12.59542 1.653424 -1.8364428
-12.629512 1.3487756 -1.8361317
-12.656582 1.043485 -1.8358703
-12.689599 0.43157896 -1.8354968
-12.686279 -0.48738036 -1.8353109
-12.648867 -1.0989208 -1.8354365
-12.432675 -2.6151211 -1.8366228
-12.368565 -2.9149737 -1.837009
-12.297539 -3.2133412 -1.8374444
-12.219648 -3.5100386 -1.8379288
-12.134883 -3.8049841 -1.8384622
-12.043369 -4.0979915 -1.8390439
-11.840058 -4.6775684 -1.8403524
-11.215888 -6.0822229 -1.8444558
-10.834824 -6.2184911 -1.805944
-9.2778711 -7.2875838 -1.7055113
-9.1055365 -7.5144854 -1.7066809
-8.9279099 -7.737474 -1.7078887
-8.7449703 -7.9564538 -1.7091354
-8.3636522 -8.3818388 -1.7117407
-8.1654291 -8.5880232 -1.7130984
-6.3730469 -8.149931 -1.4956197
-6.9519629 -10.914946 -1.8707564
-6.4270115 -11.25472 -1.8736007
-6.1584864 -11.415577 -1.875089
-5.6098337 -11.718795 -1.8781961
-5.330029 -11.860935 -1.8798128
-5.0467186 -11.996675 -1.8814712
-4.7600684 -12.125898 -1.88317
-4.4702148 -12.248508 -1.8849087
-3.8814745 -12.47366 -1.8885021
-3.2816601 -12.671452 -1.8922448
-2.9779687 -12.759931 -1.8941699
-2.6719921 -12.841331 -1.8961296
-2.3638282 -12.915629 -1.8981231
-1.741709 -13.042634 -1.9022073
-1.4280566 -13.095204 -1.9042928
-1.1128711 -13.140399 -1.9064016
-0.47871092 -13.208522 -1.9107041
0.15944335 -13.246735 -1.9151134
0.4795996 -13.254526 -1.9173553
2.4043555 -13.141201 -1.9312539
3.3737011 -13.029956 -1.9457512
4.6364059 -12.706129 -1.955287
4.9472556 -12.604904 -1.957513
5.8657031 -12.255149 -1.9641016
6.1664939 -12.123361 -1.9662631
6.7588181 -11.837356 -1.9705261
7.0500193 -11.68325 -1.9726248
7.6213279 -11.353214 -1.9767486
8.1767769 -10.994611 -1.9807669
8.4480658 -10.804813 -1.9827328
8.7148342 -10.608161 -1.9846679
8.2662792 -9.581151 -1.8293196
8.5030565 -9.3877192 -1.8310416
8.7351656 -9.1882849 -1.8327318
8.9624214 -8.9829636 -1.8343893
9.4017773 -8.5550528 -1.8376004
9.6135931 -8.3327398 -1.8391522
10.215644 -7.6338701 -1.8435781
10.404746 -7.390739 -1.8449737
12.270117 -6.2765508 -1.9923908
12.545567 -6.0400572 -2.0128567
12.694785 -5.738802 -2.013983
13.214687 -4.4974408 -2.0179503
13.325039 -4.1790342 -2.0188048
13.427285 -3.8578343 -2.0196028
13.607363 -3.2077868 -2.0210271
13.815391 -2.2169991 -2.0227273
13.947577 -1.2125933 -2.0238931
13.974628 -0.87583005 -2.0241616
13.993125 -0.53841615 -2.0243695
14.003066 -0.20062134 -2.0245171
14.004453 0.13731262 -2.0246038
13.924238 1.4862041 -2.024343
13.882832 1.8215698 -2.0241258
13.77455 2.4884577 -2.0235107
13.707831 2.8195617 -2.023113
13.632714 3.1487713 -2.022656
13.549316 3.4759252 -2.0221395
13.457656 3.8007793 -2.021564
12.491445 4.1883621 -1.9045892
12.094356 4.3826118 -1.8596314
11.980292 4.6712785 -1.858889
11.730605 5.2392168 -1.8572489
11.452812 5.7932954 -1.8554066
10.223926 6.1383843 -1.7239165
9.689765 6.1405606 -1.6583587
9.194541 6.1425762 -1.5985067
7.1515136 6.1423564 -1.3628165
6.8133492 6.1437273 -1.3262457
5.8973436 6.1474433 -1.2314883
5.619873 6.1485648 -1.2041888
4.8547654 6.1516619 -1.1328647
4.6190429 6.1526141 -1.1121864
4.3916306 6.153532 -1.0928718
3.9591014 6.1552777 -1.0579866
3.7527733 6.1561089 -1.0422568
3.5041699 6.073328 -1.0136254
3.1245508 6.0748553 -0.98754108
2.9868846 6.1688018 -0.99080479
2.8055663 6.1695294 -0.97976005
2.283623 6.1716242 -0.95129436
2.1159961 6.1722956 -0.94325036
1.9510839 6.1729546 -0.93588102
1.628418 6.1742435 -0.92307615
1.470166 6.1748786 -0.91759777
1.3137305 6.1755023 -0.91271323
1.1588379 6.1761198 -0.9084056
0.85297847 6.1773367 -0.90147358
0.70160156 6.1779399 -0.89882892
0.55101562 6.1785369 -0.8967194
0.40108398 6.1791339 -0.89513975
-0.34556639 6.1820927 -0.89508331
-0.49548826 6.1826849 -0.89663911
-0.79737306 6.183876 -0.90134656
-1.1031348 6.1850824 -0.90823001
-1.257959 6.1856914 -0.91251171
-1.8691015 6.1037555 -0.92280692
-2.1970899 6.1055984 -0.9380371
-2.3975 6.1896076 -0.95955437
-2.5712206 6.1902871 -0.96899879
-2.9296288 6.1916885 -0.99021435
-3.1150293 6.1924138 -1.0020623
-3.3050194 6.1931548 -1.0147961
-3.7004199 6.1946955 -1.043119
-3.9067676 6.1954999 -1.0588253
-4.1195507 6.1963272 -1.0756454
-4.3393164 6.1971817 -1.0936594
-4.5667286 6.1980643 -1.1129433
-5.5672851 6.2019486 -1.2048024
-6.134912 6.2041483 -1.2613235
-6.4395604 6.2053266 -1.2927854
-6.7599707 6.2065668 -1.3266498
-7.0015817 6.1237164 -1.3446716
-8.6659374 6.2140164 -1.5415465
-10.045772 6.1548185 -1.7031338
-10.185117 5.9069953 -1.7020898
-10.318623 5.6561918 -1.7010866
-10.567783 5.1460638 -1.6992046
-10.68333 4.8870659 -1.6983267
-10.792842 4.6255741 -1.6974909
-12.364463 2.9730816 -1.8383803
-12.48669 2.3718109 -1.837377
-12.537373 2.069334 -1.8369488
-12.581055 1.7658588 -1.8365703
-12.617724 1.4614996 -1.836241
-12.647402 1.1564294 -1.8359611
-12.695674 -0.067839354 -1.8353399
-12.690117 -0.3741577 -1.8353094
-12.65791 -0.98599547 -1.8353982
-12.63124 -1.2912292 -1.8355175
-12.597597 -1.5958031 -1.8356866
-12.509238 -2.2022924 -1.8361746
-12.454599 -2.5039358 -1.8364929
-12.393056 -2.8042674 -1.8368607
-12.078008 -3.9898944 -1.8388228
-11.982187 -4.2815967 -1.8394357
-11.879658 -4.5710983 -1.8400961
-11.770439 -4.8582926 -1.8408047
-11.654551 -5.1430116 -1.8415611
-11.5321 -5.4250841 -1.8423647
-11.403095 -5.7044058 -1.8432151
-11.267617 -5.9808164 -1.8441122
-9.9661522 -6.2535086 -1.7008694
-9.6643648 -6.7350626 -1.7028983
-9.5050392 -6.9707055 -1.7039737
-9.1698923 -7.431036 -1.7062439
-8.9941988 -7.6555023 -1.7074378
-8.4356537 -8.3045015 -1.7112482
-8.2393255 -8.5122976 -1.712592
-7.8317966 -8.9144506 -1.7153884
-6.6771774 -7.980576 -1.5042362
-6.4551368 -8.1048231 -1.4978532
-7.3016891 -10.668714 -1.8689129
-7.0471778 -10.849532 -1.8702505
-5.9872069 -11.51382 -1.8760498
-5.4339061 -11.809109 -1.8792101
-5.151865 -11.947241 -1.8808534
-4.8664355 -12.078881 -1.8825372
-4.2859569 -12.32238 -1.8860245
-2.7853808 -12.812048 -1.895401
-2.1685741 -12.958766 -1.8993963
-1.2295703 -13.124556 -1.9056185
-0.59627926 -13.198179 -1.9099004
-0.27794921 -13.223804 -1.9120828
1.3234961 -13.238762 -1.9233602
1.6445605 -13.218906 -1.9256811
1.9654199 -13.191377 -1.9280206
2.9251854 -13.062727 -1.9351405
2.0569725 -8.247097 -1.2287403
3.5750682 -12.990147 -1.9477007
4.520947 -12.741611 -1.9544607
4.8325586 -12.643232 -1.9566914
5.1420603 -12.537127 -1.9589089
5.4491892 -12.423349 -1.9611114
5.7537694 -12.301958 -1.9632975
6.3545408 -12.036445 -1.9676156
6.6502829 -11.892466 -1.9697442
7.5168748 -11.416391 -1.9759942
7.7981639 -11.243242 -1.978027
8.6167383 -10.681656 -1.9839561
8.6498823 -9.2627287 -1.8321108
8.8789644 -9.0595417 -1.8337805
9.103076 -8.850564 -1.8354162
9.3221283 -8.6358681 -1.8370174
9.744277 -8.1898327 -1.840111
10.144238 -7.7224994 -1.843052
10.52084 -7.2350039 -1.8458319
10.700058 -6.984046 -1.8471593
10.873027 -6.7285132 -1.8484432
11.039609 -6.4685187 -1.8496832
12.640488 -5.8506322 -2.0135727
12.784883 -5.546947 -2.0146651
12.921699 -5.239531 -2.0157049
13.285195 -4.2971015 -2.0184958
13.390429 -3.9769199 -2.0193145
13.487597 -3.6540327 -2.0200768
13.729726 -2.6714292 -2.0220165
13.849453 -2.0069356 -2.0230165
13.987285 -0.66322571 -2.0242996
14.000371 -0.32554993 -2.0244691
13.988261 0.68803525 -2.0246148
13.96709 1.0253052 -2.0245416
13.852344 2.0323102 -2.023958
13.797129 2.3656096 -2.0236425
13.661445 3.027271 -2.0228319
13.581094 3.355222 -2.0223372
13.492499 3.6809514 -2.0217836
13.395702 4.0042133 -2.0211713
11.506269 5.6919694 -1.8557625
10.432324 6.137536 -1.7497507
9.3734369 6.1418476 -1.6200175
8.7672749 6.0520039 -1.5400513
8.3440332 6.0622501 -1.4909744
7.6465816 6.1403446 -1.4176948
6.6093063 6.144556 -1.3045721
6.298779 6.1458158 -1.2721887
5.4511719 6.1492486 -1.1879442
5.1925683 6.1502957 -1.1635976
4.9441795 6.1513004 -1.1408768
4.7051759 6.152266 -1.1196653
4.4747849 6.1531963 -1.0998597
4.0369725 6.154964 -1.0640806
3.3823633 6.0738177 -1.0050039
3.1932616 6.0745792 -0.99208802
3.0403028 6.1388602 -0.99031705
2.6932812 6.169981 -0.9732132
2.5181153 6.1706839 -0.96345681
2.0117481 6.1727128 -0.93852913
1.8484179 6.1733646 -0.93157345
1.5284668 6.1746454 -0.91955346
1.3713769 6.1752701 -0.91445112
1.2159375 6.1758914 -0.90993106
0.90916991 6.177115 -0.90258873
0.75747067 6.1777177 -0.89974415
0.45646483 6.1789141 -0.89566302
0.15748046 6.1800995 -0.89368969
-0.14086914 6.181282 -0.8938024
-0.44 6.1824665 -0.89600182
-0.59030271 6.1830597 -0.89789176
-0.89323241 6.1842546 -0.9032777
-1.04625 6.1848588 -0.90678966
-1.5138086 6.1866984 -0.92073792
-1.8096191 6.1035223 -0.92029548
-1.9712499 6.104157 -0.92729419
-2.135664 6.1053581 -0.93503541
-2.3341112 6.1893597 -0.95624846
-2.5065918 6.1900349 -0.96541977
-3.0459569 6.192143 -0.99758214
-3.2342088 6.1928778 -1.0099821
-3.8297656 6.1951995 -1.0528932
-4.481709 6.1977363 -1.1056581
-5.2064743 6.2005486 -1.1704478
-5.4678125 6.2015643 -1.1952007
-5.7406149 6.20262 -1.2217536
-6.0259862 6.2037263 -1.2502586
-6.6395602 6.2061014 -1.3138354
-6.8763766 6.123322 -1.3310617
-7.6911426 6.2102556 -1.429046
-8.0846291 6.2117743 -1.4738684
-8.9519043 6.2151203 -1.5754166
-9.9928122 6.2456694 -1.70353
-10.523516 5.2411919 -1.69954
-10.641337 4.9831109 -1.6986461
-10.753096 4.7225323 -1.6977948
-10.85874 4.4595609 -1.6969861
-11.920107 4.2356877 -1.8287512
-12.096104 3.9721966 -1.8405099
-12.183887 3.6777861 -1.8398209
-12.264775 3.3815613 -1.83918
-12.338838 3.0836358 -1.838587
-12.405976 2.7841735 -1.8380432
-12.466191 2.4833598 -1.8375479
-12.66246 0.96385926 -1.8358103
-12.691816 0.35177857 -1.8354629
-12.692998 -0.26092222 -1.8353149
-12.683018 -0.56713438 -1.8353158
-12.665996 -0.8730011 -1.8353666
-12.641924 -1.1784455 -1.8354675
-12.572773 -1.7873199 -1.8358189
-12.527685 -2.0904639 -1.8360693
-12.350713 -2.9928632 -1.8371176
-12.27789 -3.2908156 -1.8375659
-12.198203 -3.5870616 -1.838063
-12.111709 -3.881516 -1.838609
-12.018398 -4.1739912 -1.8392035
-11.698183 -5.038034 -1.8412759
-11.318457 -5.8789706 -1.8437752
-11.178926 -6.1534386 -1.8447012
-10.68501 -6.2221446 -1.7874606
-10.13709 -6.235404 -1.7204771
-9.7218752 -6.6470532 -1.702511
-9.2334862 -7.3470635 -1.7058123
-8.8807516 -7.7949152 -1.70821
-8.1129885 -8.6409979 -1.7134581
-7.6994042 -9.0373011 -1.7162986
-6.5370016 -8.0590143 -1.5001054
-7.2670116 -9.4145613 -1.719277
-7.0440722 -9.5957384 -1.7208155
-7.141777 -10.783349 -1.8697506
-5.5372753 -11.75644 -1.8786132
-5.2565427 -11.896922 -1.880241
-4.684834 -12.158484 -1.8836192
-4.3942089 -12.279372 -1.885368
-3.8039258 -12.500987 -1.8889812
-3.2027929 -12.695164 -1.8927429
-1.9725585 -12.999055 -1.9006827
-1.6601367 -13.057044 -1.9027483
-0.71373045 -13.186807 -1.9091004
1.2048047 -13.244163 -1.9225073
1.5258398 -13.227131 -1.9248205
2.1674902 -13.170073 -1.9295044
2.4876757 -13.130039 -1.931872
-1.9465917 6.1039276 -1.0739778
-2.1105859 6.1051273 -1.0828377
-2.6555955 6.1904788 -1.1291673
-2.8346777 6.1911783 -1.1414427
-3.3976562 6.1933708 -1.1841661
-3.5951953 6.1941385 -1.2005546
-3.7983885 6.1949286 -1.2181218
-4.0077438 6.1957388 -1.2369436
-4.2237887 6.196579 -1.2570972
-4.6783981 6.1983404 -1.3017812
-5.427412 6.2012372 -1.3814279
-5.6983981 6.2022843 -1.4118894
-5.9817677 6.2033768 -1.4445834
-6.278779 6.2045221 -1.4797101
-6.5907421 6.2057242 -1.5174943
-7.1676168 6.1241641 -1.5803665
-7.9505758 6.4678192 -1.7180798
-8.5159664 5.6575384 -1.7138618
-8.6451073 5.4473381 -1.7128987
-8.7692776 5.2343097 -1.7119702
-8.8883886 5.0185637 -1.711077
-9.1112204 4.5794034 -1.7093976
-9.5731153 4.2460699 -1.7555245
-10.192275 4.2294269 -1.8498164
-10.310039 3.9894841 -1.8531712
-10.560478 3.2298901 -1.8512232
-10.697715 2.7150438 -1.8501333
-10.757285 2.4554863 -1.8496519
-10.85832 1.9327655 -1.8488168
-11.004082 0.61129087 -1.8474826
-11.014833 0.34556335 -1.8473458
-11.010077 -0.45203429 -1.8471977
-10.996172 -0.71758419 -1.8472357
-10.976152 -0.98275203 -1.8473171
-10.94998 -1.2473999 -1.8474423
-10.879287 -1.7745931 -1.8478231
-10.727636 -2.558109 -1.8487191
-10.596396 -3.0740349 -1.8495315
-10.441279 -3.58358 -1.8505148
-10.354893 -3.8356268 -1.8510696
-9.835947 -5.0633988 -1.8544672
-9.5887108 -5.5369439 -1.8561114
-9.4567184 -5.7694473 -1.8569937
-9.1638861 -6.2165575 -1.8562759
-8.7204885 -6.2282329 -1.7963896
-8.3043747 -6.2390246 -1.7411839
-7.8763375 -6.5350223 -1.7156152
-7.5613084 -6.9160318 -1.7177609
-6.8782616 -7.633306 -1.722438
-6.6968942 -7.8027039 -1.7236847
-6.5114841 -7.9679203 -1.7249609
-5.9318357 -8.4375629 -1.7289617
-5.5268064 -8.7280483 -1.7317659
-5.3190231 -8.8662453 -1.7332067
-5.107832 -8.999608 -1.7346731
-4.8934083 -9.1280775 -1.7361633
-4.2315135 -9.4832249 -1.740773
-4.0050974 -9.5912647 -1.742353
-2.8126268 -10.979507 -1.8999499
-2.5491309 -11.053931 -1.9016263
-1.747666 -11.240031 -1.9068295
-1.4773145 -11.289517 -1.908619
-1.2056054 -11.332642 -1.9104348
-0.93271482 -11.36938 -1.9122753
-0.65875977 -11.399682 -1.9141402
0.72177732 -11.453549 -1.9237902
0.99897456 -11.444589 -1.9257727
1.276162 -11.428999 -1.9277722
2.9304297 -11.196274 -1.9400729
3.4803612 -11.08392 -1.9474642
4.0190039 -10.924679 -1.9513177
