# .PCD v0.7 - Point Cloud Data file format
VERSION 0.7
FIELDS x y z
SIZE 4 4 4
TYPE F F F
COUNT 1 1 1
WIDTH 1502
HEIGHT 1
VIEWPOINT 0 0 0 1 0 0 0
POINTS 1502
DATA ascii
2.9560156 -7.8228197 -1.7923107
3.5220702 -7.605967 -1.7964218
3.7073193 -7.524426 -1.7977695
3.8906348 -7.438314 -1.7991046
4.4280176 -7.1530218 -1.8030254
4.7745996 -6.9408579 -1.8055605
5.1108007 -6.711627 -1.808025
5.4357615 -6.4658141 -1.8104128
5.9259081 -6.0935984 -1.8217198
6.2124414 -6.0872521 -1.8640982
6.512578 -6.0804234 -1.9095771
7.0289502 -5.9546018 -1.9743646
7.1744823 -5.7864685 -1.9754472
7.4530663 -5.4393835 -1.9775251
7.5859375 -5.2606444 -1.9785192
7.7143993 -5.0785661 -1.9794824
7.8383594 -4.8932834 -1.980414
8.0724611 -4.513515 -1.9821801
8.182436 -4.3192706 -1.9830134
8.4831934 -3.7205229 -1.9853077
8.5734663 -3.516017 -1.9860018
8.7387152 -3.1003747 -1.9872822
8.8831491 -2.6767774 -1.9884149
9.0063667 -2.2462838 -1.9893969
9.1080322 -1.8099988 -1.9902258
9.1878462 -1.3690161 -1.9908987
9.2661085 -0.70123291 -1.9916122
9.2810688 -0.47752562 -1.9917703
9.2942085 -0.029293822 -1.9919665
9.2849655 0.41906187 -1.9920022
9.2719574 0.64292479 -1.9919598
9.2292042 1.0893036 -1.9917545
9.1994925 1.3115332 -1.9915919
9.1642332 1.5329314 -1.9913893
9.0772409 1.9726721 -1.9908651
8.9059715 2.6225297 -1.9897839
8.7650824 3.0476599 -1.9888695
8.6032467 3.465039 -1.9878033
8.5146284 3.6704986 -1.9872143
8.4209518 3.8736224 -1.9865882
8.3222656 4.0742927 -1.9859259
7.5348926 4.3910322 -1.8691044
7.1424413 4.6377726 -1.8251842
7.0253954 4.8066206 -1.8243828
6.9042478 4.9724383 -1.8235512
6.5170016 5.4507294 -1.8208812
5.948545 6.0402212 -1.8169365
5.4863915 6.4431462 -1.8137118
5.326045 6.5695562 -1.8125901
5.1630321 6.6922674 -1.8115423
4.9971189 6.8108292 -1.8104672
4.2709374 6.4520512 -1.6583312
3.6298876 6.453753 -1.5869544
3.2310057 6.4548078 -1.5470418
3.0387695 6.4553156 -1.5291415
2.1352148 6.4576883 -1.4577179
1.628291 6.4590116 -1.4276179
1.3007128 6.4598627 -1.4122767
1.1393554 6.4602814 -1.4059471
0.97936034 6.4606953 -1.4004866
0.036791991 6.4786077 -1.3885287
-0.11953613 6.4790082 -1.3888278
-0.27602538 6.4794073 -1.3899368
-0.59020996 6.4802055 -1.3945982
-0.74829102 6.480607 -1.3981633
-0.90726072 6.48101 -1.4025646
-2.062495 6.4839139 -1.4582542
-2.412998 6.4847879 -1.4829308
-2.9637694 6.4861579 -1.528374
-4.5717726 6.7185416 -1.7416921
-4.7291794 6.6016288 -1.7404611
-5.0355368 6.3575296 -1.7381929
-5.1841846 6.230269 -1.7370973
-5.3296824 6.0996137 -1.7360235
-5.7466111 5.6880817 -1.7329383
-5.878828 5.5446515 -1.7319571
-6.1327295 5.2488923 -1.7300678
-6.3721924 4.9418535 -1.7282798
-6.4863524 4.7843232 -1.7274247
-6.9830174 4.4085612 -1.769919
-7.3507419 4.3963423 -1.8356982
-7.6009421 4.3004961 -1.871721
-7.7934275 3.9257708 -1.8702546
-7.8829737 3.7352409 -1.8695687
-8.3812008 2.3521581 -1.8656793
-8.4812107 1.9443048 -1.8648688
-8.5240231 1.7387981 -1.8645148
-8.5620356 1.5323876 -1.8641952
-8.6469479 0.90881467 -1.8634442
-8.6791897 0.49058104 -1.8631176
-8.6918898 0.071352534 -1.8629311
-8.6849947 -0.3479785 -1.8628852
-8.6585445 -0.76654232 -1.8629797
-8.582305 -1.3910114 -1.863385
-8.5471725 -1.5978265 -1.8635899
-8.5072412 -1.8037957 -1.8638296
-8.4624996 -2.0088031 -1.8641039
-8.4129543 -2.2127395 -1.8644131
-8.2996578 -2.6169794 -1.8651342
-8.2359133 -2.8170688 -1.8655461
-8.1675243 -3.0156555 -1.8659916
-8.0944672 -3.2126436 -1.8664711
-7.9345751 -3.6013865 -1.8675299
-7.8478122 -3.7929349 -1.8681087
-7.6608739 -4.1698694 -1.8693646
-7.5607762 -4.3550458 -1.8700407
-7.4563279 -4.5379004 -1.8707485
-6.9960885 -5.2440648 -1.8738903
-6.6079493 -5.7444611 -1.8765616
-5.4880662 -6.0765862 -1.7548808
-5.2752147 -6.1320658 -1.7336324
-4.9792185 -6.3869791 -1.7356983
-4.8266501 -6.5092468 -1.7367654
-4.6711473 -6.6279411 -1.7378542
-3.8522754 -7.1655636 -1.7436078
-3.68083 -7.2614384 -1.7448161
-3.5070457 -7.3532925 -1.7460421
-3.1527879 -7.5246673 -1.7485452
-2.9724998 -7.6040769 -1.7498207
-2.4202099 -7.8165841 -1.7537353
-2.2326317 -7.8786774 -1.7550672
-1.8528368 -7.9894705 -1.7577672
-1.2731934 -8.1215792 -1.7618964
-0.88133299 -8.1865168 -1.7646933
-0.28769532 -8.2486172 -1.7689389
-0.088676758 -8.2598047 -1.7703643
0.11069824 -8.2662067 -1.7717935
0.31033203 -8.2678127 -1.7732255
0.51012206 -8.264596 -1.77466
1.5070703 -8.1760569 -1.7818336
1.7052441 -8.1438494 -1.7832628
2.4899414 -7.9668984 -1.7889336
2.6247509 -7.7374949 -1.7511351
2.8758202 -7.8497677 -1.7917291
3.8140428 -7.4749656 -1.7985466
3.9962158 -7.3862181 -1.7998739
4.1762891 -7.2929797 -1.8011873
4.3541551 -7.195292 -1.8024858
4.8733397 -6.8760271 -1.8062837
5.0412402 -6.7610669 -1.8075147
5.3686228 -6.5186825 -1.8099189
5.6840916 -6.260159 -1.8122413
6.9667234 -6.0239735 -1.9739023
7.1139598 -5.8573976 -1.9749968
7.6610837 -5.155293 -1.9790823
7.7869482 -4.9713426 -1.9800273
7.9082665 -4.7842331 -1.9809403
8.1369238 -4.4010401 -1.9826683
8.2441063 -4.2051783 -1.9834819
8.4438381 -3.8055475 -1.9850059
8.6235695 -3.396189 -1.9863887
8.7828169 -2.9781303 -1.9876264
8.8546095 -2.7661624 -1.9881898
8.921133 -2.552423 -1.9887158
9.038125 -2.1201315 -1.9896536
9.0885305 -1.901867 -1.9900649
9.1334763 -1.6823666 -1.9904373
9.1729345 -1.4617785 -1.9907706
9.2581835 -0.79488462 -1.9915339
9.2933149 -0.12329284 -1.9919387
9.2938375 0.10094848 -1.9919935
9.2780857 0.54912227 -1.9919823
9.2618504 0.77276975 -1.9919168
9.2400141 0.99593323 -1.9918109
9.2126217 1.218468 -1.991665
8.8672409 2.7467248 -1.9895343
8.7963572 2.9591577 -1.9890739
8.5524025 3.5846429 -1.9874657
8.4608297 3.7887578 -1.9868551
8.3642426 3.9904742 -1.9862078
8.1278467 4.3708963 -1.9778868
7.7032175 4.3853583 -1.8997576
7.3229346 4.4061136 -1.8316625
7.1902781 4.5661187 -1.8255111
7.0749655 4.7362051 -1.8247224
6.9555273 4.903306 -1.8239034
6.832026 5.0673184 -1.8230544
6.7045703 5.2281461 -1.8221765
6.4380612 5.5398579 -1.8203351
6.010747 5.9811845 -1.8173693
5.8613572 6.1209416 -1.8163291
5.3936377 6.5170622 -1.8130631
5.2317333 6.6413336 -1.8119857
4.8994727 6.8777704 -1.8098319
4.7292089 6.9896684 -1.8087188
4.1423192 6.4523931 -1.643337
3.1188183 6.4551044 -1.5364865
2.2078514 6.4574981 -1.4626422
2.0353711 6.4579496 -1.451196
1.8654736 6.4583941 -1.4407603
1.3687989 6.4596853 -1.4151925
1.0462793 6.4605217 -1.4026707
0.88696289 6.4609332 -1.3977064
0.1023291 6.4784403 -1.3886437
-0.053989258 6.4788394 -1.3886048
-0.2103955 6.4792399 -1.3893744
-0.36706054 6.4796381 -1.3909533
-0.52417481 6.4800382 -1.3933493
-0.84049803 6.4808402 -1.4006169
-1.1608838 6.4816494 -1.4112632
-1.3231006 6.48206 -1.417892
-1.9904541 6.4837346 -1.4536127
-2.1630859 6.4841657 -1.4649855
-2.3385448 6.4846039 -1.4774042
-2.5171044 6.4850483 -1.4909109
-2.8847461 6.485961 -1.5213751
-3.4676123 6.4874015 -1.5765507
-3.6718066 6.4879069 -1.5977426
-4.3435154 6.8781304 -1.7434682
-5.4127197 6.0222039 -1.7354101
-5.6901612 5.7473001 -1.733357
-5.8238282 5.6051531 -1.7323654
-5.9540186 5.4599652 -1.7313981
-6.3232126 5.0071049 -1.728646
-6.4389596 4.850678 -1.72778
-6.8364792 4.4133744 -1.7440014
-7.6586766 4.1925812 -1.8712823
-7.7545557 4.0050297 -1.8705516
-8.0153027 3.4300737 -1.8685497
-8.0931053 3.234663 -1.867947
-8.2986813 2.6386292 -1.8663365
-8.4618359 2.0301502 -1.8650274
-8.6583204 0.78750855 -1.8633349
-8.674057 0.57834899 -1.8631744
-8.684907 0.36889648 -1.8630489
-8.6880713 -0.26012754 -1.8628831
-8.6793261 -0.46965331 -1.8628982
-8.6238232 -1.0962493 -1.8631539
-8.5624905 -1.511234 -1.8634998
-8.5245705 -1.7175686 -1.8637249
-8.4343109 -2.1273916 -1.8642793
-8.3820114 -2.3306568 -1.8646084
-8.3249559 -2.5326867 -1.8649718
-8.2632027 -2.7333722 -1.8653692
-8.1967621 -2.9326019 -1.8658007
-7.8847313 -3.7128835 -1.8678622
-7.2824802 -4.82197 -1.8719314
-7.1670408 -4.9983554 -1.8727195
-6.7960205 -5.5110593 -1.8752651
-6.6643457 -5.6761551 -1.8761724
-6.5287256 -5.8381915 -1.8771087
-6.1509032 -6.0590463 -1.8504568
-5.3387256 -6.0803952 -1.7342024
-5.1905417 -6.2075019 -1.734223
-4.8909669 -6.4584255 -1.7363154
-4.2567477 -6.9173288 -1.7407619
-4.0913672 -7.0226984 -1.7419245
-3.923413 -7.1241889 -1.7431066
-3.5801659 -7.3152838 -1.7455261
-3.2277441 -7.4901309 -1.748015
-2.4983544 -7.789248 -1.7531809
-2.3114502 -7.8531857 -1.7545074
-2.1229491 -7.9127035 -1.7558465
-1.5487548 -8.0642366 -1.759932
-1.3548095 -8.1056147 -1.7613144
-0.76689941 -8.2018576 -1.765511
-0.56927246 -8.2245483 -1.7669239
0.42635742 -8.266531 -1.7740585
1.0255517 -8.2339954 -1.7783653
1.4238183 -8.1881247 -1.7812334
1.8200439 -8.1229267 -1.7840915
2.0170848 -8.0830946 -1.7855144
2.7953758 -7.8758874 -1.791146
2.9868846 -7.8122087 -1.7925346
3.1769092 -7.7438293 -1.7939137
3.365371 -7.6707768 -1.7952827
3.7370801 -7.5108142 -1.7979863
3.9200926 -7.4239707 -1.7993191
4.630527 -7.0318999 -1.8045061
4.8021631 -6.922966 -1.8057623
5.1374903 -6.6923728 -1.8082207
5.6190038 -6.3156509 -1.8117617
5.7733493 -6.1821442 -1.8128996
5.9713426 -6.0926042 -1.8283691
6.5624561 -6.0792718 -1.9172378
6.8801661 -6.0718274 -1.9666784
7.1976171 -5.7589555 -1.9756194
7.474834 -5.4107351 -1.9776878
7.606997 -5.2314391 -1.978677
7.7347312 -5.048852 -1.979635
7.9765964 -4.6741762 -1.9814557
8.3041353 -4.0901899 -1.9839387
8.4036036 -3.8901629 -1.9846979
8.4981146 -3.6876314 -1.9854221
8.5875635 -3.4827592 -1.9861107
9.0153856 -2.2112453 -1.9894695
9.1152878 -1.774534 -1.9902858
9.1570606 -1.5543786 -1.9906356
9.2240725 -1.1111951 -1.9912173
9.2492676 -0.8884393 -1.9914486
9.282959 -0.44133422 -1.9917921
9.2914305 -0.21727966 -1.9919039
9.2942963 0.0069500729 -1.9919753
9.1941652 1.3473755 -1.9915619
9.1163769 1.7888824 -1.9911041
9.0692577 2.0079937 -1.9908159
8.9587202 2.4422624 -1.9901214
8.8953762 2.6571479 -1.9897158
8.8267136 2.8703191 -1.9892715
8.7527685 3.0816882 -1.988789
8.6736231 3.291079 -1.9882687
8.589282 3.4983966 -1.9877108
8.3058643 4.1064849 -1.9858154
8.2014599 4.3041377 -1.9851112
7.8770847 4.3794622 -1.9316156
7.4714303 4.3931632 -1.8575974
7.2373581 4.4939594 -1.8258325
7.1238084 4.6652603 -1.8250567
6.8842869 4.9989409 -1.823414
6.6287451 5.3200507 -1.8216534
6.4951706 5.4756522 -1.8207302
5.7730565 6.2003641 -1.8157136
5.6184521 6.3340778 -1.8146347
5.4606886 6.4638433 -1.8135321
5.136416 6.7117119 -1.8113704
4.8009081 6.9432793 -1.8091882
4.0159764 6.4527287 -1.6289291
3.5968895 6.4538407 -1.5835153
3.395752 6.4543719 -1.5630838
3.1996386 6.4548907 -1.5440606
3.0081151 6.4553962 -1.5263717
2.8208447 6.4558892 -1.5099536
2.6374316 6.4563713 -1.4947445
2.4575975 6.4568439 -1.4806923
2.1073534 6.4577618 -1.4558697
1.9363965 6.4582086 -1.4450145
1.7678808 6.4586477 -1.4351491
1.6015429 6.4590826 -1.4262424
1.2745312 6.4599309 -1.4111949
0.78653318 6.3929071 -1.3804687
0.47389159 6.3782229 -1.370761
0.16530272 6.379014 -1.3676203
0.011538086 6.4786725 -1.3885225
-0.77391601 6.4806719 -1.3988177
-1.0933203 6.4814801 -1.4087467
-1.2549121 6.4818878 -1.4150053
-1.4180468 6.4822989 -1.4221518
-1.9188622 6.4835553 -1.4491471
-2.2646239 6.4844184 -1.4720688
-2.6223536 6.4853106 -1.4992719
-2.9944239 6.4862332 -1.5311315
-3.383584 6.4871955 -1.5681028
-3.585542 6.4876933 -1.5886772
-4.1097608 7.0300775 -1.7452774
-4.4376073 6.8137336 -1.7427373
-4.5974121 6.6998968 -1.7414918
-5.0597653 6.3372102 -1.7380145
-5.3528953 6.0781851 -1.7358521
-6.1526365 5.2244987 -1.7299196
-6.273613 5.0718904 -1.7290167
-6.5044479 4.7586164 -1.7272891
-7.7148972 4.0839114 -1.8708541
-7.8970213 3.7042632 -1.8694608
-8.0610542 3.3167882 -1.8681958
-8.2724905 2.7227287 -1.8665435
-8.3336086 2.5217164 -1.8660592
-8.3899899 2.3193657 -1.8656088
-8.4416065 2.1158216 -1.8651921
-8.5304976 1.7054986 -1.8644608
-8.5677242 1.4989483 -1.8641467
-8.6000824 1.2916266 -1.8638674
-8.6809521 0.45673278 -1.8630972
-8.6889496 0.24714844 -1.8629922
-8.6920557 0.037463378 -1.8629222
-8.6902637 -0.17224547 -1.8628874
-8.6835842 -0.3818402 -1.8628877
-8.6555519 -0.80030209 -1.8629936
-8.6342182 -1.008944 -1.8630993
-8.6080122 -1.2170355 -1.86324
-8.5003319 -1.8369988 -1.8638716
-8.4548044 -2.0418346 -1.8641517
-8.2896729 -2.6494164 -1.8651985
-8.1560154 -3.0476079 -1.8660668
-8.0822411 -3.2443197 -1.8665515
-7.9208593 -3.632468 -1.8676213
-7.741406 -4.0128946 -1.8688225
-7.6449947 -4.199954 -1.8694717
-7.3296189 -4.7472486 -1.87161
-7.0980954 -5.099575 -1.8731912
-6.9761033 -5.2716832 -1.8740275
-6.7200146 -5.6073203 -1.8757887
-6.5859962 -5.7706518 -1.8767132
-6.4482126 -5.9308615 -1.8776654
-6.273159 -6.055706 -1.868717
-5.985332 -6.06352 -1.8260276
-5.446167 -6.077661 -1.7490438
-4.8017187 -6.5286679 -1.7369398
-4.6457224 -6.6467938 -1.7380323
-4.1610203 -6.9789872 -1.7414347
-3.8247313 -7.1813297 -1.7438017
-3.4787402 -7.3677506 -1.746242
-2.5761817 -7.7611399 -1.7526288
-2.3900096 -7.8269176 -1.7539496
-2.2021532 -7.8883018 -1.7552836
-2.0127587 -7.9452133 -1.7566296
-1.6296972 -8.0455208 -1.7593555
-1.0460498 -8.1615677 -1.7635171
-0.84953123 -8.1909418 -1.7649205
-0.25555664 -8.2507496 -1.769169
-0.056494139 -8.2611685 -1.770595
0.14293945 -8.2667913 -1.7720248
0.34260741 -8.2676182 -1.7734573
0.74219728 -8.2548065 -1.7763274
1.3404834 -8.1993427 -1.7806329
1.934585 -8.1003761 -1.7849184
2.1311426 -8.0577536 -1.7863384
2.3267529 -8.0103359 -1.787753
2.5212989 -7.9581327 -1.7891607
3.0974462 -7.7730627 -1.7933369
3.286577 -7.701972 -1.79471
3.6597753 -7.5458679 -1.7974235
3.8436229 -7.4609256 -1.798762
4.0254493 -7.3714576 -1.8000871
4.7305174 -6.9691515 -1.8052377
5.0681105 -6.7420864 -1.8077117
5.7090821 -6.2385821 -1.8124255
6.1373777 -6.0889316 -1.852895
6.4338913 -6.0822306 -1.8975519
6.9908009 -5.9973035 -1.9740813
7.1373777 -5.8301325 -1.975171
7.2798729 -5.6592813 -1.9762323
7.4181395 -5.4848795 -1.977264
7.6817284 -5.1257873 -1.9792372
7.80687 -4.9413128 -1.9801772
7.9274268 -4.7537189 -1.9810848
8.0433693 -4.5630965 -1.9819601
8.1545601 -4.3695798 -1.982802
8.2609768 -4.173274 -1.9836102
8.362505 -3.9743245 -1.9843839
8.4591017 -3.7728186 -1.9851229
8.5506983 -3.568923 -1.9858265
8.7947702 -2.9440062 -1.98772
9.0466404 -2.0849483 -1.9897226
9.0961523 -1.8664666 -1.9901277
9.1788034 -1.4260284 -1.9908209
9.2118549 -1.204361 -1.9911083
9.2613478 -0.75879151 -1.9915649
9.2777395 -0.53517944 -1.9917333
9.2937689 -0.087047726 -1.9919504
9.2933979 0.13718322 -1.9919986
9.2758493 0.58529049 -1.9919746
9.2586861 0.80887878 -1.9919025
9.2359619 1.0319396 -1.9917899
9.2076712 1.2543683 -1.9916376
9.0896778 1.9162903 -1.9909414
9.0393848 2.1346941 -1.9906303
8.9836664 2.351723 -1.9902798
8.9225779 2.5672736 -1.9898906
8.7844038 2.9933202 -1.9889959
8.6252584 3.4117601 -1.9879491
8.0568943 4.3733282 -1.9647573
7.6376705 4.3875713 -1.8877997
7.1719189 4.5937991 -1.8253857
6.5516357 5.4108243 -1.8211207
6.2764401 5.7145681 -1.8192152
6.1333838 5.8611245 -1.818222
5.9868555 6.0040164 -1.817203
5.836904 6.143167 -1.8161587
5.5271974 6.4099298 -1.8139971
5.2053123 6.6610551 -1.8118155
5.0401173 6.780694 -1.8107464
4.1069384 6.452487 -1.6392709
3.8917871 6.4530573 -1.6150835
3.6827929 6.4536138 -1.5925158
3.4794238 6.4541507 -1.5714707
3.0878613 6.4551859 -1.5336279
2.8988526 6.4556828 -1.5166852
2.5325682 6.4566474 -1.4864461
2.3546338 6.4571147 -1.4730415
1.8382422 6.4584646 -1.4391668
1.5058594 6.4593301 -1.4214984
1.0204443 6.4605875 -1.4018099
0.86132324 6.460999 -1.3969827
0.53878903 6.378056 -1.3718245
-0.54961914 6.480103 -1.3938136
-0.86621583 6.4809051 -1.4013511
-1.0259717 6.4813104 -1.406382
-1.1869971 6.4817166 -1.412275
-1.349458 6.4821258 -1.4190456
-1.5135839 6.4825382 -1.426718
-2.5462694 6.4851203 -1.493198
-2.7288036 6.4855742 -1.5080251
-3.1055419 6.4865079 -1.5413187
-3.7053223 6.4879889 -1.601307
-4.206079 6.9688187 -1.7445331
-4.3697848 6.8603349 -1.7432643
-4.5307713 6.7480597 -1.7420117
-4.8442721 6.5126348 -1.7396005
-4.9967527 6.3897552 -1.7384785
-5.1461911 6.2633719 -1.7373774
-5.5754733 5.8640924 -1.7342063
-5.8450975 5.5818939 -1.7322074
-6.3421826 4.9820085 -1.7285043
-6.5686569 4.66571 -1.7268074
-6.8924656 4.4115386 -1.753884
-7.2534618 4.3995914 -1.8181977
-7.5748682 4.3481135 -1.8719189
-7.6744676 4.1624103 -1.8711621
-7.7696338 3.9745195 -1.8704365
-7.8603463 3.7845123 -1.8697424
-8.0281782 3.3986042 -1.8684503
-8.2454634 2.8065882 -1.8667566
-8.3085546 2.6061468 -1.8662581
-8.3669233 2.4043536 -1.8657936
-8.5134621 1.7918224 -1.8646028
-8.5527 1.5856427 -1.8642743
-8.6166744 1.1709051 -1.863721
-8.6413765 0.96256346 -1.8634963
-8.6612005 0.75374264 -1.8633065
-8.6913471 0.12536804 -1.8629473
-8.6916113 -0.084331051 -1.8628976
-8.6869822 -0.29399902 -1.8628832
-8.6774559 -0.50350034 -1.862904
-8.6630468 -0.71270871 -1.8629597
-8.6195803 -1.1298785 -1.8631768
-8.5905609 -1.3376195 -1.8633376
-8.5179882 -1.7508383 -1.8637644
-8.4261913 -2.1603305 -1.8643301
-8.3153124 -2.5652204 -1.8650335
-8.2527781 -2.7656634 -1.8654367
-8.1855812 -2.9646611 -1.8658737
-8.1137257 -3.1620624 -1.8663442
-8.0372505 -3.3578005 -1.8668486
-7.7804928 -3.9338424 -1.8685598
-7.4836426 -4.4910369 -1.8705631
-7.0277343 -5.1998816 -1.8736733
-6.642695 -5.702548 -1.8763218
-6.5064306 -5.8640924 -1.8772628
-6.3663425 -6.0224423 -1.8782321
-6.1043897 -6.0603089 -1.8435595
-5.8239794 -6.0678215 -1.8025683
-5.5554342 -6.0748496 -1.7643155
-5.1667871 -6.2282834 -1.7343887
-5.0180368 -6.354917 -1.7354273
-4.8662353 -6.4780931 -1.7364885
-4.7114744 -6.5977092 -1.7375717
-4.2302051 -6.9346151 -1.7409484
-3.8960302 -7.1402202 -1.7432995
-3.7252245 -7.2371244 -1.7445031
-3.0191259 -7.5840354 -1.7494907
-2.4682567 -7.7998734 -1.7533945
-0.93202144 -8.1791964 -1.7643313
-0.5372656 -8.2277746 -1.7671528
-0.13999511 -8.2573767 -1.7699966
0.25888672 -8.2678556 -1.7728564
0.45864746 -8.2658834 -1.7742903
0.65845215 -8.2590914 -1.7757255
1.0577782 -8.2310028 -1.7785972
1.6542627 -8.1526108 -1.782895
1.8519336 -8.1168165 -1.7843215
2.4398875 -7.9805965 -1.7885715
2.8264062 -7.8659124 -1.791371
3.2074754 -7.732336 -1.7941357
3.5821435 -7.5801096 -1.7968588
3.9494824 -7.4095159 -1.7995334
4.1300974 -7.31743 -1.8008502
4.4846921 -7.1199212 -1.8034396
4.658452 -7.0145879 -1.8047104
4.8296533 -6.9049621 -1.8059638
5.1640964 -6.6730118 -1.8084162
5.3271141 -6.5508151 -1.8096137
5.797998 -6.1601954 -1.8130813
6.0171094 -6.0915976 -1.835094
6.9281445 -6.0662689 -1.973616
7.0764403 -5.9006615 -1.9747176
7.220654 -5.7313352 -1.975791
7.360693 -5.5584116 -1.9768353
7.4965038 -5.3819761 -1.9778498
7.627944 -5.2021561 -1.9788339
8.2169676 -4.2558928 -1.9832755
8.685112 -3.2419748 -1.9868654
8.8366308 -2.8209479 -1.9880483
9.0760593 -1.9582195 -1.9899626
9.163291 -1.5187024 -1.9906884
9.2528267 -0.85238159 -1.9914825
9.2715473 -0.6289807 -1.9916676
9.2922754 -0.1810504 -1.9919183
9.2942333 0.043188475 -1.9919833
9.2906055 0.26739013 -1.9920082
9.2461672 0.93850338 -1.991842
9.2202101 1.1612042 -1.9917064
9.1887007 1.3831909 -1.9915308
9.1091309 1.8243725 -1.9910601
9.0076752 2.2609179 -1.9904314
8.8846388 2.691715 -1.9896466
8.8151169 2.904624 -1.9891962
8.7403316 3.1156659 -1.9887075
8.5751705 3.5316937 -1.987617
8.3895998 3.9387555 -1.9863781
7.4087305 4.3952632 -1.8462553
7.1050634 4.6926665 -1.8249285
6.9866843 4.8605533 -1.8241172
6.8642235 5.025362 -1.823276
6.6074166 5.3454204 -1.821506
6.4732275 5.5004754 -1.8205785
6.193779 5.8001347 -1.8186414
6.048696 5.9445648 -1.8176333
5.5931687 6.3553181 -1.8144581
5.434907 6.4844427 -1.8133519
5.1097169 6.7310429 -1.8111975
4.9428854 6.8482561 -1.8101145
3.1683934 6.4549737 -1.5411131
2.0795555 6.4578347 -1.4540476
1.740869 6.4587188 -1.4336455
1.4107862 6.459578 -1.4170625
1.2484033 6.4599981 -1.4101346
0.60379392 6.3778887 -1.3730322
0.29449219 6.3786821 -1.3685474
-0.013725585 6.4787369 -1.3885375
-0.17009278 6.479136 -1.389098
-0.48365721 6.4799356 -1.3926539
-0.79956055 6.4807367 -1.3994939
-1.1193359 6.4815445 -1.409699
-1.281162 6.4819536 -1.4160987
-1.4445752 6.4823651 -1.4233913
-1.7769678 6.4832001 -1.4407377
-1.9464062 6.4836235 -1.4508473
-2.1183641 6.4840531 -1.461956
-2.2930517 6.484489 -1.4741025
-2.4708006 6.4849334 -1.4873257
-2.6518457 6.485384 -1.5016675
-2.8365428 6.4858418 -1.5171827
-3.0251904 6.4863076 -1.5339211
-3.2181933 6.4867878 -1.5519485
-3.4158642 6.4872746 -1.5713301
-3.6186864 6.4877753 -1.5921409
-4.1366358 7.0131707 -1.7450699
-4.3014989 6.9062772 -1.7437941
-4.6229587 6.6811514 -1.7412922
-5.0839157 6.3167801 -1.7378364
-5.3760204 6.0566802 -1.7356813
-5.5172458 5.9216523 -1.7346373
-5.6551805 5.783422 -1.733616
-5.7897215 5.642056 -1.7326186
-5.9208102 5.4976554 -1.731645
-6.1724315 5.200026 -1.7297719
-6.2928123 5.0469718 -1.7288733
-6.5224314 4.732852 -1.7271543
-6.6415577 4.5788312 -1.7289343
-6.7593307 4.4233308 -1.7313026
-7.4754639 4.3921576 -1.8582351
-7.8228707 3.8644061 -1.8700294
-7.9109521 3.673239 -1.8693539
-7.9945164 3.4801085 -1.8687103
-8.0735159 3.2851648 -1.8680992
-8.2176266 2.8901758 -1.8669752
-8.3986473 2.2865491 -1.8655391
-8.4495115 2.0828197 -1.8651278
-8.4955807 1.8779821 -1.8647506
-8.5368261 1.672182 -1.8644079
-8.5733051 1.4654944 -1.864099
-8.6704588 0.63225889 -1.8632123
-8.6895113 -0.20612732 -1.8628851
-8.669692 -0.62504941 -1.8629321
-8.6303072 -1.0426147 -1.8631196
-8.6033201 -1.2506078 -1.863266
-8.5347996 -1.6644906 -1.8636636
-8.4933052 -1.8701714 -1.8639145
-8.3401222 -2.4807625 -1.8648748
-8.2795601 -2.6818099 -1.8652636
-8.2143211 -2.8814197 -1.8656863
-7.9907227 -3.4706576 -1.8671566
-7.9070311 -3.6635094 -1.8677135
-7.5274854 -4.4144173 -1.8702661
-7.4216452 -4.596489 -1.8709842
-7.3115234 -4.7761154 -1.8717333
-6.9560108 -5.2992363 -1.8741653
-6.8293114 -5.4680505 -1.8750361
-6.5640135 -5.7967591 -1.8768649
-4.9302197 -6.4268885 -1.7360409
-4.4609814 -6.7794132 -1.7393278
-4.1342235 -6.9959178 -1.7416232
-3.6249022 -7.2915831 -1.7452105
-3.4503906 -7.3821082 -1.7464422
-3.273623 -7.4685392 -1.7476908
-3.0947313 -7.5507994 -1.7489558
-2.730952 -7.7026062 -1.7515315
-1.9820361 -7.9539852 -1.7568481
-1.7909179 -8.005682 -1.7582078
-1.5985107 -8.0528278 -1.7595776
-1.2101464 -8.1333342 -1.7623461
-0.024287108 -8.2623987 -1.7708257
0.17518555 -8.267251 -1.772256
0.57470703 -8.2625313 -1.7751237
0.77448243 -8.2529268 -1.7765594
1.3726269 -8.195116 -1.7808645
1.7691406 -8.132411 -1.7837241
2.3582518 -8.0022278 -1.7879808
2.5526221 -7.9492593 -1.7893875
2.9376612 -7.8290572 -1.7921777
3.1281006 -7.7618952 -1.7935594
3.3169627 -7.6900487 -1.7949308
3.6896093 -7.5324535 -1.7976407
3.8731248 -7.4467788 -1.7989769
4.0546288 -7.3565879 -1.8002998
4.4111423 -7.1627703 -1.802902
4.9279151 -6.8393273 -1.8066837
5.0949168 -6.7230072 -1.8079084
5.2591257 -6.6025443 -1.809114
5.8990622 -6.0941844 -1.8178025
6.4831443 -6.0811014 -1.9050696
7.3024998 -5.6313314 -1.976401
7.4400926 -5.4563661 -1.9774282
7.9464746 -4.7231188 -1.9812285
8.0616455 -4.5320325 -1.9820983
8.1720943 -4.3380275 -1.982935
8.2777147 -4.1412973 -1.9837376
8.3784418 -3.9419279 -1.9845058
8.4742575 -3.7400084 -1.985239
8.5650148 -3.5357332 -1.9859369
8.7312498 -3.1205227 -1.9872241
8.8766994 -2.6972647 -1.9883639
8.941494 -2.4829822 -1.9888777
9.0009422 -2.2670953 -1.9893533
9.0550051 -2.0497119 -1.9897906
9.1468258 -1.6111846 -1.9905493
9.1845016 -1.3902844 -1.9908699
9.2643747 -0.72268981 -1.9915948
9.2798729 -0.49903014 -1.9917568
9.2897749 -0.27499634 -1.9918789
9.2940912 -0.050809935 -1.9919609
9.2928076 0.17341675 -1.9920027
9.285923 0.39754394 -1.9920042
9.2553902 0.84496337 -1.9918869
9.2317677 1.0679296 -1.9917681
9.1678562 1.5117358 -1.9914105
9.1276312 1.7322515 -1.991172
8.974165 2.3866765 -1.9902195
8.9121971 2.6019561 -1.9898238
8.8449116 2.8155792 -1.9893897
8.7723293 3.0274107 -1.988917
8.6114845 3.4452045 -1.9878579
8.5233641 3.6508684 -1.9872725
8.4301605 3.8542144 -1.9866499
8.3319578 4.0551481 -1.9859909
8.2288179 4.2534785 -1.985296
7.9868603 4.3757205 -1.9518276
7.5729928 4.3897514 -1.8760253
7.1534667 4.6214118 -1.8252596
6.9160595 4.9566436 -1.8236324
6.5299363 5.4358816 -1.8209708
6.2535348 5.7385025 -1.8190562
6.1099463 5.8844633 -1.8180591
5.501626 6.4307961 -1.8138183
1.0721093 6.4603176 -1.5585501
0.91261715 6.4607306 -1.5528851
0.58889157 6.3777933 -1.5243384
0.27968261 6.3785882 -1.5195293
-0.18510254 6.4790397 -1.5426068
-0.34170899 6.4794388 -1.5442162
-0.49873534 6.4798379 -1.5467285
-0.65636718 6.4802384 -1.5501542
-1.1347803 6.4814482 -1.5660146
-1.296748 6.4818559 -1.573215
-1.4603076 6.4822659 -1.5814092
-1.6256835 6.4826813 -1.5906172
-2.4772558 6.9541216 -1.7569269
-3.284668 6.5824614 -1.7508106
-3.4402685 6.4970722 -1.7496713
-3.7448876 6.3155155 -1.7474443
-3.8937254 6.2194538 -1.7463545
-4.8637838 5.4540958 -1.7392198
-5.1157179 5.2075505 -1.7373559
-5.4706149 4.8166375 -1.7347206
-5.8207421 4.4206343 -1.739537
-6.6155319 4.3073807 -1.8787932
-6.7148438 4.1448774 -1.8780438
-6.8102732 3.9801397 -1.8773216
-6.9892578 3.6443646 -1.8759609
-7.0727439 3.4735088 -1.8753229
-7.1521482 3.3007946 -1.874714
-7.2274704 3.1263225 -1.8741338
-7.3656445 2.7724738 -1.8730619
-7.5912838 2.0478783 -1.871278
-7.7153563 1.492713 -1.8702615
-7.7479296 1.3059509 -1.8699853
-7.7761621 1.1185101 -1.8697399
-7.8194041 0.74196041 -1.8693441
-7.8343897 0.55305845 -1.8691937
-7.8449512 0.36386901 -1.8690748
-7.8527832 -0.014960327 -1.8689325
-7.8428564 -0.39372498 -1.8689175
-7.7698827 -1.1478412 -1.8692697
-7.626626 -1.8920697 -1.8701283
-7.579946 -2.0758324 -1.8704214
-7.5289745 -2.2584882 -1.8707457
-7.4142041 -2.6200552 -1.8714869
-7.2825584 -2.9760079 -1.8723507
-7.2104735 -3.151638 -1.8728279
-7.1342721 -3.3255763 -1.8733352
-6.7890234 -4.0025091 -1.8756585
-6.381206 -4.6449418 -1.8784387
-6.0361915 -5.1006947 -1.8808106
-5.6593504 -5.5315204 -1.8834167
-5.5269823 -5.6692038 -1.8843352
-5.3913231 -5.8037939 -1.885278
-5.1040235 -6.0558939 -1.8849047
-4.8642187 -6.0623221 -1.8498312
-4.6329198 -6.0683513 -1.8170274
-4.1931152 -6.0793204 -1.7576321
-3.7151172 -6.3201022 -1.7447842
-3.2543848 -6.5844555 -1.7480301
-2.7750487 -6.8157444 -1.7514167
-2.4463086 -6.9508934 -1.753745
-1.4238622 -7.2610459 -1.7610109
-1.0734912 -7.3316636 -1.7635089
-0.89694822 -7.3606811 -1.7647691
0.35486329 -7.4443412 -1.7737324
1.2527002 -7.3742871 -1.7801907
1.6092725 -7.3158317 -1.7827625
2.138711 -7.1957092 -1.7865889
2.4868164 -7.0941687 -1.7891097
2.6590772 -7.0370188 -1.7903589
2.8300438 -6.9756527 -1.7915994
3.1675537 -6.8403783 -1.7940521
3.4985058 -6.688591 -1.7964613
3.6612744 -6.6066065 -1.7976478
3.9808447 -6.4306455 -1.799981
4.4438133 -6.1374545 -1.8033698
4.637754 -6.090394 -1.8218963
4.870337 -6.0854521 -1.8550347
5.3621335 -6.0744596 -1.9283732
5.6093016 -6.053616 -1.9641556
5.7569089 -5.9198136 -1.9652451
5.9012499 -5.7823434 -1.9663122
6.0422263 -5.6412907 -1.9673557
6.1797657 -5.4967289 -1.9683756
6.3137646 -5.3487401 -1.9693707
6.4441452 -5.197423 -1.9703407
6.5707955 -5.0428624 -1.9712846
6.6936622 -4.8851495 -1.9722021
6.8126416 -4.7243805 -1.9730923
6.9276657 -4.5606389 -1.973955
7.5304685 -3.5216811 -1.9785168
7.6157618 -3.3400891 -1.9791698
7.7727489 -2.9706671 -1.9803805
7.9735446 -2.402683 -1.9819505
8.0310354 -2.2101343 -1.9824067
8.083745 -2.0161712 -1.9828291
8.2742577 -1.0295148 -1.9844204
8.2975731 -0.82968628 -1.9846333
8.3376417 -0.22749633 -1.9850576
8.3409863 -0.026289063 -1.9851276
8.3043795 0.77753419 -1.9850476
8.2827492 0.97759521 -1.9849379
8.2245998 1.3757555 -1.9846112
8.1004686 1.9661914 -1.9838548
8.0493746 2.1606908 -1.9835323
7.9327879 2.5454783 -1.9827834
7.7972851 2.9238482 -1.9818971
7.7225585 3.110332 -1.9814035
7.5593896 3.4773059 -1.9803159
7.4710546 3.6575689 -1.9797232
7.3783202 3.8355303 -1.9790982
7.2812252 4.0110855 -1.9784415
7.0742331 4.3545332 -1.9770342
6.7492137 4.3824396 -1.9152005
6.4224997 4.3941312 -1.8520401
6.1998682 4.4651432 -1.8183817
6.0877585 4.6114531 -1.8176104
5.6047559 5.167099 -1.8142709
5.4757667 5.2981877 -1.8133754
5.2084765 5.5504475 -1.8115147
5.0703611 5.6714702 -1.8105513
4.7856202 5.9029422 -1.8085607
4.1847801 6.3218389 -1.8043447
4.0285888 6.4170465 -1.8032455
3.8702099 6.5083389 -1.8021297
3.7097802 6.5957451 -1.8010192
3.5474412 6.6793046 -1.7999357
3.3831933 6.7587981 -1.7988344
3.2171581 6.8342009 -1.7977164
2.8800828 6.9725199 -1.7954218
2.4863672 6.456624 -1.6466444
2.3092725 6.4570889 -1.6320754
2.1351757 6.4575467 -1.6186955
1.794917 6.458437 -1.5953323
1.4635839 6.459301 -1.57625
1.3006787 6.4597244 -1.5682371
1.1393359 6.4601431 -1.5612096
0.9793359 6.460557 -1.5551448
0.4988867 6.3780255 -1.5225728
0.34433594 6.3784223 -1.5202421
0.19018066 6.3788176 -1.5188
0.036796875 6.4784732 -1.5418676
-0.11953124 6.4788723 -1.5421999
-0.2760205 6.4792705 -1.5434309
-0.59020019 6.4800701 -1.5486059
-0.90724117 6.4808731 -1.5574536
-1.0673095 6.481276 -1.5632848
-1.2286718 6.4816828 -1.5700781
-1.556123 6.4825068 -1.5866312
-1.7226514 6.482924 -1.5964437
-2.2400048 7.0419745 -1.7587054
-2.4075146 6.9808989 -1.7574506
-2.8999169 6.7741704 -1.7537378
-3.2188377 6.6172419 -1.7513133
-3.3752391 6.533205 -1.750118
-3.5296631 6.4458194 -1.7490182
-3.8316259 6.2601457 -1.7468094
-3.9790721 6.1620708 -1.745729
-4.1240525 6.060585 -1.7446656
-4.2665038 5.955761 -1.7436197
-4.6779099 5.6218352 -1.7405916
-4.9381833 5.3837004 -1.73867
-5.063911 5.2601848 -1.7377397
-5.1866355 5.1338019 -1.7368304
-5.3062549 5.004622 -1.7359426
-5.4227343 4.8727202 -1.7350769
-5.536025 4.7381706 -1.7342334
-5.7527585 4.4614582 -1.7326154
-5.9775338 4.4090228 -1.7677553
-6.2748585 4.3986187 -1.8237642
-6.5727634 4.3748164 -1.8791156
-6.7707372 4.0494623 -1.8776209
-7.0382323 3.5453618 -1.875587
-7.1193504 3.3734124 -1.8749658
-7.1963916 3.1996629 -1.8743734
-7.3380566 2.8471515 -1.8732768
-7.4026217 2.6685784 -1.8727728
-7.4629588 2.4885826 -1.872299
-7.5190377 2.3072729 -1.8718554
-7.5708399 2.1247356 -1.8714422
-7.6183395 1.9410723 -1.8710595
-7.7003317 1.5707715 -1.8703871
-7.7347803 1.3843329 -1.8700975
-7.764863 1.1971631 -1.869839
-7.7905273 1.0093689 -1.8696121
-7.8118067 0.82104063 -1.8694166
-7.8410692 0.44320738 -1.8691207
-7.8490624 0.25390014 -1.8690203
-7.8517284 -0.12499572 -1.8689151
-7.846406 -0.3143805 -1.8689101
-7.8224754 -0.69252259 -1.8689959
-7.721621 -1.4434924 -1.8695488
-7.6000438 -1.9989294 -1.8702948
-7.550859 -2.1820569 -1.8706061
-7.4973922 -2.3640175 -1.8709483
-7.0055027 -3.5968447 -1.8741975
-6.828198 -3.93308 -1.8753932
-6.7336373 -4.0980678 -1.8760341
-6.5328808 -4.4213166 -1.8774012
-6.3169727 -4.7350168 -1.8788791
-6.0863523 -5.0384598 -1.8804649
-5.8414841 -5.3309617 -1.8821554
-5.4485154 -5.7477574 -1.8848803
-4.7288961 -6.0658708 -1.830513
-4.5021873 -6.0716815 -1.7989557
-4.2829542 -6.0771351 -1.769435
-3.7778955 -6.2806125 -1.7443426
-3.6274853 -6.3737912 -1.7454008
-3.0039794 -6.7105355 -1.7497981
-2.6802928 -6.8565836 -1.7520874
-2.1818066 -7.0466514 -1.7556212
-2.0125635 -7.1020932 -1.7568229
-1.669956 -7.2008743 -1.7592589
-0.97104979 -7.34903 -1.76424
-0.61631346 -7.3979306 -1.7667743
-0.43797851 -7.4159946 -1.7680498
-0.25912109 -7.42978 -1.7693301
0.09970215 -7.4444361 -1.7719015
0.45933592 -7.4417839 -1.7744827
0.99848628 -7.4052234 -1.7783597
1.177705 -7.3843341 -1.7796502
1.889204 -7.2573714 -1.7847846
2.0652099 -7.2148228 -1.7860571
2.5870116 -7.061491 -1.789836
2.7585449 -7.0018878 -1.7910805
2.9286718 -6.9380808 -1.7923158
3.2643797 -6.7979879 -1.7947564
3.4297216 -6.7217584 -1.7959602
3.5932665 -6.6414599 -1.797152
3.7549121 -6.5571465 -1.7983311
3.914541 -6.4688396 -1.7994964
4.2273874 -6.2804627 -1.8017842
4.771821 -6.0875664 -1.8408737
5.2558932 -6.0768943 -1.9121716
5.5123143 -6.0709653 -1.9515949
5.8411427 -5.8404131 -1.9658675
5.9835348 -5.7008524 -1.9669211
6.122539 -5.5577502 -1.9679511
6.2580323 -5.4111862 -1.9689566
6.5181494 -5.1080418 -1.970892
6.8799362 -4.6296353 -1.9735968
6.9926124 -4.4642262 -1.9744428
7.2056785 -4.1250772 -1.9760488
7.3058887 -3.9515572 -1.9768075
7.4933982 -3.597146 -1.9782335
7.5805416 -3.4164727 -1.9788998
7.7413573 -3.0487499 -1.9801375
7.9480319 -2.4829493 -1.9817491
8.0622358 -2.09764 -1.9826562
8.1121387 -1.9029166 -1.9830586
8.2326508 -1.3119366 -1.9840578
8.2630129 -1.1130884 -1.9843208
8.288413 -0.91352719 -1.9845484
8.3088331 -0.71337646 -1.9847406
8.3347406 -0.31180602 -1.9850177
8.3406343 0.0905957 -1.9851515
8.3265133 0.49280393 -1.9851418
8.3119678 0.69351619 -1.985083
8.2924213 0.89379638 -1.9849883
8.2384176 1.2925543 -1.9846914
8.2039986 1.4907769 -1.9844896
8.1204681 1.8842828 -1.9839796
8.0713863 2.0793157 -1.9836718
7.9587989 2.4653277 -1.9829518
7.8272409 2.8451207 -1.9820942
7.6770411 3.2177458 -1.9811012
7.5950928 3.4010785 -1.9805548
7.5086327 3.5822711 -1.9799757
7.2228661 4.1118951 -1.9780456
7.1190133 4.2834196 -1.9773394
6.8928366 4.3772383 -1.9432942
6.5568309 4.3893485 -1.8778788
6.1495066 4.5610991 -1.8221838
5.9033494 4.8368487 -1.8163384
5.7822852 4.9755683 -1.8155013
5.6578708 5.111186 -1.8146394
5.399404 5.3728337 -1.8128442
5.128613 5.6211638 -1.8109578
4.8462205 5.8556156 -1.8089846
4.7008786 5.9674687 -1.8079673
4.2495751 6.280777 -1.8048003
3.6157372 6.6447635 -1.8003919
3.4522851 6.7259731 -1.7992982
3.2869775 6.8030972 -1.7981873
3.1199315 6.8761015 -1.7970594
2.7810497 7.009551 -1.7947462
2.3831248 6.4568963 -1.6380348
2.035332 6.457808 -1.6114545
1.8654296 6.4582524 -1.5998654
1.3687695 6.4595475 -1.5714749
1.2067969 6.4599676 -1.5640357
0.88694334 6.4607978 -1.5520587
0.72097653 6.3929424 -1.5311309
0.25477049 6.378653 -1.5192961
0.10232422 6.4783049 -1.5419947
-0.053984374 6.4787054 -1.5419509
-0.68190426 6.4803033 -1.5507928
-0.84048337 6.4807034 -1.5552902
-1.1608593 6.481513 -1.5671117
-1.3230761 6.4819217 -1.5744714
-1.4869092 6.4823332 -1.5828269
-1.8203515 6.4831681 -1.6026286
-1.990415 6.4835916 -1.6141369
-2.5040722 6.9436088 -1.7567253
-2.8320849 6.8051472 -1.7542514
-2.9933543 6.7301493 -1.7530291
-3.1526659 6.651381 -1.7518177
-3.3099511 6.568881 -1.7506175
-3.4652197 6.4829326 -1.7494891
-3.7690966 6.3002286 -1.7472671
-4.0635886 6.1035404 -1.7451092
-4.2071042 6.0001068 -1.7440559
-4.4863429 5.7833757 -1.742003
-4.6218944 5.6702056 -1.7410046
-4.7546778 5.5539289 -1.7400253
-4.8845849 5.4346099 -1.7390661
-5.0115623 5.3123159 -1.7381271
-5.1355515 5.1871209 -1.737209
-5.3742967 4.9283452 -1.7354369
-5.600327 4.6588507 -1.7337539
-5.7084274 4.5202765 -1.7329468
-5.8593211 4.4140315 -1.7459129
-6.4563084 4.3921809 -1.8584274
-6.6318455 4.2812772 -1.8786703
-6.7305369 4.1184025 -1.877925
-6.8253174 3.9533172 -1.8772076
-6.916162 3.786109 -1.8765177
-7.0030174 3.6168852 -1.8758559
-7.1645994 3.2727191 -1.8746182
-7.3097363 2.9215691 -1.873497
-7.4381785 2.5642035 -1.872494
-7.4960594 2.3834288 -1.8720376
-7.6439452 1.8339239 -1.8708514
-7.6845946 1.6486871 -1.8705177
-7.7527881 1.2757025 -1.8699435
-7.8462501 0.33327392 -1.8690585
-7.8516698 0.14388061 -1.8689766
-7.8412838 -0.42430419 -1.8689219
-7.8289499 -0.61336666 -1.8689674
-7.8121972 -0.80209225 -1.8690448
-7.7910252 -0.99038631 -1.8691537
-7.7654538 -1.1781452 -1.8692945
-7.7011328 -1.5516589 -1.8696711
-7.6193795 -1.9218398 -1.8701736
-7.5720067 -2.1054308 -1.8704717
-7.5203319 -2.2878945 -1.8708011
-7.4041891 -2.6490397 -1.8715522
-7.3397751 -2.8275278 -1.8719739
-7.2711768 -3.0045013 -1.8724258
-7.1984324 -3.179862 -1.872908
-7.1215672 -3.3535168 -1.8734199
-6.9556589 -3.6953192 -1.8745327
-6.8666844 -3.8632894 -1.875133
-6.676909 -4.1928835 -1.8764197
-6.5762157 -4.3543339 -1.8771055
-6.4717236 -4.5134311 -1.8778192
-6.2514987 -4.8242178 -1.8793286
-6.1358933 -4.9757385 -1.8801237
-5.5052633 -5.6911712 -1.8844861
-5.3690233 -5.8252521 -1.885433
-5.2296238 -5.9561529 -1.8864036
-4.8262792 -6.0633225 -1.8443801
-4.3739891 -6.0748906 -1.781571
-4.1587839 -6.0801477 -1.75317
-3.6908154 -6.3351612 -1.7449551
-3.5390673 -6.4262891 -1.7460232
-3.0708592 -6.6780119 -1.7493255
-2.910742 -6.754519 -1.7504572
-2.748745 -6.8272367 -1.7516029
-2.5849512 -6.8961239 -1.7527626
-2.4194481 -6.9611392 -1.7539353
-2.2523193 -7.0222173 -1.7551206
-2.0836816 -7.0793381 -1.7563177
-1.7421826 -7.1815205 -1.758745
-1.5695214 -7.2265019 -1.7599735
-1.220835 -7.3040934 -1.7624578
-1.0450244 -7.3366356 -1.7637122
-0.51280272 -7.4089413 -1.7675145
0.20408203 -7.4454474 -1.7726501
0.38392088 -7.4437742 -1.773941
0.74362302 -7.4273996 -1.7765259
1.102622 -7.3936257 -1.7791095
1.460083 -7.3424497 -1.7816861
1.8151611 -7.2739258 -1.7842494
2.3414257 -7.138814 -1.7880563
2.5147412 -7.0852146 -1.7893121
2.6868017 -7.0273843 -1.79056
2.8575439 -6.9653378 -1.7917991
3.1945457 -6.8287163 -1.7942483
3.3606298 -6.7542105 -1.7954571
3.5249414 -6.6756177 -1.796654
3.6873877 -6.5929766 -1.7978384
3.8478808 -6.5063357 -1.7990097
4.0062985 -6.4157367 -1.8001671
4.3165283 -6.2228675 -1.8024369
4.4681592 -6.1206889 -1.8035482
4.6747751 -6.0896192 -1.8271008
5.1513815 -6.0792575 -1.8964231
5.4035692 -6.0735021 -1.9347428
5.7804542 -5.8978367 -1.9654192
5.9242578 -5.7597971 -1.9664824
6.0646973 -5.6181622 -1.9675223
6.2016602 -5.4730463 -1.968538
6.3350973 -5.3245106 -1.9695293
6.4648633 -5.172667 -1.970495
6.7131443 -4.8593826 -1.9723479
6.8314991 -4.6981134 -1.9732336
6.9458594 -4.5339179 -1.9740916
7.2643943 -4.0246124 -1.976493
7.3621287 -3.849637 -1.9772341
7.8554978 -2.7525973 -1.9810238
7.9216795 -2.5629437 -1.9815419
7.9831491 -2.3716767 -1.9820265
8.1811371 -1.5926751 -1.9836242
8.2184763 -1.3950555 -1.983937
8.2783737 -0.99726802 -1.9844574
8.3386078 0.20745605 -1.9851636
8.3012209 0.80990356 -1.9850323
8.278779 1.0098664 -1.9849167
8.2513914 1.2092139 -1.9847655
8.0406733 2.191992 -1.9834771
7.7100534 3.1402881 -1.9813205
7.5454149 3.5065875 -1.9802225
7.1630611 4.2118402 -1.9776391
6.6949363 4.3843961 -1.9046344
6.3716745 4.3959308 -1.8423114
6.1819968 4.4889774 -1.8182588
5.9531102 4.7777948 -1.8166821
5.7104297 5.0547161 -1.8150036
5.5841208 5.1885076 -1.8141278
5.1863575 5.5702362 -1.8113605
4.9063282 5.8076458 -1.8094052
4.6152878 6.0307488 -1.8073676
4.4658542 6.1367788 -1.8063194
4.3139696 6.2390375 -1.8052528
4.0031495 6.4320583 -1.8030664
3.6836815 6.6095195 -1.8008453
3.5210254 6.6924233 -1.7997589
3.190161 6.846004 -1.7975341
3.0221629 6.9165678 -1.7963943
0.78651851 6.3927727 -1.5329192
0.63041013 6.3931756 -1.5289211
0.47388181 6.378089 -1.5221367
0.011538086 6.478538 -1.5418602
-0.3013379 6.4793363 -1.5437138
-0.45824218 6.4797354 -1.5459943
-0.61568844 6.4801359 -1.5491831
-0.93302244 6.480938 -1.5583308
-1.0932959 6.4813433 -1.5643171
-1.4180126 6.4821587 -1.5792021
-1.5828955 6.4825735 -1.5881469
-1.7497656 6.4829912 -1.5981283
-1.9188184 6.4834137 -1.6091784
-2.6000488 6.9050007 -1.756003
-2.7639208 6.8354483 -1.7547668
-3.086123 6.6848602 -1.7523242
-3.4003856 6.5194144 -1.7499627
-3.5543993 6.4313383 -1.7488376
-3.706162 6.339694 -1.7477276
-3.8556201 6.2445307 -1.7466335
-4.0026755 6.1459012 -1.745556
-4.4287009 5.8298745 -1.7424272
-4.8304782 5.4849944 -1.7394657
-4.9586964 5.3639383 -1.7385182
-5.2061768 5.1131096 -1.7366854
-5.4412646 4.8511567 -1.734939
-5.5540185 4.7161894 -1.7340993
-5.7696776 4.4386711 -1.7324886
-6.0243702 4.4073944 -1.7765105
-6.3246727 4.3968582 -1.833245
-6.6896338 4.1869535 -1.8782343
-6.7860594 4.0227799 -1.8775049
-6.8785644 3.8564594 -1.8768034
-6.9670997 3.688062 -1.8761299
-7.1320896 3.3454559 -1.8748682
-7.2084713 3.1714196 -1.8742803
-7.2807031 2.9957068 -1.8737221
-7.4126611 2.6395831 -1.8726943
-7.4723043 2.4593647 -1.8722253
-7.5276999 2.2778563 -1.8717866
-7.6256104 1.9112939 -1.8710006
-7.668076 1.7264434 -1.8706537
-7.7399411 1.3541229 -1.8700535
-7.8148289 0.79056454 -1.8693881
-7.8499312 0.22328369 -1.8690071
-7.8527732 0.033845212 -1.8689436
-7.851162 -0.155614 -1.8689121
-7.8346677 -0.53414977 -1.8689444
-7.8197656 -0.72302181 -1.8690083
-7.7767086 -1.0995044 -1.8692317
-7.7485838 -1.286914 -1.8693908
-7.7160645 -1.4736127 -1.8695817
-7.6791797 -1.6595432 -1.869804
-7.5923729 -2.0286014 -1.870343
-7.5425048 -2.2115433 -1.8706592
-7.4883447 -2.3933132 -1.8710066
-7.36729 -2.7528887 -1.8717935
-7.0750537 -3.4535561 -1.873731
-6.9917722 -3.6243081 -1.8742896
-6.904458 -3.7931273 -1.8748779
-6.7179785 -4.1245327 -1.8761406
-6.6189013 -4.2869349 -1.8768145
-6.5159812 -4.447032 -1.8775166
-6.2988868 -4.7599258 -1.8790033
-5.6929049 -5.4955683 -1.8831842
-5.561377 -5.634038 -1.8840964
-5.2884326 -5.9016709 -1.885994
-4.691709 -6.0668354 -1.8252684
-4.4662843 -6.0725861 -1.7940528
-3.2947021 -6.563036 -1.7477455
-2.8168797 -6.7972174 -1.7511209
-2.1545653 -7.0558782 -1.7558144
-1.6420507 -7.2081451 -1.7594573
-1.2942675 -7.2892075 -1.7619345
-1.1188427 -7.3235049 -1.7631854
-0.76537108 -7.3794947 -1.7657089
-0.58753908 -7.4011369 -1.7669801
-0.23018554 -7.4316058 -1.7695373
-0.050878905 -7.4403896 -1.7708219
0.12873046 -7.4448647 -1.7721096
0.30852538 -7.4450049 -1.7733996
0.84798336 -7.4193864 -1.7772764
1.0274658 -7.4021459 -1.7785683
1.2066259 -7.3805528 -1.7798587
1.7409911 -7.289722 -1.7837137
2.2684374 -7.1600094 -1.7875277
2.7861474 -6.9918604 -1.7912807
2.9560399 -6.927382 -1.7925146
3.1244287 -6.8587265 -1.7937384
3.2912059 -6.7859445 -1.7949518
3.456284 -6.7090526 -1.7961537
3.9401512 -6.4542003 -1.7996837
4.4049025 -6.1639795 -1.8030844
4.8096433 -6.0867591 -1.8462868
6.410913 -5.2367167 -1.9700934
6.5385447 -5.0829782 -1.9710441
6.7823682 -4.7660742 -1.9728657
7.0104442 -4.4372206 -1.974577
7.1183834 -4.2685657 -1.97539
7.2221484 -4.0972118 -1.9761734
7.3216844 -3.9232869 -1.9769272
7.5077734 -3.568109 -1.9783431
7.676157 -3.2039042 -1.9796344
7.7535596 -3.0186875 -1.9802319
7.8263526 -2.8315747 -1.9807968
7.9579539 -2.4520454 -1.9818274
8.0166893 -2.2598705 -1.9822924
8.0706244 -2.0662706 -1.9827236
8.1640282 -1.6751968 -1.9834826
8.2034178 -1.4780072 -1.9838101
8.2379055 -1.2798492 -1.9841027
8.3116751 -0.68098325 -1.9847683
8.3359518 -0.27931151 -1.9850339
8.3406 -0.078118898 -1.985113
8.3245068 0.52526242 -1.9851347
8.3091497 0.72592223 -1.9850701
8.2634716 1.1257409 -1.9848334
8.2332029 1.3246441 -1.9846612
8.0083303 2.3042188 -1.9832705
7.8846827 2.6867375 -1.9824704
7.7422462 3.0624816 -1.9815338
7.6641016 3.2475121 -1.9810151
7.5814209 3.430517 -1.9804635
7.3066454 3.9660943 -1.9786135
7.1018405 4.3108854 -1.9772224
6.8369775 4.3792658 -1.932345
6.2281637 4.4269986 -1.8185759
6.1169825 4.5740337 -1.8178115
5.8840232 4.8594646 -1.8162049
5.7624021 4.9976959 -1.8153638
5.6374803 5.1328034 -1.8144981
5.3779736 5.3933916 -1.8126953
5.2435837 5.5187187 -1.8117594
5.1062303 5.6406231 -1.8108015
4.9659667 5.7590556 -1.8098221
4.8229198 5.8739285 -1.8088217
4.6771579 5.9851995 -1.8078011
4.5287986 6.0927873 -1.8067611
4.3779392 6.1966338 -1.8057022
3.9112108 6.4851956 -1.8024188
3.5894384 6.6581693 -1.8002163
3.4256885 6.7387137 -1.7991197
3.2600927 6.8151798 -1.7980059
3.092788 6.8875065 -1.7968757
2.5325098 6.4565029 -1.6505949
2.1797462 6.4574299 -1.6220316
1.5058252 6.4591913 -1.5784764
1.0204296 6.4604511 -1.5566156
0.86130369 6.4608622 -1.5512556
0.53877926 6.3779216 -1.5233198
0.22986816 6.378715 -1.5190866
0.077055663 6.4783683 -1.5419271
-0.39240232 6.4795671 -1.5449286
-0.86619139 6.4807696 -1.5561049
-1.6795459 6.4828167 -1.5938153
-1.847666 6.4832377 -1.6044129
-2.1965868 7.0570636 -1.7590301
-2.8582666 6.7932892 -1.7540534
-3.1782079 6.638299 -1.751623
-3.335161 6.555203 -1.7504247
-3.7932568 6.284843 -1.7470902
-4.0869532 6.08705 -1.7449379
-4.3705859 5.8758049 -1.7428546
-4.6435595 5.6516213 -1.7408448
-4.7758689 5.5348501 -1.739869
-5.0318112 5.2922831 -1.7379773
-5.3930321 4.9069486 -1.7352978
-5.507153 4.7730803 -1.7344486
-5.6180177 4.6366153 -1.733622
-5.9038377 4.4115705 -1.7540334
-6.5080271 4.3903337 -1.8683729
-6.6480465 4.2551069 -1.8785483
-6.7461228 4.0918684 -1.8778073
-6.9304686 3.7588909 -1.8764088
-7.0166798 3.5893536 -1.8757516
-7.0988574 3.4178808 -1.8751229
-7.1769433 3.2445934 -1.8745233
-7.2509327 3.0695641 -1.8739526
-7.3207564 2.8929181 -1.8734114
-7.3863916 2.7147179 -1.8728999
-7.6907468 1.6186639 -1.8704667
-7.7263279 1.4324365 -1.870169
-7.8067431 0.8695941 -1.869464
-7.8382959 0.49193177 -1.8691517
-7.8474216 0.30268675 -1.8690432
-7.852119 0.11326416 -1.8689665
-7.8523827 -0.076188967 -1.8689215
-7.7871971 -1.0207647 -1.8691744
-7.7609034 -1.208438 -1.8693203
-7.6951709 -1.5817108 -1.869707
-7.6120162 -1.9515866 -1.8702197
-7.3940673 -2.6779914 -1.8716183
-7.2597117 -3.0329607 -1.8725016
-7.027163 -3.5529613 -1.8740519
-6.8519287 -3.890238 -1.8752327
-6.5595899 -4.3802142 -1.8772188
-6.1168699 -4.9999804 -1.8802546
-5.9970899 -5.1483445 -1.8810803
-5.8738036 -5.2939324 -1.8819319
-5.616909 -5.5763617 -1.8837109
-5.2068262 -5.9769931 -1.8865625
-5.025537 -6.0580173 -1.873309
-4.7885742 -6.0643134 -1.8389889
-4.3387547 -6.0757627 -1.7768528
-4.1246338 -6.0809665 -1.7487549
-3.66645 -6.3501248 -1.7451265
-3.5143309 -6.4406857 -1.7461975
-3.3600292 -6.5276508 -1.7472848
-3.2035887 -6.6109881 -1.7483885
-2.8846924 -6.7665277 -1.7506413
-2.7223876 -6.8386359 -1.7517896
-2.5583203 -6.9068975 -1.7529511
-2.2251854 -7.031723 -1.7553133
-1.3675097 -7.2735887 -1.7614125
-1.1924804 -7.3096356 -1.7626601
-1.0165137 -7.3415012 -1.7639155
-0.66215819 -7.3925853 -1.7664465
-0.1260791 -7.437233 -1.770283
0.05342285 -7.4435167 -1.7715696
0.23314452 -7.4454746 -1.7728587
0.59286618 -7.4363866 -1.775442
0.95226073 -7.4098969 -1.7780268
1.1315771 -7.3901324 -1.7793179
1.4888769 -7.3375535 -1.7818937
2.0199561 -7.2261987 -1.7857298
2.1952636 -7.18046 -1.7869982
2.3695166 -7.1304393 -1.7882599
2.5426319 -7.076159 -1.7895144
2.885 -6.9549212 -1.7919985
3.2215087 -6.816958 -1.7944446
3.5513134 -6.6625352 -1.7968463
3.7134521 -6.5792503 -1.7980285
5.1914892 -6.0783544 -1.902444
5.6573682 -6.0107713 -1.9645102
5.8039207 -5.875773 -1.9655925
5.9471874 -5.7371359 -1.966652
6.2234864 -5.4492583 -1.9687001
6.4854932 -5.1478138 -1.9706486
6.8502536 -4.6717768 -1.9733742
7.2804785 -3.9965029 -1.976615
7.3775244 -3.8211153 -1.9773511
7.4702291 -3.6433301 -1.9780568
7.5585251 -3.4632232 -1.9787314
7.6423535 -3.2809415 -1.9793742
7.7216649 -3.0965641 -1.9799854
7.9319434 -2.5321403 -1.9816225
8.0486031 -2.1475971 -1.9825469
8.0997553 -1.9531966 -1.9829583
8.146059 -1.7575647 -1.983335
8.2556686 -1.1643847 -1.9842564
8.2823439 -0.96500301 -1.9844933
8.3040619 -0.76497924 -1.9846945
8.3207808 -0.5644806 -1.9848602
8.337739 0.23996581 -1.9851648
8.3294725 0.44104919 -1.9851511
8.316186 0.64184386 -1.9851016
8.2979298 0.84225708 -1.9850161
8.2746925 1.0421246 -1.9848949
8.2464991 1.241358 -1.9847378
8.1752777 1.6373407 -1.9843168
8.1323195 1.8338391 -1.9840533
8.0844965 2.0291986 -1.9837545
7.8452392 2.7965887 -1.9822123
7.7736473 2.9843383 -1.9817413
7.697412 3.1701891 -1.9812366
7.6166306 3.3540642 -1.9806987
7.5313377 3.5358086 -1.9801279
7.2489109 4.0672956 -1.9782223
6.9831786 4.3739481 -1.9610636
5.690239 5.0765519 -1.8148638
5.4333982 5.33986 -1.8130807
5.300283 5.4665937 -1.8121543
5.164165 5.5899396 -1.8112057
5.0251074 5.7098455 -1.8102353
4.8832126 5.8262138 -1.8092434
4.7385788 5.9390054 -1.8082314
4.5913086 6.0481291 -1.8071994
4.2891941 6.255208 -1.8050787
3.4945652 6.7054462 -1.7995818
3.1631298 6.8576932 -1.7973515
2.8250341 6.9933038 -1.7950464
1.7408252 6.4585781 -1.5919648
0.92787594 6.4606915 -1.553388
0.76122069 6.3928385 -1.5322098
0.60377926 6.3777542 -1.5246599
0.44887206 6.3781533 -1.5217217
0.14259277 6.4782023 -1.5421509
-0.013725585 6.4786015 -1.5418767
-0.17009278 6.479002 -1.5424993
-0.32666504 6.4794011 -1.5440217
-0.48364744 6.4797993 -1.5464479
-0.95883787 6.4810038 -1.5592338
-1.1193115 6.4814091 -1.5653731
-1.4445459 6.4822259 -1.5805789
-1.946372 6.4834819 -1.6110677
-2.4613037 6.9603105 -1.7570466
-2.951992 6.7498331 -1.753343
-3.2696338 6.5904851 -1.7509255
-3.5790722 6.4167681 -1.748657
-3.7304637 6.3245564 -1.7475499
-3.8795459 6.2288175 -1.7464584
-4.4509764 5.8120122 -1.7422633
-4.5872459 5.6996613 -1.7412599
-4.7207518 5.5841742 -1.7402757
-5.1038961 5.2196536 -1.7374434
-5.3442526 4.9622908 -1.7356603
-5.4596972 4.8295207 -1.7348018
-5.5719385 4.6941376 -1.7339658
-5.7979541 4.4245267 -1.7357824
-6.6058006 4.3228569 -1.8788667
-6.8012791 3.9960454 -1.8773898
-6.9810352 3.6606622 -1.8760235
-7.0648975 3.4899797 -1.8753831
-7.144702 3.3174536 -1.8747712
-7.2204199 3.1431377 -1.8741882
-7.2919922 2.9671581 -1.8736346
-7.4225826 2.6105547 -1.8726165
-7.4815478 2.4301178 -1.8721523
-7.674541 1.6964898 -1.8706007
