# .PCD v0.7 - Point Cloud Data file format
VERSION 0.7
FIELDS x y z
SIZE 4 4 4
TYPE F F F
COUNT 1 1 1
WIDTH 1502
HEIGHT 1
VIEWPOINT 0 0 0 1 0 0 0
POINTS 1502
DATA ascii
5.7294531 -3.7846396 -1.96478
5.9093161 -3.5062709 -1.9661094
6.1530566 -3.0726268 -1.9679239
6.5931201 -1.9981768 -1.9712658
6.684248 -1.6784711 -1.9719801
6.7238669 -1.5169922 -1.9722958
6.8186474 -1.0272254 -1.9730743
6.8421483 -0.86253661 -1.9732772
6.8881249 -0.36560547 -1.9737138
6.8971481 0.13344482 -1.9738909
6.8825879 0.46592712 -1.9738641
6.8691502 0.63180053 -1.973807
6.8299899 0.96226257 -1.9736067
6.8043017 1.1266509 -1.9734631
6.7407713 1.4532379 -1.9730902
6.6611862 1.7762115 -1.9726034
6.6154537 1.9360998 -1.9723179
6.5657859 2.0947778 -1.9720043
6.3935251 2.5626252 -1.9708983
6.2597265 2.8667247 -1.9700254
6.1111374 3.1637261 -1.9690471
6.0314255 3.3093305 -1.9685191
5.8614259 3.5943096 -1.9673872
5.6777 3.8703947 -1.9661567
5.5808396 4.0048957 -1.9655055
5.3774366 4.266418 -1.9641331
5.0081296 4.3831782 -1.9043345
4.7803025 4.3918672 -1.8574585
4.5676122 4.4042964 -1.8155749
4.4344139 4.4872565 -1.8051412
4.2092381 4.6919012 -1.8036028
3.9745069 4.8850946 -1.8019944
3.8537402 4.9772539 -1.8011652
3.7308104 5.0663886 -1.8003203
3.6057909 5.1524405 -1.7994597
3.4787598 5.2353668 -1.7985842
3.3497949 5.315135 -1.7976947
2.9521778 5.5349689 -1.7949458
2.4000244 5.7812858 -1.7911149
2.1160693 5.8838139 -1.7891394
1.6822314 6.0112419 -1.7861145
1.3887451 6.0783906 -1.7840638
1.092705 6.1311665 -1.7819918
0.79479003 6.1694951 -1.7799035
0.6453613 6.1832304 -1.7788548
0.19620605 6.2026763 -1.7756975
0.046508789 6.2019229 -1.7746435
-0.25235841 6.1895914 -1.7725369
-0.99238765 6.0962076 -1.7673063
-1.4280957 5.9979925 -1.7642169
-2.1333692 5.7661233 -1.7591995
-2.67312 5.5216303 -1.7553445
-3.1859863 5.2274151 -1.7516675
-3.5503223 4.9758916 -1.7490455
-3.6675341 4.886446 -1.7482001
-3.8952734 4.69944 -1.7465544
-4.0056639 4.6020098 -1.7457551
-4.113657 4.5020247 -1.7449722
-4.2367282 4.41783 -1.7514508
-4.4329247 4.4046125 -1.7880988
-5.0126023 4.3069181 -1.8910037
-5.3961816 3.7982659 -1.8881878
-5.5693212 3.5311992 -1.8869084
-5.8046923 3.1163373 -1.8851571
-5.8764987 2.9745641 -1.8846194
-6.009912 2.6862464 -1.8836148
-6.071455 2.5398662 -1.8831482
-6.2350636 2.0927985 -1.8818948
-6.2825098 1.9414074 -1.8815265
-6.3263474 1.7889752 -1.8811831
-6.4032469 1.4812908 -1.8805718
-6.4361424 1.326214 -1.8803049
-6.512949 0.85705018 -1.8796577
-6.531157 0.69963682 -1.8794937
-6.5564256 0.38376951 -1.8792439
-6.5634813 0.225495 -1.8791583
-6.5543995 -0.40791199 -1.8790781
-6.5084863 -0.88089538 -1.8792938
-6.4593701 -1.1939435 -1.8795685
-6.4292965 -1.3495349 -1.8797446
-6.3955612 -1.5043951 -1.8799468
-6.3581834 -1.6584289 -1.880175
-6.272573 -1.9637125 -1.8807082
-6.2243896 -2.1147854 -1.881013
-6.1173778 -2.4134021 -1.8816984
-6.0586081 -2.5607839 -1.8820785
-5.9306784 -2.8512676 -1.882913
-5.8615918 -2.9942186 -1.8833669
-5.6342282 -3.4129591 -1.8848721
-5.5518799 -3.5489078 -1.8854208
-5.4663086 -3.6829159 -1.8859926
-5.377573 -3.8149054 -1.8865874
-5.1907811 -4.0725346 -1.8878436
-4.7812696 -4.5603924 -1.8906155
-4.5593991 -4.7895041 -1.892125
-4.444375 -4.9001241 -1.8929096
-4.3267188 -5.0080328 -1.8937134
-4.2064795 -5.1131644 -1.8945358
-4.0837355 -5.2154589 -1.8953766
-3.9585254 -5.3148499 -1.8962353
-3.5689306 -5.5950742 -1.8989141
-3.4345555 -5.6823053 -1.8998402
-3.298125 -5.7663541 -1.9007815
-3.0192285 -5.9247112 -1.9027086
-2.7283838 -6.0599198 -1.9016045
-2.3866553 -6.0667825 -1.865423
-1.7365527 -6.0778284 -1.8086793
-1.5795947 -6.0800781 -1.797484
-1.1187695 -6.085701 -1.7705197
-0.96842772 -6.0908422 -1.7647033
-0.67434078 -6.1376171 -1.7667629
-0.52640623 -6.1557074 -1.7678
-0.080063477 -6.1886158 -1.7709346
0.21875976 -6.1926179 -1.7730371
0.36829588 -6.1892114 -1.7740905
0.66718751 -6.1715708 -1.7761984
0.96520019 -6.139483 -1.7783036
1.1136523 -6.1180234 -1.7793535
1.7274072 -6.0861044 -1.8102407
1.8866552 -6.084415 -1.8227476
2.0481591 -6.0825324 -1.8364536
2.2121434 -6.0804491 -1.851401
2.7214696 -6.0729194 -1.9041873
2.8979297 -6.0699534 -1.9246211
3.0766747 -6.0636272 -1.945588
3.2237842 -5.9908838 -1.9466401
3.3691649 -5.9145403 -1.9476808
3.7939453 -5.6642814 -1.9507279
3.9314647 -5.5739417 -1.9517164
4.0668015 -5.480217 -1.9526904
4.1998682 -5.3831677 -1.9536493
4.330586 -5.2828412 -1.9545922
4.7078271 -4.9627824 -1.9573206
4.82832 -4.8499422 -1.9581944
4.9460645 -4.7341352 -1.9590495
5.0609717 -4.6154156 -1.9598855
5.1729832 -4.4938636 -1.9607016
5.3880124 -4.2425404 -1.9622723
5.5906005 -3.9807472 -1.9637579
6.2662692 -2.8418114 -1.9687731
6.3346534 -2.6905367 -1.9692891
6.3992968 -2.5375845 -1.9697789
6.4601755 -2.3830452 -1.9702426
6.5172215 -2.2270153 -1.9706796
6.5703955 -2.0695958 -1.9710897
6.8067188 -1.1012793 -1.9729735
6.8320456 -0.93687439 -1.9731892
6.8925486 -0.27433899 -1.9737659
6.8974023 -0.10800293 -1.9738379
6.898159 0.05840759 -1.9738809
6.8947897 0.22478759 -1.9738951
6.8600292 0.72271907 -1.9737636
6.7884617 1.2166278 -1.9733721
6.756494 1.3798907 -1.9731841
6.6365528 1.8641528 -1.9724503
6.5368457 2.1813617 -1.9718204
6.4216161 2.4931505 -1.9710802
6.3582959 2.6467736 -1.9706694
6.2911911 2.7987542 -1.9702315
6.2203856 2.9490123 -1.9697672
6.1459131 3.0974278 -1.9692768
6.0678172 3.243927 -1.9687604
5.9861426 3.3884172 -1.9682183
5.8123288 3.6710174 -1.967059
5.4243946 4.2083564 -1.9644505
5.3193798 4.3364091 -1.9637403
5.1146483 4.3790483 -1.9266031
4.4837646 4.4395828 -1.8054779
4.3735838 4.54456 -1.8047262
3.6624169 5.114018 -1.7998495
3.4081738 5.2795658 -1.7980975
3.2781982 5.3575687 -1.7972003
3.1464207 5.432332 -1.7962897
3.0129149 5.5038137 -1.7953662
2.8777733 5.5719867 -1.7944304
2.7410741 5.6368084 -1.7934829
2.4633691 5.7562542 -1.7915552
2.0373192 5.9095144 -1.7885909
1.7479589 5.9941254 -1.7865733
1.6019385 6.0311065 -1.7855538
1.3076904 6.0943208 -1.783497
1.159624 6.1205301 -1.7824606
1.0110693 6.1431327 -1.78142
0.71277344 6.1774836 -1.779328
0.56320798 6.1892242 -1.7782779
0.11399902 6.2027116 -1.7751187
-0.18506347 6.1936297 -1.7730114
-0.33422852 6.1836929 -1.7719592
-0.48298827 6.1701727 -1.770909
-0.63131833 6.1530781 -1.769861
-0.92625487 6.1082635 -1.7677746
-1.0727001 6.0805717 -1.7667375
-1.6497216 5.935142 -1.7626425
-1.9318554 5.8420095 -1.7606354
-2.0710399 5.7904458 -1.7596438
-2.3452833 5.6775041 -1.7576877
-2.4801953 5.6162028 -1.756724
-2.6135254 5.5517254 -1.7557708
-2.8751855 5.4134307 -1.7538975
-3.2540526 5.18331 -1.7511783
-3.3764355 5.1007404 -1.750298
-3.4967577 5.0153289 -1.7494316
-3.7309766 4.8361602 -1.7477419
-4.1719284 4.4460602 -1.7445493
-4.3408008 4.4079375 -1.7701733
-4.7640867 4.3923626 -1.8541398
-4.9663377 4.3619623 -1.8913418
-5.06812 4.2392292 -1.8905975
-5.1669235 4.1141667 -1.8898736
-5.6945558 3.3190093 -1.8859785
-5.8445311 3.0386913 -1.8848591
-5.9144874 2.8960247 -1.8843342
-6.0441356 2.6060474 -1.8833555
-6.1037741 2.4588921 -1.8829024
-6.1599069 2.3104174 -1.8824733
-6.2125049 2.1606946 -1.882069
-6.2615576 2.0098047 -1.8816894
-6.3070359 1.8578326 -1.8813348
-6.3488913 1.7048577 -1.8810054
-6.3871336 1.5509644 -1.8807011
-6.4217381 1.3962244 -1.8804224
-6.4799509 1.0846039 -1.8799417
-6.5035348 0.92787963 -1.8797401
-6.5234079 0.77066344 -1.8795645
-6.552031 0.45507935 -1.8792911
-6.5607567 0.29688537 -1.8791937
-6.5657711 0.13852356 -1.8791224
-6.5670309 -0.01989563 -1.8790774
-6.5645847 -0.17829284 -1.8790586
-6.5583935 -0.33658996 -1.8790662
-6.5484958 -0.49470213 -1.8791
-6.5348582 -0.65254027 -1.8791602
-6.5175242 -0.81001949 -1.8792464
-6.4964695 -0.96705562 -1.8793588
-6.3754783 -1.5890838 -1.8800691
-6.2931299 -1.8952312 -1.880579
-6.1964207 -2.1972659 -1.8811913
-6.1427341 -2.346523 -1.8815352
-6.0248485 -2.6411214 -1.8822979
-5.9607129 -2.7862999 -1.8827163
-5.8931589 -2.9299603 -1.8831593
-5.74791 -3.2124121 -1.8841174
-5.6702881 -3.3510523 -1.8846323
-5.5894041 -3.487848 -1.8851706
-5.4179688 -3.755646 -1.8863165
-5.3275342 -3.8864934 -1.8869233
-5.137363 -4.1417217 -1.888204
-5.037744 -4.2659698 -1.8888769
-4.935195 -4.3878598 -1.8895712
-4.6103663 -4.738759 -1.8917779
-4.496572 -4.8505788 -1.8925536
-4.2610154 -5.0661058 -1.8941625
-4.1393847 -5.1696959 -1.8949952
-4.0152783 -5.2704015 -1.8958459
-3.7598925 -5.4629712 -1.8975999
-3.4954004 -5.6433625 -1.8994207
-3.0827734 -5.8901658 -1.9022692
-2.6332617 -6.0618997 -1.891113
-2.4625976 -6.0653186 -1.8730984
-1.8079492 -6.0767498 -1.814103
-1.3399512 -6.0831876 -1.7823477
-0.88796872 -6.1050882 -1.7652664
-0.59317869 -6.1479907 -1.7673318
-0.14733887 -6.1857243 -1.7704616
0.0019140624 -6.1911473 -1.7715108
0.15134765 -6.1929698 -1.7725625
0.59982419 -6.1768112 -1.7757231
2.1378808 -6.0814133 -1.8445045
2.3033299 -6.0792174 -1.8601534
2.6430809 -6.0741796 -1.8954556
2.8179102 -6.0713201 -1.915224
2.99646 -6.0682211 -1.9364898
3.157661 -6.0241318 -1.9461671
3.4482031 -5.8710961 -1.9482471
3.5907128 -5.7892485 -1.9492687
3.7312498 -5.7038946 -1.9502777
4.4013429 -5.2263761 -1.9551032
4.5282617 -5.1210861 -1.9560205
4.8933201 -4.7867088 -1.9586663
5.0095167 -4.6692939 -1.9595109
5.5460496 -4.0406427 -1.9634308
5.6439648 -3.9071159 -1.9641503
5.8299022 -3.6329007 -1.9655217
5.9177928 -3.492372 -1.9661723
6.0022264 -3.3496749 -1.966799
6.0831494 -3.2048972 -1.9674017
6.1604929 -3.0581284 -1.9679794
6.2342186 -2.9094393 -1.9685323
6.3042822 -2.7589545 -1.9690597
6.3706198 -2.6067443 -1.9695612
6.4919677 -2.2975409 -1.9704858
6.6451073 -1.8231833 -1.9716717
6.6883202 -1.6626519 -1.9720123
6.7275391 -1.5010711 -1.9723252
6.7627735 -1.3385485 -1.9726102
6.7939649 -1.1751842 -1.9728669
6.8211422 -1.0110767 -1.9730955
6.8890085 -0.34927917 -1.9737238
6.8911862 0.31610289 -1.9738905
6.8814549 0.48223144 -1.9738597
6.8676124 0.64807737 -1.9738001
6.827651 0.97844177 -1.9735938
6.8015528 1.1427661 -1.9734476
6.7372265 1.4691888 -1.973069
6.6990428 1.6310828 -1.9728369
6.5606833 2.1102991 -1.971972
6.5067477 2.2675445 -1.9716281
6.3873096 2.5777092 -1.9708579
6.321909 2.730443 -1.9704323
6.1034617 3.1781213 -1.9689963
6.0234079 3.3235266 -1.9684658
5.7622118 3.7470551 -1.9667236
5.4707079 4.1497698 -1.9647632
4.423584 4.4975638 -1.8050674
4.3119969 4.6010151 -1.8043056
4.1979294 4.7016644 -1.8035253
3.5933936 5.1607256 -1.7993743
3.0733154 5.4719915 -1.7957841
2.8029003 5.6079984 -1.7939115
2.5264599 5.7305207 -1.7919935
2.2446778 5.839313 -1.7900347
1.2264502 6.1091633 -1.7829285
0.92930174 6.1540079 -1.7808468
0.33127928 6.2002568 -1.7766478
-0.56450683 6.1612248 -1.7703332
-1.0067675 6.0934906 -1.7672045
-1.7276562 5.9109087 -1.7620884
-1.868667 5.8641763 -1.7610852
-2.1469042 5.7607341 -1.7591031
-2.2839649 5.7040958 -1.7581254
-3.0729637 5.2979341 -1.7524791
-3.6789258 4.8775129 -1.7481178
-3.9062207 4.689992 -1.7464752
-4.4532323 4.4038749 -1.7920766
-5.022583 4.2948637 -1.8909308
-5.1227489 4.1708317 -1.8901974
-5.2198973 4.0445247 -1.8894848
-5.3139892 3.9160039 -1.8887933
-5.4049902 3.785341 -1.8881229
-5.492837 3.6526091 -1.8874743
-5.7370505 3.242744 -1.8856621
-5.8118944 3.1024866 -1.8851032
-5.9514499 2.8170025 -1.8840561
-6.0161133 2.6719317 -1.8835678
-6.1350293 2.377528 -1.8826638
-6.1892333 2.2283587 -1.8822483
-6.3304639 1.7739453 -1.8811507
-6.4391894 1.3109448 -1.8802801
-6.4933591 0.99862057 -1.8798279
-6.5149069 0.84160155 -1.8796405
-6.5327487 0.68414551 -1.8794791
-6.5468798 0.52633053 -1.8793436
-6.5639791 0.20994385 -1.8791512
-6.5669336 0.051544189 -1.8790945
-6.5661521 -0.10687195 -1.879064
-6.5616503 -0.26522765 -1.8790596
-6.5414743 -0.58141786 -1.8791298
-6.4833446 -1.0530713 -1.8794317
-6.3920407 -1.5195667 -1.8799682
-6.3543115 -1.6735177 -1.8801988
-6.3129587 -1.8265557 -1.8804551
-6.2194629 -2.1295612 -1.8810443
-5.9240379 -2.8653853 -1.8829566
-5.7056932 -3.2887623 -1.8843973
-5.4577293 -3.6959746 -1.8860502
-5.3686962 -3.827759 -1.886647
-5.2765231 -3.9574454 -1.8872664
-5.181294 -4.0849609 -1.8879076
-4.9818068 -4.3331895 -1.8892555
-4.6607957 -4.68749 -1.8914346
-4.5482078 -4.8004913 -1.8922013
-4.4329443 -4.9108438 -1.8929876
-4.3150196 -5.0184813 -1.8937933
-3.9460986 -5.3244562 -1.8963206
-3.6881542 -5.5137296 -1.8980933
-3.4212549 -5.6906991 -1.8999319
-3.2846141 -5.774436 -1.9008746
-2.8628759 -6.0060277 -1.9037908
-2.2041454 -6.0701566 -1.8478522
-2.0407567 -6.072999 -1.8331939
-1.8798046 -6.0756302 -1.8197664
-1.7210547 -6.0780578 -1.8075302
-1.4092969 -6.0823288 -1.7864804
-1.2558984 -6.0841837 -1.7776077
-1.1039014 -6.0858579 -1.7697995
-0.95405269 -6.0934668 -1.7648039
-0.65984863 -6.1395512 -1.7668644
-0.5118652 -6.1572962 -1.767902
-0.36339355 -6.1714869 -1.768944
-0.21455078 -6.1821046 -1.7699893
-0.065400392 -6.1891465 -1.7710376
0.083959959 -6.1925902 -1.7720883
0.38298339 -6.1886868 -1.774194
0.68187988 -6.1703343 -1.7763021
0.83102047 -6.1557412 -1.7773553
0.97980469 -6.1375337 -1.7784067
1.1282226 -6.1157188 -1.7794566
1.2760888 -6.0899577 -1.7804008
1.4299853 -6.0888019 -1.7896296
1.9024169 -6.0842395 -1.8240402
2.0641649 -6.0823369 -1.8378662
2.2284033 -6.0802336 -1.8529382
2.5653663 -6.0753927 -1.8870132
2.7386377 -6.072639 -1.906128
2.9154735 -6.0696497 -1.9267105
3.0912011 -6.056643 -1.9456918
3.2381494 -5.9835434 -1.9467428
3.6681347 -5.7428098 -1.9498245
3.8075438 -5.655561 -1.9508256
4.0799756 -5.4708362 -1.9527853
4.212822 -5.3734531 -1.9537426
4.3433008 -5.2728052 -1.9546839
4.4713526 -5.1689472 -1.9556091
4.8400097 -4.8386989 -1.9582793
4.9574757 -4.7226019 -1.9591326
5.2925878 -4.3571801 -1.9615746
5.6963377 -3.8327742 -1.964536
5.8785987 -3.5560024 -1.9658819
5.9645944 -3.4142706 -1.9665195
6.0471044 -3.270422 -1.9671329
6.2014303 -2.9767098 -1.968286
6.2731442 -2.827033 -1.968825
6.3411622 -2.6755884 -1.9693383
6.4054441 -2.5224609 -1.9698255
6.4659519 -2.367774 -1.9702867
6.6243358 -1.8952087 -1.9715091
6.7103319 -1.5740594 -1.9721874
6.7473826 -1.4119476 -1.9724852
6.834321 -0.92068052 -1.9732089
6.8551855 -0.7556268 -1.9733932
6.8719578 -0.59009767 -1.973549
6.8980126 0.074765012 -1.9738836
6.894238 0.24113525 -1.973895
6.8863473 0.40736267 -1.9738772
6.8743505 0.57334107 -1.9738306
6.8582616 0.73896664 -1.9737549
6.813828 1.0687469 -1.9735171
6.7855029 1.2327106 -1.9733551
6.7167625 1.5582141 -1.9729451
6.583735 2.0389574 -1.972118
6.5315428 2.196804 -1.9717866
6.4754782 2.3532848 -1.9714276
6.35186 2.6617858 -1.9706274
6.2132273 2.9636688 -1.9697202
6.0599508 3.258208 -1.9687083
5.9779391 3.4024956 -1.9681637
5.8924122 3.544688 -1.9675941
5.8034372 3.6846783 -1.9669997
5.7110839 3.8223932 -1.9663808
5.4142184 4.2210455 -1.9643818
5.3088965 4.3488407 -1.9636694
4.8593845 4.3888736 -1.873608
4.6385593 4.397171 -1.8288397
4.4730859 4.4500213 -1.8054051
4.3707128 4.5631733 -1.8080012
4.0165577 4.8518729 -1.8022828
3.7743945 5.0353069 -1.80062
3.6501074 5.1224494 -1.7997649
3.395493 5.2873673 -1.7980101
3.2653418 5.3650517 -1.7971115
3.1333838 5.4394965 -1.7961996
2.999707 5.5106573 -1.7952747
2.7275684 5.6429901 -1.7933891
2.5892577 5.7040873 -1.7924294
2.4495947 5.7617655 -1.7914593
2.3086376 5.8159966 -1.7904795
2.1664793 5.8667483 -1.7894903
2.0232079 5.9139972 -1.7884927
1.7336524 5.9979181 -1.7864734
1.440703 6.0675931 -1.7844272
1.2931787 6.097055 -1.7833953
1.1450585 6.1229129 -1.7823586
0.39879882 6.1979437 -1.7771225
0.2490332 6.2020841 -1.7760692
0.099291988 6.2026019 -1.7750152
-0.050322264 6.1995087 -1.7739613
-0.19972655 6.1928129 -1.7729081
-0.64586425 6.1512089 -1.7697582
-1.2326025 6.0461392 -1.765604
-1.3772851 6.0111527 -1.7645776
-1.5210205 5.9727225 -1.7635571
-1.6636914 5.9308829 -1.7625433
-1.945581 5.8370881 -1.7605375
-2.3586035 5.6716251 -1.7575926
-2.6265526 5.5452204 -1.7556776
-2.7580614 5.4773135 -1.7547365
-3.0158446 5.332294 -1.7528889
-3.1419628 5.2552762 -1.7519836
-3.6264551 4.9183025 -1.7484965
-3.7422459 4.8270855 -1.7476606
-3.8557763 4.7331891 -1.74684
-3.9670117 4.636662 -1.7460351
-4.3607178 4.4072223 -1.7740331
-5.176455 4.1017656 -1.8898035
-5.2719383 3.9742303 -1.8891025
-5.5397215 3.5788617 -1.8871276
-5.7022362 3.3054051 -1.8859215
-5.7785544 3.1659417 -1.8853525
-5.9873829 2.7375207 -1.883785
-6.0501513 2.5916448 -1.8833098
-6.3112988 1.8428503 -1.8813014
-6.3907032 1.5357903 -1.8806726
-6.4824266 1.0692376 -1.8799207
-6.5614209 0.28132752 -1.8791854
-6.5641308 -0.1938446 -1.8790584
-6.5576024 -0.35212767 -1.8790683
-6.5473142 -0.51021481 -1.8791049
-6.515615 -0.82547665 -1.8792562
-6.4403219 -1.2947454 -1.8796796
-6.407876 -1.44987 -1.8798727
-6.3717723 -1.6042029 -1.8800917
-6.3320456 -1.7576629 -1.8803364
-6.0797362 -2.5089595 -1.8819417
-6.0187106 -2.6554451 -1.8823379
-5.9542432 -2.8004799 -1.8827587
-5.6624899 -3.3645723 -1.8846841
-5.5812888 -3.5011849 -1.8852247
-5.2246189 -4.0277305 -1.8876156
-5.1277051 -4.154037 -1.8882692
-4.9249706 -4.3997016 -1.8896405
-4.819243 -4.51893 -1.8903575
-4.710659 -4.6356788 -1.8910953
-4.3685007 -4.9702964 -1.8934277
-4.1272998 -5.1797123 -1.8950781
-4.0029588 -5.2801342 -1.8959304
-3.8762157 -5.3776183 -1.8968005
-3.7471142 -5.4721198 -1.8976878
-3.615747 -5.5635595 -1.8985915
-3.2087059 -5.8190446 -1.9013989
-2.7838428 -6.0451646 -1.9043382
-2.6163623 -6.0622458 -1.8892833
-2.4460106 -6.0656414 -1.871405
-2.1141112 -6.0717444 -1.8396468
-1.9521044 -6.0744691 -1.8256713
-1.3248974 -6.0833702 -1.7814758
-1.0209668 -6.0867023 -1.7659554
-0.72639161 -6.1303897 -1.766398
-0.57866699 -6.1497307 -1.7674336
-0.28172362 -6.1777606 -1.7695174
-0.1326953 -6.1864171 -1.7705646
0.016591797 -6.1914859 -1.7716142
0.31556639 -6.1908269 -1.7737188
0.76374996 -6.1627703 -1.7768803
1.0613183 -6.1260014 -1.7789832
1.2095263 -6.1022134 -1.780032
2.1539991 -6.0812073 -1.8459841
2.4883447 -6.0765605 -1.8788589
2.6600733 -6.0739093 -1.8973304
3.0141845 -6.067904 -1.9386597
3.1720898 -6.0169501 -1.9462702
3.4622998 -5.8632164 -1.948348
3.7449315 -5.6953311 -1.9503758
3.883203 -5.606185 -1.9513694
4.019321 -5.5136609 -1.9523486
4.4139109 -5.2161765 -1.9551939
5.0207763 -4.6576061 -1.9595928
5.3509812 -4.2876434 -1.9620014
5.4549704 -4.1589231 -1.9627627
5.5557957 -4.027637 -1.9635023
5.6534033 -3.8938844 -1.9642198
5.8386717 -3.6192098 -1.9655865
6.0908985 -3.1905706 -1.9674596
6.2412596 -2.8947518 -1.9685851
6.3769236 -2.5917208 -1.969609
6.4391403 -2.4377184 -1.970082
6.497539 -2.2822177 -1.9705285
6.6027732 -1.9669763 -1.9713409
6.6495261 -1.8074822 -1.9717064
6.6923532 -1.6468264 -1.9720443
6.7311716 -1.4851654 -1.9723544
6.7660108 -1.3225415 -1.9726367
6.7968163 -1.1591132 -1.9728906
6.8235788 -0.9949249 -1.9731164
6.8462839 -0.83010864 -1.9733137
6.8648925 -0.66479188 -1.9734824
6.8898387 -0.33297241 -1.9737333
6.8961573 -0.16667359 -1.9738156
6.89645 0.16612427 -1.9738934
6.8802733 0.49853149 -1.9738551
6.866035 0.66434509 -1.9737926
6.8476806 0.8297174 -1.9737011
6.7987742 1.1588818 -1.9734317
6.7682276 1.3224108 -1.9732537
6.7336521 1.4851434 -1.9730475
6.6525145 1.8077191 -1.9725496
6.5555515 2.1258013 -1.9719393
6.5012255 2.2829247 -1.9715927
6.3810496 2.5927958 -1.9708172
6.0957565 3.1924913 -1.9689453
5.9314108 3.4808385 -1.9678539
5.8439746 3.6218414 -1.9672706
5.6589255 3.8970158 -1.9660305
5.1996484 4.3757267 -1.9445324
4.5307908 4.4104314 -1.8092294
4.4127488 4.5078473 -1.8049935
4.0699315 4.8088822 -1.8026488
3.9509521 4.9034414 -1.8018328
3.8297558 4.9950018 -1.8010005
3.7064013 5.0835443 -1.8001523
3.580996 5.1689787 -1.7992889
3.3242579 5.3304214 -1.7975184
3.1930957 5.4063396 -1.7966124
2.9256103 5.5483222 -1.7947617
2.5127294 5.7361856 -1.7918981
2.3723536 5.7919707 -1.7909225
1.65354 6.0184674 -1.7859143
1.5070068 6.053134 -1.7848905
1.3597753 6.0842118 -1.7838612
1.0635155 6.135572 -1.7817874
0.91466796 6.1558404 -1.7807443
0.76544434 6.1724796 -1.7796975
-0.2816748 6.1876054 -1.7723302
-0.43058103 6.1753449 -1.7712791
-0.57907712 6.159512 -1.7702302
-0.72704101 6.1401248 -1.7691842
-1.0211328 6.0907388 -1.7671027
-1.1670752 6.060782 -1.7660687
-1.3121533 6.0273566 -1.7650398
-1.7415576 5.9064655 -1.7619896
-1.8824657 5.8594046 -1.760987
-2.0220947 5.8090153 -1.7599926
-2.1604247 5.7553129 -1.7590066
-2.297334 5.6983671 -1.7580301
-2.4327979 5.6381865 -1.7570628
-2.8295555 5.4387054 -1.7542245
-3.2103953 5.2117414 -1.751492
-3.6903124 4.8685479 -1.7480357
-4.4736328 4.4031315 -1.7960821
-4.9097605 4.3868351 -1.8839422
-5.2292771 4.0320024 -1.889416
-5.3230615 3.9032781 -1.8887265
-5.5012937 3.6394501 -1.8874117
-5.5856247 3.5045416 -1.8867875
-5.6667428 3.3677001 -1.8861854
-5.7445507 3.2290514 -1.8856061
-6.022285 2.657594 -1.8835211
-6.0831299 2.5109491 -1.8830595
-6.1405125 2.3629205 -1.8826219
-6.1943555 2.2136414 -1.8822088
-6.244668 2.0631425 -1.8818204
-6.3740721 1.605318 -1.8808055
-6.4707618 1.1397516 -1.8800188
-6.4956393 0.98321044 -1.8798082
-6.5480661 0.51080018 -1.8793318
-6.5581102 0.35269469 -1.8792251
-6.5644336 0.1943756 -1.8791445
-6.5670214 0.035986327 -1.8790902
-6.5610056 -0.28077331 -1.8790606
-6.5400925 -0.59690368 -1.8791358
-6.5240622 -0.7545312 -1.8792129
-6.4808788 -1.0684381 -1.8794454
-6.4229541 -1.3800098 -1.8797823
-6.3884959 -1.5347229 -1.8799897
-6.35042 -1.688573 -1.8802227
-6.3087058 -1.8415316 -1.8804817
-6.2145114 -2.1443279 -1.8810759
-6.1620703 -2.2940295 -1.881411
-5.8476071 -3.0221291 -1.883459
-5.7744923 -3.1631007 -1.8839417
-5.4491405 -3.7090001 -1.8861078
-5.2673044 -3.9700749 -1.8873283
-5.1717772 -4.097362 -1.8879718
-5.0732126 -4.2224231 -1.8886372
-4.971704 -4.3451395 -1.8893238
-4.7599659 -4.5833445 -1.8907602
-4.6498632 -4.6987 -1.8915089
-4.3032908 -5.0289164 -1.8938736
-4.1825681 -5.133482 -1.8946995
-4.0593162 -5.235219 -1.8955439
-2.5224168 -6.0641403 -1.8792934
-2.353745 -6.0674067 -1.8621631
-2.1879785 -6.0704455 -1.846356
-2.0248339 -6.0732665 -1.8318199
-1.864126 -6.0758777 -1.8185128
-1.3941602 -6.0825195 -1.7855624
-0.93964356 -6.0960627 -1.7649047
-0.64532226 -6.1414509 -1.7669662
-0.050737303 -6.1896434 -1.7711407
0.24813476 -6.1922364 -1.773244
0.69650388 -6.1690612 -1.7764055
0.99441892 -6.13555 -1.7785102
1.2911328 -6.0898523 -1.7812588
1.6009179 -6.0873251 -1.8010319
1.7585254 -6.0857878 -1.8126043
2.0801756 -6.082139 -1.8392915
2.4119334 -6.077683 -1.8709818
2.5822558 -6.0751319 -1.8888291
2.7558348 -6.0723557 -1.9080832
3.1056981 -6.0496278 -1.9457955
3.397495 -5.8991284 -1.9478837
3.6819236 -5.734385 -1.9499234
3.9582372 -5.555788 -1.9519089
4.0931201 -5.4614182 -1.9528799
4.2257371 -5.3637128 -1.9538357
4.4837842 -5.158576 -1.955699
4.6090574 -5.0512528 -1.9566052
4.7316942 -4.9408569 -1.9574935
4.8516798 -4.8274155 -1.9583639
5.0832176 -4.5917516 -1.9600474
5.1946435 -4.4696608 -1.9608595
5.4084864 -4.2172618 -1.9624221
5.7056103 -3.8193998 -1.9646041
5.8871922 -3.5421941 -1.9659456
5.9728565 -3.4002395 -1.9665809
6.0550194 -3.2561722 -1.9671921
6.1336327 -3.1101041 -1.9677786
6.2799902 -2.8122342 -1.9688766
6.347651 -2.6606102 -1.9693873
6.4115524 -2.5073528 -1.9698721
6.4716845 -2.3525014 -1.9703305
6.5279636 -2.1962063 -1.9707623
6.5804005 -2.0385036 -1.9711672
6.7507911 -1.3959789 -1.9725127
6.8570018 -0.739375 -1.9734097
6.8938231 -0.24167907 -1.9737822
6.8978219 0.091093138 -1.9738859
6.8936424 0.25746703 -1.9738945
6.8729587 0.58962399 -1.9738244
6.8564596 0.75522339 -1.9737458
6.7497458 1.411875 -1.9731441
6.7129636 1.5741162 -1.972922
6.5262012 2.2122474 -1.9717525
6.4697604 2.3685777 -1.9713906
6.4094677 2.5234656 -1.9710015
6.3454099 2.6767571 -1.9705855
5.8838181 3.5585356 -1.9675367
5.6057811 3.9709184 -1.9656733
5.2983932 4.361248 -1.9635983
5.0679393 4.3808637 -1.9168099
4.6174269 4.3979545 -1.8246112
4.4623337 4.460434 -1.8053318
4.3516407 4.5648518 -1.8045764
4.1228271 4.7652802 -1.8030112
3.7622948 5.0439982 -1.8005368
3.6377783 5.1308465 -1.79968
3.5112743 5.2145681 -1.7988086
3.1203125 5.4466352 -1.7961091
2.8510253 5.5849881 -1.7942451
2.5756104 5.7099075 -1.7923347
2.1524315 5.8715482 -1.7893927
2.0090723 5.9184504 -1.7883941
1.7193506 6.001668 -1.7863736
1.5731689 6.0379486 -1.7853529
1.4262353 6.0706487 -1.784326
1.278667 6.0997529 -1.7832937
0.83276856 6.1654267 -1.78017
0.68341309 6.1800761 -1.779122
0.53380859 6.1911077 -1.7780713
0.38407224 6.1985102 -1.777019
0.084580079 6.2024589 -1.7749116
-0.064995117 6.1990094 -1.7738578
-0.21440428 6.1919608 -1.7728047
-0.36347654 6.1813188 -1.7717528
-0.51217771 6.1670952 -1.7707028
-0.80806148 6.1279669 -1.7686111
-1.101372 6.0747223 -1.7665343
-1.24687 6.0428543 -1.7655029
-1.535078 5.96876 -1.7634572
-1.677627 5.9265947 -1.7624441
-1.9593066 5.832139 -1.7604399
-2.0982177 5.7799311 -1.7594501
-2.2358007 5.7244415 -1.7584691
-2.3719091 5.6657157 -1.7574975
-2.7708886 5.4704752 -1.7546446
-3.1542578 5.2475529 -1.7518953
-3.4002392 5.084178 -1.7501266
-3.5201366 4.9982233 -1.7492632
-3.6379199 4.9094672 -1.7484137
-3.8668017 4.7238235 -1.7467604
-3.9778075 4.6270404 -1.745957
-4.1925926 4.4258537 -1.7443992
-4.3806982 4.4065018 -1.7779119
-4.5893602 4.3988833 -1.8189901
-4.8077927 4.3907146 -1.863036
-5.0877733 4.2148347 -1.8904536
-5.1859665 4.089334 -1.8897338
-5.4622169 3.6996477 -1.8877006
-5.5479932 3.5656269 -1.8870662
-5.7858834 3.1521502 -1.8852977
-6.056128 2.5772545 -1.8832645
-6.1150732 2.4298303 -1.8828161
-6.1705222 2.2810907 -1.8823919
-6.2224216 2.1311462 -1.8819926
-6.3155465 1.8278601 -1.8812679
-6.3566895 1.674685 -1.8809435
-6.3942184 1.5206348 -1.8806443
-6.4280953 1.3657409 -1.8803706
-6.4583302 1.2101123 -1.8801223
-2.9259374 4.826447 -1.7534066
-3.2627685 4.5958796 -1.7509832
-3.4775391 4.429245 -1.7494335
-3.8122313 4.4007854 -1.8087922
-3.9959326 4.3940482 -1.8451147
-4.318872 4.3116813 -1.8958882
-4.6141014 3.9835651 -1.8937353
-4.7071486 3.8697174 -1.8930545
-4.7974463 3.753731 -1.8923925
-5.051333 3.3936498 -1.8905233
-5.2059765 3.1441698 -1.889378
-5.278779 3.0168109 -1.8888366
-5.4787645 2.6251225 -1.8873397
-5.6503468 2.2205541 -1.8860399
-5.9361329 1.2378564 -1.8838046
-5.9635544 1.0941736 -1.8835789
-5.9875731 0.94989985 -1.8833771
-6.0253515 0.65989625 -1.8830452
-6.0596972 0.076283567 -1.8826708
-6.0492725 -0.36208495 -1.8826443
-6.0078564 -0.79863954 -1.8828366
-5.9872117 -0.94338316 -1.882949
-5.9048386 -1.3741997 -1.8834308
-5.8706055 -1.5164068 -1.8836395
-5.5956788 -2.3495014 -1.8853854
-5.478291 -2.6177521 -1.8861506
-5.4145312 -2.7496974 -1.8865695
-5.3478661 -2.8801792 -1.887009
-5.2781348 -3.0090806 -1.8874706
-5.1295457 -3.2618473 -1.8884591
-5.0507765 -3.385576 -1.8889855
-4.9690819 -3.507443 -1.8895327
-4.79707 -3.7453122 -1.8906895
-4.7068458 -3.861176 -1.8912983
-4.6138721 -3.9749153 -1.8919269
-4.518198 -4.0864511 -1.892575
-4.4198728 -4.1957264 -1.8932422
-3.8902881 -4.7060428 -1.8968542
-3.7771826 -4.8004742 -1.8976289
-3.3027587 -5.1508942 -1.9008888
-3.053247 -5.3089929 -1.9026092
-2.9256444 -5.3835893 -1.9034905
-2.5323389 -5.589035 -1.9062124
-2.3979394 -5.6512523 -1.9071443
-2.2620506 -5.7102728 -1.9080874
-1.419082 -5.995223 -1.9139565
-1.2747314 -6.0308819 -1.9149646
-0.97879881 -6.063169 -1.9079859
-0.23940918 -6.0685282 -1.8867315
-0.092900388 -6.0690684 -1.8856536
0.053520508 -6.0694346 -1.8856202
0.34675291 -6.0696473 -1.8886862
0.78993648 -6.0686555 -1.9012084
1.687207 -5.9985099 -1.9358219
1.832373 -5.9592371 -1.9368527
1.9766308 -5.9164329 -1.9378779
2.2620409 -5.8203063 -1.9399089
2.4030273 -5.767035 -1.9409133
2.8180516 -5.5866928 -1.943876
2.9534569 -5.5198388 -1.9448444
3.6048388 -5.1366539 -1.9495167
3.7293994 -5.0505252 -1.9504131
3.8518896 -4.9613404 -1.9512956
4.2060642 -4.6759434 -1.9538537
4.319458 -4.5750513 -1.954675
4.6445651 -4.2558689 -1.9570359
4.747695 -4.1441822 -1.9577874
4.8481007 -4.0299606 -1.9585202
4.9456983 -3.913269 -1.9592336
5.2210984 -3.5490673 -1.9612552
5.3896141 -3.2952101 -1.962499
5.5455275 -3.0332177 -1.9636563
5.6186571 -2.8993733 -1.9642013
5.6884618 -2.7637312 -1.9647236
5.8180223 -2.4873946 -1.9656985
5.8776855 -2.3468673 -1.9661505
5.9338717 -2.2048905 -1.9665784
5.9865623 -2.0615342 -1.9669818
6.0357175 -1.9168944 -1.9673606
6.0812936 -1.7710644 -1.9677147
6.1963034 -1.3273053 -1.9686252
6.2273145 -1.1776074 -1.9688776
6.2980809 -0.72444576 -1.9694787
6.3265672 -0.41990662 -1.9697485
6.3399801 -0.11430115 -1.9699124
6.3410254 0.038666382 -1.9699546
6.3318014 0.3444525 -1.9699593
6.321528 0.49707639 -1.9699215
6.2896972 0.80132198 -1.9697669
6.2139401 1.2537543 -1.9693364
6.1812692 1.4031464 -1.9691403
6.1449218 1.5516663 -1.9689182
6.1049461 1.6992248 -1.9686705
6.0141358 1.9911102 -1.9680974
5.9090867 2.2780683 -1.9674233
5.851294 2.4194794 -1.9670488
5.7900534 2.5594029 -1.9666494
5.7254052 2.6977446 -1.9662259
5.5860105 2.9693542 -1.9653064
5.433496 3.2336438 -1.9642929
5.1809912 3.6149566 -1.962602
4.9974656 3.8581915 -1.9613655
4.9013038 3.9763031 -1.9607157
4.8023243 4.0919743 -1.9600451
4.4416456 4.3770633 -1.9372722
4.240005 4.3849149 -1.8949155
4.0467038 4.3922477 -1.8553499
3.7160449 4.4457974 -1.8000751
3.6062157 4.5322418 -1.7993217
3.4943457 4.6159391 -1.7985531
3.3805077 4.6968374 -1.7977704
3.0279346 4.9223223 -1.7953396
2.7843993 5.0578861 -1.7936561
2.6602979 5.1211233 -1.7927971
2.4078565 5.2383528 -1.7910467
2.1502686 5.34304 -1.7892572
2.0197313 5.3906193 -1.7883492
1.7555859 5.4761152 -1.7865092
1.0810351 5.6326761 -1.7817963
0.66982418 5.6868877 -1.7789141
0.39433104 5.7063589 -1.7769792
0.25643066 5.711092 -1.7760097
-0.15694824 5.7053132 -1.7730985
-0.29435545 5.6967545 -1.7721292
-0.56815428 5.669733 -1.7701956
-0.70437986 5.6513028 -1.7692326
-0.84003419 5.6296124 -1.7682726
-1.109375 5.5765238 -1.7663647
-1.3755566 5.5106306 -1.7644759
-1.5072851 5.4729447 -1.76354
-1.637998 5.4321256 -1.7626108
-1.7676269 5.3882098 -1.7616882
-2.0233495 5.2912102 -1.759866
-2.2738769 5.1821966 -1.7580776
-2.518662 5.0614495 -1.7563272
-2.757163 4.929285 -1.7546182
-2.9888525 4.7860284 -1.7529547
-3.1019921 4.7103496 -1.7521411
-3.2132373 4.6320415 -1.7513402
-3.4298437 4.4676871 -1.7497779
-3.5595262 4.4120536 -1.7611151
-3.7316649 4.4036775 -1.7931908
-4.0999513 4.3901505 -1.8661227
-4.3746729 4.2531843 -1.8954822
-4.4742823 4.1448283 -1.8947563
-4.57125 4.0341849 -1.8940485
-4.6655321 3.9213164 -1.8933591
-4.7570801 3.8062885 -1.8926885
-4.8458447 3.6891632 -1.892037
-4.9317722 3.5700018 -1.891405
-5.0949659 3.3258727 -1.8902007
-5.2463279 3.0744433 -1.889078
-5.3174706 2.946173 -1.8885483
-5.5123191 2.5519738 -1.8870869
-5.7275729 2.0072637 -1.8854479
-5.8156104 1.7280591 -1.8847647
-5.8546433 1.5870148 -1.8844577
-5.8903027 1.4451135 -1.8841745
-5.951611 1.1590338 -1.8836778
-6.03333 0.57999814 -1.8829708
-6.0451903 0.43427184 -1.8828542
-6.060112 -0.0039923093 -1.8826495
-6.0581884 -0.15017211 -1.8826298
-6.0528221 -0.2962622 -1.8826344
-6.0439987 -0.44219297 -1.8826632
-6.031743 -0.58787107 -1.8827163
-6.0160499 -0.73322755 -1.8827938
-5.9484668 -1.1665612 -1.8831711
-5.8864503 -1.4523828 -1.8835424
-5.8503952 -1.5941454 -1.8837641
-5.8110008 -1.7350256 -1.8840094
-5.6729684 -2.1516783 -1.8848863
-5.6204147 -2.2883019 -1.8852252
-5.5646582 -2.4236739 -1.8855869
-5.5056934 -2.5577254 -1.8859713
-5.3099561 -2.951159 -1.8872598
-5.006279 -3.4527273 -1.8892834
-4.8368454 -3.6923835 -1.8904217
-4.7478757 -3.8091917 -1.8910214
-4.4645262 -4.1467385 -1.8929391
-4.3647609 -4.2547507 -1.8936168
-4.2624216 -4.3604026 -1.8943132
-3.940537 -4.6626039 -1.8965102
-3.4787793 -5.0289526 -1.8996775
-3.3579297 -5.1136432 -1.900509
-2.983413 -5.3503265 -1.9030914
-2.7244482 -5.4931574 -1.9048818
-2.5923975 -5.5599399 -1.9057962
-2.4587207 -5.6235919 -1.9067227
-2.1867969 -5.7413068 -1.90861
-1.6267871 -5.9373913 -1.9125075
-1.0464697 -6.0624619 -1.911232
-0.89668453 -6.0639787 -1.9043359
-0.74784666 -6.065311 -1.8985345
-0.45245606 -6.0674334 -1.8901572
-0.15893066 -6.0688462 -1.8860096
-0.012499999 -6.0692911 -1.8855059
0.42747557 -6.0695834 -1.8902627
0.57488769 -6.0693326 -1.8939544
1.1725976 -6.0665488 -1.9195325
1.3249072 -6.0653949 -1.9287215
1.6214551 -6.0150547 -1.9353552
1.7670165 -5.9773822 -1.9363885
2.0554297 -5.8914337 -1.9384382
2.1980858 -5.8431954 -1.9394534
2.6189013 -5.6777291 -1.9424533
2.8926024 -5.5503907 -1.944409
3.0271533 -5.4817133 -1.9453716
3.160044 -5.4097424 -1.9463235
3.2912011 -5.3345227 -1.947264
3.4205565 -5.2560782 -1.9481924
3.5480077 -5.1744733 -1.9491081
3.673496 -5.0897393 -1.9500107
3.9182324 -4.9110808 -1.9517741
4.15416 -4.7205076 -1.9534782
4.2686329 -4.6208878 -1.9543066
4.3806834 -4.5184507 -1.9551187
4.4902101 -4.41326 -1.9559137
4.5971875 -4.305378 -1.9566913
4.7015333 -4.1948576 -1.9574509
5.1814108 -3.6051068 -1.9609629
5.352695 -3.3531735 -1.962226
5.4336863 -3.2240613 -1.9628254
5.5115085 -3.0929599 -1.9634031
5.5860887 -2.9599528 -1.9639584
5.6573877 -2.8251095 -1.9644909
5.8512058 -2.4104171 -1.9659497
5.9089694 -2.269078 -1.9663883
5.9632516 -2.1263309 -1.966803
6.104785 -1.6905081 -1.9678984
6.1447654 -1.5430042 -1.9682133
6.2680368 -0.94427735 -1.9692172
6.3073926 -0.64098507 -1.9695632
6.321455 -0.4886798 -1.9696969
6.3317528 -0.33607483 -1.969804
6.3399949 0.12266479 -1.9699664
6.3351998 0.27555969 -1.9699675
6.1964502 1.3358886 -1.969232
6.1234179 1.6328149 -1.9687854
6.08145 1.7798169 -1.9685234
6.0358644 1.9257098 -1.9682356
5.9339938 2.2138464 -1.9675841
5.8180957 2.4965069 -1.9668325
5.6884522 2.7730114 -1.9659829
5.4690037 3.1747296 -1.9645294
5.38937 3.3048418 -1.9639986
5.3065915 3.4329119 -1.9634448
4.9450192 3.9233441 -1.9610113
4.8473144 4.0401239 -1.96035
4.7467823 4.1544328 -1.9596683
4.6435304 4.2661982 -1.958967
4.5355177 4.373343 -1.957346
4.1328659 4.3890009 -1.8728564
3.7703123 4.4122858 -1.8030063
2.9616992 4.9607353 -1.7948822
2.8398535 5.0283747 -1.7940398
2.4652491 5.2130094 -1.7914448
2.3376269 5.2683549 -1.7905591
2.20875 5.3205447 -1.7896637
1.5485058 5.5334077 -1.7850645
1.4138281 5.566215 -1.7841239
1.1425146 5.6219425 -1.7822267
1.0060204 5.6448383 -1.7812712
0.45649412 5.703135 -1.777416
0.31861815 5.709372 -1.7764469
-0.094907224 5.708096 -1.7735357
-0.23243652 5.701026 -1.7725661
-0.64301759 5.6600213 -1.7696664
-1.3158495 5.5265961 -1.7648998
-1.5791992 5.4509172 -1.7630289
-1.7093213 5.4083905 -1.7621032
-1.8383251 5.3627896 -1.7611847
-1.9661328 5.314136 -1.7602741
-2.0926807 5.262464 -1.7593714
-2.3416893 5.1501985 -1.757593
-2.4640088 5.0896821 -1.7567183
-2.5847802 5.0262909 -1.7558537
-2.7039599 4.9600639 -1.7549996
-3.0512059 4.7448039 -1.7525064
-3.1633203 4.6676741 -1.7516997
-3.2735009 4.5879278 -1.7509059
-3.3817139 4.5056229 -1.7501254
-4.01437 4.3933611 -1.8488159
-4.2063084 4.3861051 -1.8879232
-4.4296875 4.1939692 -1.8950813
-4.6233544 3.972481 -1.8936677
-4.7161474 3.8584149 -1.8929886
-4.8061666 3.7422247 -1.8923285
-4.9777393 3.5037346 -1.8910664
-5.1377244 3.2575426 -1.8898844
-5.2857714 3.0042119 -1.8887844
-5.4215965 2.7443047 -1.8877692
-5.7059031 2.0696282 -1.8856144
-5.7530661 1.9310088 -1.8852509
-5.8746581 1.5091974 -1.8842992
-5.9085107 1.3668512 -1.8840284
-5.9897461 0.93570065 -1.8833586
-6.026865 0.64561033 -1.8830312
-6.0567575 0.20808776 -1.8827213
-6.0598435 0.061922606 -1.8826662
-6.0594678 -0.084264524 -1.8826357
-6.0556588 -0.23041381 -1.8826294
-6.0484033 -0.37642151 -1.8826472
-6.0235596 -0.66773313 -1.8827559
-5.9605908 -1.1017486 -1.8831004
-5.8670602 -1.5303302 -1.8836613
-5.8291698 -1.6716162 -1.8838959
-5.7879395 -1.8119934 -1.8841542
-5.7434082 -1.9513702 -1.884436
-5.6955857 -2.0896823 -1.8847412
-5.6445117 -2.2268469 -1.8850695
-5.532671 -2.4974551 -1.8857952
-5.4719677 -2.6307378 -1.8861923
-5.4081202 -2.7625811 -1.8866117
-5.1219382 -3.2740808 -1.8885098
-4.7883201 -3.7567832 -1.8907485
-4.6978269 -3.8724465 -1.8913592
-4.4100585 -4.2063384 -1.893309
-4.308877 -4.3130646 -1.893997
-4.0989404 -4.5192685 -1.8954278
-3.9902928 -4.6186366 -1.89617
-3.8792725 -4.7154355 -1.8969296
-3.6503661 -4.901093 -1.8984987
-3.5325732 -4.9898496 -1.8993076
-3.4126658 -5.0758104 -1.9001323
-3.2906885 -5.1589317 -1.9009719
-3.1667089 -5.2391672 -1.9018264
-2.9130127 -5.3907557 -1.9035778
-2.6521435 -5.5302172 -1.9053824
-2.2486084 -5.7158952 -1.9081808
-1.9722998 -5.8235526 -1.9101013
-1.8321972 -5.8724284 -1.9110764
-1.5484326 -5.9601212 -1.913054
-1.1143652 -6.0617166 -1.9147061
-0.51882809 -6.0670171 -1.8916744
-0.37172851 -6.0678911 -1.8886013
-0.078525387 -6.0691123 -1.8856039
0.06790527 -6.0694613 -1.8856722
0.21442382 -6.0696373 -1.8867853
1.2560595 -6.0659385 -1.9244363
1.408872 -6.0633836 -1.9338479
1.5555567 -6.0308771 -1.9348878
1.7014941 -5.9948082 -1.9359235
2.2759521 -5.815227 -1.9400079
2.4168162 -5.7616153 -1.9410118
2.8314159 -5.5802722 -1.9439715
2.9666796 -5.5130897 -1.9449389
3.100327 -5.4425988 -1.9458957
3.2322752 -5.3688378 -1.9468414
3.3624561 -5.2918406 -1.9477752
3.4907763 -5.211658 -1.9486969
3.6171679 -5.1283331 -1.9496053
3.741533 -5.0419035 -1.9505005
3.9839013 -4.8599339 -1.952248
4.1017723 -4.7644958 -1.9530994
4.2173142 -4.6661572 -1.953935
4.3304539 -4.5649858 -1.9547546
4.4411426 -4.4610276 -1.9555573
4.6548095 -4.2450151 -1.9571105
4.8578024 -4.0186119 -1.958591
5.0495944 -3.7823482 -1.9599948
5.2296629 -3.5367982 -1.9613181
5.3975587 -3.2825317 -1.9625579
5.4768114 -3.1523201 -1.9631454
5.5528612 -3.020164 -1.9637108
5.6256542 -2.8861241 -1.9642537
5.6951466 -2.750314 -1.9647738
5.7612891 -2.6127956 -1.9652706
5.8833542 -2.3329895 -1.9661936
5.9915476 -2.0473864 -1.96702
6.0403419 -1.90263 -1.9673965
6.085566 -1.7566769 -1.967748
6.1651807 -1.4615936 -1.9683756
6.199502 -1.3126397 -1.9686511
6.2301512 -1.1628625 -1.9689007
6.2571092 -1.0123565 -1.9691249
6.2803369 -0.86121821 -1.9693228
6.3275681 -0.40491515 -1.969759
6.3402438 -0.099278562 -1.9699177
6.3409228 0.053690184 -1.9699572
6.337832 0.20662902 -1.9699703
6.3309522 0.35944456 -1.9699566
6.3203125 0.51205629 -1.9699165
6.2658544 0.96759337 -1.9696368
6.1778612 1.4177649 -1.9691197
6.0093164 2.0053215 -1.9680668
5.8454347 2.4332886 -1.9670106
5.7838621 2.5730567 -1.966609
5.5038671 3.115423 -1.9647613
5.3443017 3.3754156 -1.9636973
5.1722555 3.6271183 -1.9625435
4.8917136 3.9877703 -1.9606506
4.7924509 4.1032023 -1.9599781
4.6904345 4.2161174 -1.9592857
4.5857029 4.326457 -1.9585736
4.4214649 4.3778567 -1.9329832
4.0281348 4.3929424 -1.8516055
3.7053516 4.4544063 -1.8000017
3.483247 4.6240044 -1.7984768
3.3692284 4.7046309 -1.7976927
3.2533154 4.782414 -1.7968943
3.1355908 4.8573027 -1.7960827
3.0161278 4.9292593 -1.7952582
2.8949852 4.9982476 -1.7944211
2.648037 5.1271672 -1.7927121
2.5223486 5.1870389 -1.7918409
2.2670166 5.2974029 -1.7900686
2.137495 5.3478556 -1.7891684
1.7425195 5.4799809 -1.7864181
1.4746435 5.5518279 -1.7845488
1.3395849 5.5828314 -1.7836051
1.067627 5.6349235 -1.7817025
0.93089354 5.6559954 -1.7807448
0.51862305 5.6992316 -1.7778524
0.38078612 5.7069721 -1.776884
0.24287598 5.7113786 -1.7759143
-0.1704541 5.7046256 -1.7730032
-0.44489256 5.6835504 -1.7710665
-0.58156246 5.6680694 -1.770101
-0.71771973 5.6493182 -1.7691381
-0.98828614 5.6020584 -1.7672229
-1.1225244 5.5735846 -1.7662715
-1.2559619 5.5419135 -1.765325
-1.3885351 5.507071 -1.7643838
-1.5201855 5.4690704 -1.7634485
-1.6507909 5.4279461 -1.7625196
-1.7803173 5.3837333 -1.7615979
-2.1615965 5.2328205 -1.7588795
-2.2860498 5.1765409 -1.7579908
-2.4090331 5.1173272 -1.7571114
-2.6504443 4.9902668 -1.7553833
-2.7687061 4.9225039 -1.7545353
-3.0000439 4.7787175 -1.7528743
-3.2240527 4.624207 -1.7512622
-3.4402733 4.4593501 -1.7497027
-4.118794 4.3894377 -1.8699625
-4.2826266 4.348875 -1.8961517
-4.3845654 4.2426419 -1.8954101
-4.4839306 4.1340618 -1.894686
-4.7659225 3.7948711 -1.8926237
-4.9400535 3.5581963 -1.8913441
-5.179575 3.1886742 -1.8895739
-5.4567237 2.6718731 -1.8875054
-5.5182176 2.5388501 -1.8870424
-5.5765524 2.4044409 -1.8866012
-5.6316748 2.2687085 -1.8861822
-5.7322021 1.993645 -1.8854121
-5.7775488 1.8544494 -1.8850613
-5.8582959 1.5731164 -1.8844289
-5.8936572 1.431134 -1.8841476
-6.0012989 0.85622555 -1.8832592
-6.0461717 0.41994444 -1.8828441
-6.0542431 0.27396667 -1.882754
-6.0520997 -0.31060791 -1.8826362
-6.0303564 -0.60216248 -1.8827229
-5.9948778 -0.89238888 -1.8829068
-5.972002 -1.0368201 -1.8830348
-5.8830566 -1.4663476 -1.8835632
-5.8466797 -1.6080213 -1.8837872
-5.7639012 -1.8886484 -1.884306
-5.5590086 -2.4369054 -1.8856236
-5.4997315 -2.5708139 -1.8860104
-5.303081 -2.9638016 -1.8873054
-5.1566114 -3.2177854 -1.8882786
-4.9146628 -3.5853021 -1.8898982
-4.8282323 -3.7039497 -1.8904797
-4.7389841 -3.8205502 -1.8910813
-4.6469679 -3.9350557 -1.891703
-4.5522461 -4.0473752 -1.8923444
-4.454834 -4.1574521 -1.8930049
-4.2522311 -4.3706489 -1.8943826
-4.1471338 -4.4736381 -1.895099
-4.0395899 -4.5741453 -1.8958333
-3.9296336 -4.6721091 -1.8965849
-3.8173289 -4.7674823 -1.8973538
-3.7027392 -4.8601813 -1.8981394
-3.5859473 -4.9501724 -1.898941
-3.2228515 -5.2033463 -1.9014393
-3.0978124 -5.2819715 -1.9023015
-2.8420801 -5.4302735 -1.9040681
-2.5793602 -5.56634 -1.9058865
-2.4455028 -5.629674 -1.9068143
-2.1733007 -5.7467585 -1.9087039
-2.0350635 -5.800427 -1.9096648
-1.4697607 -5.9818254 -1.9136028
-1.325747 -6.0187006 -1.9146081
-1.1808106 -6.052124 -1.9156208
-1.031709 -6.0626197 -1.9105066
-0.88200682 -6.0641184 -1.9037162
-0.58533204 -6.066565 -1.8934066
-0.43799803 -6.0675187 -1.8898556
0.44193357 -6.0695667 -1.8905789
0.73750973 -6.0688543 -1.8992362
1.1875 -6.0664439 -1.9203835
1.4895166 -6.0459738 -1.9344195
1.7812696 -5.9734864 -1.9364897
1.925874 -5.9319305 -1.937517
2.3534472 -5.7862186 -1.94056
2.4936328 -5.7307091 -1.9415594
2.9058838 -5.5437918 -1.9445039
3.1729882 -5.4024987 -1.9464163
3.4331591 -5.2482028 -1.9482827
3.5604248 -5.1662855 -1.9491973
4.0489159 -4.8078852 -1.9527175
4.1655078 -4.7108526 -1.9535601
4.7116356 -4.1838608 -1.9575245
5.0073581 -3.8364468 -1.9596852
5.1901169 -3.5929303 -1.961027
5.2769918 -3.4678247 -1.9616672
5.5932374 -2.9467883 -1.9640117
5.7318797 -2.675 -1.9650494
5.7961669 -2.536586 -1.9655334
5.8570409 -2.3965938 -1.9659939
5.9144578 -2.2551181 -1.9664302
5.9683886 -2.1122398 -1.9668423
6.0656247 -1.8226299 -1.9675927
6.1088624 -1.6760581 -1.9679302
6.24542 -1.0802978 -1.969027
6.2703271 -0.92943114 -1.9692367
6.2914987 -0.77798462 -1.9694203
6.3089499 -0.62604612 -1.9695776
6.3325586 -0.32106566 -1.9698132
6.338706 -0.16822693 -1.9698913
6.3410888 -0.015280151 -1.9699427
6.3396921 0.13768554 -1.9699677
6.3345165 0.29056883 -1.9699661
6.296401 0.74780089 -1.9698018
6.2761912 0.89941406 -1.969694
6.2522507 1.0504742 -1.9695598
6.1194677 1.6472986 -1.9687608
6.0771241 1.794201 -1.9684962
6.0311913 1.9399829 -1.9682059
5.9816747 2.0845647 -1.9678903
5.928628 2.2278588 -1.9675496
5.8720751 2.3697765 -1.9671836
5.8120456 2.5102324 -1.9667932
5.7485886 2.649137 -1.966378
5.6817479 2.786413 -1.9659387
5.5380664 3.0557323 -1.9649885
5.3813815 3.317512 -1.9639452
5.2121091 3.5711248 -1.9628112
5.1228905 3.6946807 -1.9622113
5.0306687 3.8159759 -1.9615896
4.3101315 4.3822064 -1.9095232
3.9256787 4.3967376 -1.8311234
3.6451757 4.5020695 -1.799589
3.3058057 4.7476959 -1.797256
2.9498096 4.9675164 -1.7948
2.8277929 5.0348554 -1.7939564
2.7042284 5.0991716 -1.7931012
2.0658836 5.374207 -1.7886703
1.9346582 5.4197049 -1.7877569
1.5353124 5.5367756 -1.7849725
1.4005663 5.5692596 -1.7840314
0.85562986 5.666153 -1.7802173
0.71831053 5.6820683 -1.7792544
0.58072752 5.6946502 -1.7782887
0.1671582 5.7123771 -1.7753814
0.029291991 5.7116241 -1.7744108
-0.65638673 5.6581769 -1.7695719
-0.79225093 5.63763 -1.7686108
-1.0620898 5.5868158 -1.7666999
-1.1958984 5.5565896 -1.765751
-1.3288867 5.5231695 -1.7648073
-1.4609473 5.4865899 -1.7638694
-1.5920264 5.4468741 -1.7629378
-1.7220508 5.4040546 -1.7620126
-1.8509277 5.35815 -1.7610949
-1.9786279 5.309196 -1.7601849
-2.2301025 5.2022772 -1.7583904
-2.3537598 5.144383 -1.7575068
-2.5965674 5.0199137 -1.7557693
-2.7155762 4.9534101 -1.7549163
-2.8329198 4.8841128 -1.7540747
-2.9485157 4.812077 -1.7532444
-3.0623047 4.7373428 -1.7524266
-3.3922315 4.4974055 -1.7500496
-3.5049267 4.4208341 -1.7526525
-3.669585 4.4058805 -1.7813094
-3.8477685 4.3994975 -1.8157389
-4.3389306 4.2908306 -1.8957422
-4.725122 3.8470941 -1.8929228
-4.8148584 3.7306964 -1.8922647
-4.9017968 3.6122503 -1.8916256
-5.2205076 3.1192877 -1.8892699
-5.4279542 2.7313788 -1.8877215
-5.4908886 2.598999 -1.8872485
-5.5506492 2.4652076 -1.8867974
-5.7575145 1.9173357 -1.8852165
-5.8010497 1.7775799 -1.8848784
-5.8781495 1.4952459 -1.8842714
-5.9116549 1.3528308 -1.8840033
-5.941792 1.2096795 -1.8837585
-5.968545 1.0658765 -1.8835374
-6.0414014 0.48569092 -1.8828926
-6.0599656 0.047564697 -1.8826623
-6.0364499 -0.53653139 -1.882695
-6.0219727 -0.68201047 -1.8827637
-5.8983741 -1.4022064 -1.8834701
-5.8634911 -1.5442517 -1.8836833
-5.7837205 -1.8257288 -1.8841807
-5.738862 -1.965004 -1.8844649
-5.6393309 -2.2402582 -1.8851027
-5.5268555 -2.5106137 -1.8858331
-5.4016843 -2.7754538 -1.886654
-5.1906834 -3.1611221 -1.8880517
-5.1143064 -3.2862947 -1.8885608
-4.9526901 -3.5311618 -1.8896427
-4.8675489 -3.6507046 -1.8902149
-4.7795701 -3.7682364 -1.8908076
-4.4990964 -4.1080961 -1.8927046
-4.400249 -4.2169218 -1.8933756
-4.0883789 -4.5291448 -1.8954999
-3.8682518 -4.724803 -1.897005
-3.7546923 -4.8187132 -1.897783
-3.4007764 -5.0841045 -1.9002141
-2.9003661 -5.397891 -1.9036651
-2.6391649 -5.5367451 -1.9054724
-2.5060692 -5.6015077 -1.9063945
-2.2351661 -5.7214904 -1.9082742
-2.0975585 -5.7766333 -1.9092304
-1.9585986 -5.8284974 -1.9101967
-1.8183643 -5.8770514 -1.9111727
-0.50436521 -6.0671105 -1.8913258
-0.064135738 -6.0691538 -1.8855647
0.082285151 -6.0694866 -1.8857358
0.22882323 -6.0696454 -1.886952
0.37561035 -6.0696306 -1.8892139
0.67063963 -6.0690765 -1.8969102
0.81919432 -6.0685349 -1.9023657
1.2710302 -6.0658231 -1.9253491
1.5699267 -6.027492 -1.9349897
1.715791 -5.991076 -1.9360248
1.8607959 -5.9511008 -1.9370548
2.0048583 -5.9076099 -1.9380785
2.1479003 -5.8606067 -1.9390962
2.4305761 -5.7561655 -1.9411099
2.570039 -5.6987786 -1.9421046
2.8447754 -5.5738168 -1.944067
3.2451465 -5.3614159 -1.9469335
3.3751514 -5.2841101 -1.9478663
4.2285304 -4.6563444 -1.9540163
4.4518747 -4.4506707 -1.9556353
4.6650538 -4.234128 -1.957185
4.7676415 -4.1219382 -1.9579327
5.0587058 -3.7705023 -1.9600616
5.2381983 -3.5245111 -1.9613811
5.4844337 -3.1394145 -1.963202
5.6326218 -2.8728654 -1.9643059
5.701787 -2.7368789 -1.9648236
6.0449462 -1.8883368 -1.9674323
6.131084 -1.595144 -1.9681051
6.1687107 -1.4470062 -1.9684037
6.2026758 -1.2979639 -1.9686767
6.2329688 -1.1480987 -1.968924
6.3285446 -0.38992614 -1.9697692
6.3404832 -0.084243163 -1.9699228
6.3407907 0.068726197 -1.9699599
6.2634959 0.98242921 -1.9696236
6.2374997 1.1331561 -1.9694748
6.1373682 1.5807323 -1.9688717
6.0523534 1.8743877 -1.9683402
5.9529881 2.1634064 -1.9677062
5.8395362 2.4470959 -1.9669724
5.7776217 2.5867107 -1.9665682
5.7122946 2.7247283 -1.9661397
5.4963279 3.1283758 -1.9647113
5.3361473 3.3879857 -1.9636427
5.251338 3.514699 -1.9630746
5.1634765 3.639251 -1.9624844
4.8820896 3.9992156 -1.9605856
4.7825537 4.1144013 -1.959911
4.680254 4.227077 -1.9592166
4.575254 4.3371634 -1.9585024
4.0096483 4.3936319 -1.847886
3.8277686 4.4031143 -1.8125024
3.4721386 4.6320562 -1.7984005
3.1239307 4.8644986 -1.7960023
3.0043018 4.9361677 -1.7951765
2.5099463 5.1927457 -1.7917548
2.2543409 5.3025041 -1.7899805
2.124707 5.3526397 -1.7890794
1.7294238 5.4838138 -1.7863268
1.5958154 5.5210552 -1.7853947
1.3262793 5.5857 -1.7835121
1.1905273 5.6130791 -1.7825627
0.91743648 5.6578875 -1.7806505
0.78027344 5.6753058 -1.779689
0.22933593 5.7116313 -1.7758191
-0.18396483 5.703897 -1.7729079
-0.32132325 5.6946893 -1.7719389
-0.45835936 5.6821709 -1.7709713
-0.73106933 5.6473017 -1.7690438
-1.0014991 5.5994024 -1.7671292
-1.4015234 5.5034723 -1.7642915
-1.5330566 5.465169 -1.7633569
-1.921206 5.3316422 -1.7605942
-2.0481932 5.281033 -1.7596889
-2.1738818 5.2274237 -1.7587919
-3.0112157 4.7713737 -1.7527938
-3.1239891 4.6951737 -1.7519827
-3.2348633 4.6163435 -1.7511843
-3.4506738 4.4509978 -1.7496275
-3.7665918 4.4024286 -1.7999307
-3.9485106 4.3958039 -1.8356407
-4.1377149 4.3887224 -1.8738276
-4.5899901 4.0121894 -1.8939116
-4.6837354 3.898891 -1.893226
-4.9483204 3.5463665 -1.8912833
-5.0308056 3.4248619 -1.8906749
-5.1103659 3.301486 -1.8900869
-5.1869531 3.1762993 -1.8895193
-5.2605467 3.0493731 -1.8889723
-5.3310885 2.9207795 -1.8884465
