# .PCD v0.7 - Point Cloud Data file format
VERSION 0.7
FIELDS x y z
SIZE 4 4 4
TYPE F F F
COUNT 1 1 1
WIDTH 1499
HEIGHT 1
VIEWPOINT 0 0 0 1 0 0 0
POINTS 1499
DATA ascii
-0.033286132 -6.1906371 -1.7713907
0.11613769 -6.1933532 -1.7724535
0.26569822 -6.1924667 -1.7735183
0.41533691 -6.1879663 -1.7745843
0.5648486 -6.1798539 -1.7756505
0.7141943 -6.1681285 -1.7767161
1.0121386 -6.1338329 -1.7788446
1.4643017 -6.0908189 -1.7924592
1.6203271 -6.0894513 -1.8030396
1.7782665 -6.0878978 -1.8147607
1.9383105 -6.0861559 -1.8276528
2.4333692 -6.0797234 -1.8737932
2.6041698 -6.0771532 -1.8918213
3.1243701 -6.0420055 -1.9463034
3.4159131 -5.8906159 -1.948413
3.7000389 -5.7250085 -1.950473
3.839082 -5.6369791 -1.9514828
4.1107178 -5.4507236 -1.9534587
4.2431202 -5.352591 -1.9544234
4.5007372 -5.1466017 -1.956304
4.6257715 -5.0388598 -1.9572185
4.8678904 -4.8141904 -1.9589932
4.9848242 -4.6973944 -1.959852
5.4232664 -4.2020354 -1.9630855
5.7193847 -3.8030245 -1.9652842
6.0673094 -3.2384048 -1.9678893
6.1455221 -3.0919902 -1.9684793
6.2910595 -2.7934761 -1.9695834
6.3582907 -2.6415558 -1.9700963
6.5372705 -2.1762662 -1.9714764
6.5892382 -2.018312 -1.9718822
6.63729 -1.8590896 -1.9722607
6.8178854 -1.0474713 -1.973731
6.8418994 -0.88275146 -1.9739394
6.8618212 -0.71747804 -1.9741191
6.8893991 -0.38565123 -1.974391
6.8970213 -0.21931519 -1.9744831
6.9005222 -0.052841797 -1.974546
6.8999071 0.11368164 -1.9745796
6.8951755 0.28013733 -1.9745839
6.8098779 1.1077875 -1.9741653
6.7472458 1.4347589 -1.9737942
6.7098827 1.5969604 -1.9735652
6.6231933 1.9182757 -1.9730215
6.5739355 2.0771966 -1.972707
6.5207715 2.2348261 -1.9723647
6.4637351 2.3910582 -1.9719943
6.2697997 2.8504791 -1.9707186
5.873198 3.5795739 -1.9680619
5.78333 3.7191026 -1.9674542
5.5935106 3.9911559 -1.9661651
5.4936619 4.1235275 -1.9654846
5.2723389 4.3705258 -1.9595501
4.8025045 4.3887086 -1.8615299
4.3365574 4.5809741 -1.8049492
4.2229247 4.6822324 -1.8041635
3.8679149 4.9686279 -1.8017019
3.6202343 5.1445203 -1.7999791
3.3644969 5.3079162 -1.7981961
2.9671631 5.5288148 -1.7954184
2.6941211 5.6594825 -1.7935047
2.5553808 5.7197385 -1.7925309
2.2739551 5.829917 -1.790553
1.697661 6.0082664 -1.7864919
1.551294 6.0439854 -1.7854582
1.4041895 6.0761132 -1.7844185
1.1081201 6.1295762 -1.7823234
0.51100582 6.1930871 -1.7780877
0.36120605 6.1999035 -1.7770231
0.21138184 6.2030892 -1.7759575
0.061606444 6.2026587 -1.7748914
-0.23740722 6.1909666 -1.7727603
-0.38649413 6.1797252 -1.7716967
-0.53517574 6.1649022 -1.770635
-0.68335938 6.1465182 -1.7695761
-0.97792476 6.0991187 -1.7674687
-1.1241357 6.0701513 -1.7664214
-1.2695264 6.0376902 -1.7653792
-1.4140136 6.0017796 -1.7643427
-1.5575049 5.9624276 -1.7633123
-1.841206 5.8735423 -1.7612729
-1.981245 5.8240733 -1.7602648
-2.2573633 5.7152429 -1.7582747
-2.3932762 5.655952 -1.7572937
-2.6604247 5.5278258 -1.7553631
-2.7915137 5.4590712 -1.7544143
-2.9208641 5.3872485 -1.7534773
-3.1740332 5.2345667 -1.7516406
-3.2977245 5.1538181 -1.7507417
-3.4193945 5.0701818 -1.7498567
-3.5389745 4.9837193 -1.7489859
-3.6564014 4.8944836 -1.7481298
-3.8845603 4.7078891 -1.7464633
-4.2190089 4.4188914 -1.7481654
-4.4120603 4.4032874 -1.783601
-4.6222167 4.3955846 -1.8251368
-4.8423243 4.3873277 -1.8696938
-5.1033788 4.1938291 -1.8900747
-5.4757714 3.6770787 -1.8873065
-5.5610156 3.5426867 -1.8866689
-5.7218018 3.2681897 -1.885462
-5.797236 3.128231 -1.8848933
-5.8693309 2.9865782 -1.8843478
-6.003335 2.6984782 -1.8833282
-6.1783643 2.255578 -1.8819816
-6.3215575 1.801712 -1.8808589
-6.3620849 1.6483697 -1.8805355
-6.3988962 1.4941491 -1.8802383
-6.4877682 1.0269903 -1.8794993
-6.509985 0.87006038 -1.8793054
-6.528501 0.71266109 -1.8791376
-6.561738 0.23854369 -1.878793
-6.5538864 -0.39493713 -1.8787044
-6.5088816 -0.86804378 -1.8789171
-6.460371 -1.181217 -1.8791909
-6.4305906 -1.3368804 -1.8793674
-6.1756883 -2.2526276 -1.8809729
-6.1206002 -2.4014232 -1.8813311
-6.0002441 -2.6950567 -1.8821207
-5.934824 -2.8397057 -1.8825533
-5.8660154 -2.9828 -1.8830105
-5.718276 -3.2640409 -1.883998
-5.5573435 -3.5381415 -1.8850809
-5.4720216 -3.6723263 -1.8856577
-5.3835402 -3.804492 -1.8862573
-5.0994825 -4.1882148 -1.8881918
-4.9987497 -4.311614 -1.8888806
-4.8951025 -4.4326391 -1.8895907
-4.7885838 -4.551219 -1.8903217
-4.3348341 -4.9997869 -1.8934492
-4.2147703 -5.1051702 -1.8942797
-3.7100048 -5.4977522 -1.8977828
-3.5780029 -5.5883689 -1.8987018
-3.3075097 -5.7601991 -1.9005879
-3.1691797 -5.8412943 -1.9015541
-2.8866699 -5.9936056 -1.9035302
-2.2323096 -6.0717611 -1.8510484
-2.0684032 -6.0746489 -1.8361762
-1.9069678 -6.0773239 -1.8225416
-1.7477636 -6.0797949 -1.8101046
-1.5905859 -6.082068 -1.7988273
-1.4352245 -6.0841479 -1.788677
-1.2814746 -6.0860419 -1.7796211
-1.1291748 -6.0877542 -1.7716371
-0.97808594 -6.0892491 -1.764689
-0.23876464 -6.1810131 -1.7699304
0.50845701 -6.1833405 -1.7752482
0.80712402 -6.1589971 -1.7773795
0.95607418 -6.1414051 -1.7784437
1.5612744 -6.0899878 -1.7989181
1.8777099 -6.0868354 -1.8226516
2.0391893 -6.084971 -1.8362957
2.888623 -6.0724926 -1.9241292
3.0686328 -6.0689273 -1.9459006
3.6470702 -5.7572989 -1.9500887
3.7868993 -5.6705761 -1.9511038
3.9246287 -5.5804162 -1.9521046
4.0601759 -5.4868698 -1.9530908
4.1934814 -5.3899775 -1.9540615
4.324419 -5.2898102 -1.9550165
4.8230762 -4.8574696 -1.9586642
4.9410644 -4.7417746 -1.9595302
5.1684813 -4.5017114 -1.9612039
5.3840137 -4.2505808 -1.962795
5.4871287 -4.1210399 -1.9635586
5.6837792 -3.8543887 -1.965019
5.7771778 -3.7174313 -1.9657152
5.8672018 -3.578181 -1.9663876
5.9537792 -3.4367058 -1.9670361
6.2647557 -2.8503029 -1.969383
6.3333497 -2.6990228 -1.9699059
6.4593897 -2.3915331 -1.9708731
6.6196337 -1.9192644 -1.9721212
6.8077731 -1.1094171 -1.973645
6.8333201 -0.94492614 -1.9738644
6.8721776 -0.61428219 -1.9742162
6.8854637 -0.44830748 -1.9743487
6.8787155 0.54987669 -1.9745282
6.863203 0.71566039 -1.9744555
6.8435841 0.88101804 -1.9743536
6.8198829 1.0458136 -1.9742225
6.7920995 1.2099615 -1.9740622
6.6845899 1.6975024 -1.973408
6.6407518 1.8580481 -1.9731327
6.5412741 2.175545 -1.9724971
6.485693 2.3323267 -1.9721371
6.4262643 2.4876451 -1.9717495
6.3630271 2.6414189 -1.9713345
6.2253122 2.943958 -1.9704232
6.150918 3.0925305 -1.9699277
5.9912987 3.3838384 -1.968858
5.9061913 3.5263841 -1.9682847
5.6303024 3.9405956 -1.9664154
5.5316992 4.0739145 -1.965744
5.4298682 4.2047095 -1.9650491
5.3248825 4.3329124 -1.964331
4.8875437 4.3854795 -1.8789462
4.2660446 4.6443882 -1.8044618
4.0334177 4.8404636 -1.8028506
3.9136326 4.934104 -1.8020195
3.7916648 5.0247302 -1.8011718
3.6675682 5.1122985 -1.8003087
3.5414014 5.1967735 -1.7994299
3.0179393 5.5026817 -1.7957739
2.4682763 5.7555346 -1.7919192
2.3273828 5.810205 -1.7909287
2.1853027 5.8614001 -1.7899292
2.0420947 5.9090867 -1.7889208
1.8978369 5.9532557 -1.787904
1.6065772 6.030941 -1.7858486
1.4597363 6.0644212 -1.7848113
1.1641064 6.1206017 -1.7827199
0.86643553 6.1623387 -1.7806106
0.71707517 6.1777697 -1.779551
0.56745118 6.1895823 -1.7784888
0.41770506 6.1977587 -1.7774249
0.11805664 6.2032418 -1.7752932
-0.031625975 6.2005625 -1.7742273
-0.18111816 6.1942725 -1.7731619
-0.33033201 6.1843872 -1.7720975
-0.47915527 6.1709104 -1.7710351
-0.62754881 6.1538672 -1.7699749
-0.77538085 6.1332679 -1.7689182
-1.6463623 5.9361901 -1.7626739
-1.7880664 5.8913331 -1.7616551
-1.9286035 5.8431139 -1.7606437
-2.0678368 5.7915807 -1.7596411
-2.2057323 5.7367616 -1.7586471
-2.7422948 5.4853563 -1.7547706
-2.8722997 5.4146872 -1.7538294
-3.1268945 5.2642612 -1.7519828
-3.2513232 5.1846094 -1.7510791
-3.7284276 4.8375134 -1.747604
-3.8422461 4.7438817 -1.7467725
-4.0628757 4.548789 -1.7451577
-4.1695704 4.4474292 -1.7443752
-4.3352294 4.4060521 -1.7686706
-4.5418749 4.3985519 -1.8091382
-4.9639258 4.3634472 -1.8911059
-5.0657663 4.2407055 -1.8903532
-5.3531833 3.8588355 -1.8882204
-5.4427929 3.7272351 -1.8875526
-5.5292478 3.5935936 -1.8869067
-5.612505 3.457984 -1.8862833
-5.6924996 3.3205004 -1.8856826
-5.7691894 3.1812096 -1.8851049
-5.8425388 3.0401752 -1.8845507
-5.979116 2.7532611 -1.8835131
-6.0422702 2.6075151 -1.8830305
-6.1019335 2.4603746 -1.8825723
-6.1581054 2.3118927 -1.8821386
-6.3053317 1.8592864 -1.8809875
-6.3855176 1.5523987 -1.8803468
-6.4201465 1.397666 -1.8800651
-6.4511228 1.2421703 -1.8798093
-6.4784226 1.0860217 -1.8795793
-6.5219479 0.77205443 -1.879198
-6.5381641 0.61441648 -1.8790466
-6.5506396 0.45645264 -1.8789217
-6.5593991 0.29823914 -1.8788232
-6.565752 -0.018547973 -1.8787059
-6.5472898 -0.49342224 -1.8787291
-6.5336814 -0.65127259 -1.8787899
-6.516377 -0.80876583 -1.8788772
-6.4953513 -0.96583003 -1.878991
-6.4422412 -1.2782629 -1.8792977
-6.3744774 -1.5879266 -1.8797096
-6.0240235 -2.640126 -1.8819641
-5.9598923 -2.7853451 -1.8823874
-5.8214307 -3.0711191 -1.8833078
-5.7471433 -3.2115488 -1.8838046
-5.5886765 -3.4870367 -1.8848697
-5.5045605 -3.6219661 -1.8854376
-5.4172702 -3.7549024 -1.8860285
-5.2332811 -4.0145373 -1.887279
-4.9345212 -4.3872895 -1.8893205
-4.2603369 -5.0657663 -1.8939643
-4.1387157 -5.1693835 -1.8948063
-3.3591454 -5.7287741 -1.9002277
-3.2215576 -5.8110991 -1.901188
-3.0819871 -5.8901587 -1.9021635
-2.9405077 -5.9659123 -1.9031532
-2.6332715 -6.063992 -1.8916638
-2.2948096 -6.0706153 -1.8569878
-1.9675732 -6.0763402 -1.8275393
-1.807539 -6.078887 -1.8146544
-1.4936084 -6.0833855 -1.7923731
-1.3392724 -6.0853491 -1.7829095
-1.1864501 -6.0871296 -1.7745236
-0.73960447 -6.1287351 -1.7663773
-0.4436084 -6.1645999 -1.768476
-0.1458789 -6.1862102 -1.7705902
0.0034277344 -6.191637 -1.7716517
0.15291016 -6.1934705 -1.7727152
0.30250975 -6.1916938 -1.7737805
0.45208985 -6.1863098 -1.7748463
0.60158688 -6.1773095 -1.7759124
0.75089353 -6.164691 -1.7769781
0.89995605 -6.1484604 -1.7780427
1.1969726 -6.1051688 -1.7801666
1.3477343 -6.0917306 -1.7852132
1.5025048 -6.0904989 -1.7949573
1.6589941 -6.0890861 -1.8058158
1.9780078 -6.0856967 -1.8310078
2.3065965 -6.0815167 -1.8610996
2.4750633 -6.0791125 -1.8780975
2.8216796 -6.0736313 -1.916275
3.0004003 -6.0705357 -1.9375814
3.5938232 -5.7890978 -1.9497024
3.7344189 -5.7036819 -1.9507226
3.8729393 -5.6148157 -1.9517288
4.1434813 -5.4268994 -1.9536973
4.4047656 -5.2257719 -1.9556029
4.5317235 -5.1204004 -1.9565305
4.6561279 -5.0118899 -1.9574407
4.7778711 -4.9003148 -1.9583327
4.8968992 -4.7857456 -1.959206
5.0131493 -4.6682234 -1.9600602
5.3443165 -4.2987423 -1.9625016
5.5497656 -4.0390468 -1.9640231
6.1642137 -3.055685 -1.9686205
6.2379098 -2.9068897 -1.9691792
6.3079395 -2.7562799 -1.9697119
6.374248 -2.6039364 -1.9702187
6.4367819 -2.4499779 -1.9706988
6.4955273 -2.2944872 -1.9711523
6.6014156 -1.9792751 -1.9719779
6.6484962 -1.8197632 -1.9723494
6.6916504 -1.6590921 -1.9726931
6.7308054 -1.4973925 -1.9730086
6.8241696 -1.0070251 -1.973785
6.8661084 -0.67675722 -1.9741589
6.8991308 0.15462768 -1.9745834
6.8695264 0.65320557 -1.9744864
6.85146 0.81872678 -1.9743955
6.8293018 0.98373961 -1.9742754
6.8030515 1.1481574 -1.9741261
6.7000828 1.6367022 -1.9735045
6.5071139 2.2733753 -1.9722762
6.2524171 2.8874536 -1.9706033
5.9386911 3.472893 -1.9685038
5.7607179 3.7530491 -1.967301
5.5692477 4.0239329 -1.9659998
5.4686618 4.1556873 -1.965314
5.3648338 4.2848911 -1.9646045
5.2119479 4.3729062 -1.9467175
4.9741549 4.3821583 -1.8968343
4.4206052 4.5027552 -1.8055295
4.3088279 4.6061354 -1.8047575
4.1946044 4.7066941 -1.8039674
3.5892088 5.1652894 -1.799763
3.3325145 5.3271289 -1.7979728
3.0685058 5.4760704 -1.7961276
2.9339209 5.545609 -1.7951857
2.6601317 5.674613 -1.7932663
2.5210595 5.7340317 -1.79229
2.3806591 5.7899985 -1.7913034
2.2390184 5.8425012 -1.7903073
1.6617383 6.0173864 -1.7862382
1.5151904 6.0522203 -1.7852031
1.367915 6.0834656 -1.7841619
0.92267579 6.1555762 -1.7810093
0.62389648 6.1855516 -1.7788895
0.47418943 6.1950974 -1.7778262
0.32436523 6.2010202 -1.7767612
0.1745459 6.20332 -1.7756953
-0.12478027 6.1970677 -1.7735635
-0.4230957 6.1764121 -1.7714354
-1.0139405 6.092319 -1.7672108
-1.5926172 5.9522314 -1.76306
-1.8757519 5.8616867 -1.7610241
-2.0154932 5.8113999 -1.7600181
-2.1539209 5.7578125 -1.7590207
-2.2909131 5.7009606 -1.7580324
-2.4264598 5.6408834 -1.7570541
-2.5604444 5.5776172 -1.7560861
-2.6928124 5.5112047 -1.7551287
-3.0794725 5.2935362 -1.752327
-3.2046289 5.2149839 -1.7514182
-3.327832 5.1335154 -1.7505227
-3.6849315 4.8721166 -1.7479215
-3.7995994 4.7794943 -1.7470843
-3.9119823 4.684216 -1.7462627
-4.2623439 4.4115601 -1.7552414
-4.4628711 4.4014392 -1.7935487
-4.6753855 4.393611 -1.8358037
-4.8980856 4.3852048 -1.8811436
-5.2246628 4.0366001 -1.8891757
-5.3185692 3.9079199 -1.888478
-5.4093699 3.7771044 -1.8878018
-5.4970312 3.6442113 -1.8871477
-5.5814891 3.5093431 -1.8865157
-5.8152781 3.0935509 -1.8847569
-6.0798388 2.5160198 -1.8827423
-6.1373386 2.3680248 -1.8822992
-6.1913133 2.2187586 -1.8818811
-6.2417383 2.0682945 -1.8814878
-6.3318601 1.7640954 -1.8807769
-6.4398828 1.3008856 -1.8799026
-6.5463719 0.51604366 -1.8789657
-6.562983 0.19959472 -1.8787752
-6.5599265 -0.27561766 -1.8786886
-6.539248 -0.59178281 -1.8787638
-6.523335 -0.74943602 -1.8788412
-6.5037208 -0.90666378 -1.878945
-6.4803953 -1.063396 -1.8790753
-6.4533787 -1.2195587 -1.8792318
-6.3503904 -1.6837035 -1.8798591
-6.2635984 -1.9886788 -1.8804073
-6.2148242 -2.1395965 -1.8807201
-6.1066942 -2.4378362 -1.8814218
-6.0472898 -2.585005 -1.881811
-5.9844823 -2.7307646 -1.8822248
-5.8485641 -3.0177472 -1.8831267
-5.775537 -3.1587985 -1.8836144
-5.6991892 -3.2981288 -1.8841261
-5.6195507 -3.4356694 -1.8846617
-5.5366549 -3.5713148 -1.8852206
-5.4505615 -3.7050109 -1.8858029
-5.361289 -3.8366842 -1.8864083
-4.9735446 -4.3415937 -1.8890531
-4.8691797 -4.462028 -1.8897684
-4.7619529 -4.5799952 -1.8905048
-4.6519189 -4.6954417 -1.8912616
-4.5391259 -4.8082995 -1.8920388
-4.4236522 -4.9184866 -1.8928355
-4.1848631 -5.130652 -1.8944868
-3.9360547 -5.3314147 -1.896212
-3.4104834 -5.6969037 -1.8998694
-2.3577001 -6.0694375 -1.8631138
-1.867622 -6.077951 -1.8193727
-1.0919092 -6.0881476 -1.7698355
-0.49957031 -6.1589236 -1.768079
-0.35103026 -6.1728649 -1.7691331
-0.20208985 -6.1832304 -1.7701908
-0.052924804 -6.1900153 -1.7712511
0.39566892 -6.1887655 -1.7744442
0.54523927 -6.1811247 -1.7755105
0.99265134 -6.1365223 -1.7787052
1.4439648 -6.0909848 -1.7911534
1.5997461 -6.0896401 -1.8015875
1.9171972 -6.0863953 -1.8258941
2.2438331 -6.0823674 -1.8550353
2.411201 -6.0800438 -1.8715314
2.5815918 -6.0775027 -1.8893782
2.7552733 -6.0747356 -1.908635
2.9325633 -6.0717316 -1.9293683
3.2518702 -5.9780102 -1.9472256
3.5402977 -5.8204007 -1.9493144
3.6816406 -5.7363009 -1.9503397
3.8209667 -5.6487184 -1.9513513
4.2258935 -5.3656492 -1.9542979
4.3562498 -5.2646818 -1.9552487
4.4841599 -5.1604948 -1.9561828
4.9696436 -4.7128758 -1.9597404
5.1956396 -4.4714231 -1.961404
5.3041749 -4.3465347 -1.9622051
5.4096532 -4.2189679 -1.9629849
5.611167 -3.9560835 -1.964479
5.7070456 -3.8209329 -1.9651922
6.0567918 -3.2574539 -1.96781
6.1354685 -3.1113067 -1.9684035
6.2819676 -2.8132672 -1.9695141
6.3496823 -2.6615746 -1.9700308
6.5826511 -2.0391109 -1.9718307
6.6758399 -1.7198029 -1.9725668
6.7165036 -1.558485 -1.972893
6.7858348 -1.2329913 -1.9734607
6.8881006 -0.40744993 -1.9743768
6.9002976 -0.074672848 -1.9745394
6.9002247 0.091844477 -1.9745768
6.8877149 0.42462888 -1.9745636
6.875288 0.5906775 -1.9745132
6.8587594 0.75636351 -1.9744333
6.8381248 0.9215942 -1.974324
6.7150097 1.5757409 -1.9735968
6.6741748 1.737077 -1.973343
6.5806198 2.0564258 -1.9727499
6.4110641 2.5256047 -1.97165
6.346909 2.6789832 -1.9712282
6.2789841 2.8307109 -1.9707795
6.2073536 2.9806652 -1.9703039
6.1320701 3.128772 -1.9698018
5.8847265 3.5611048 -1.9681398
5.7953124 3.7009337 -1.9675354
5.7025046 3.8384521 -1.9669061
5.2985983 4.364049 -1.9641509
5.0624118 4.3787522 -1.9152194
4.8319235 4.3875937 -1.867537
4.4620557 4.4630551 -1.8058156
4.351284 4.5674815 -1.805051
4.2379589 4.6691175 -1.8042674
4.122241 4.7678976 -1.8034663
3.8838427 4.9566674 -1.8018125
3.2510498 5.3749146 -1.7974038
3.1187987 5.4489942 -1.7964795
2.8493016 5.5872326 -1.7945929
2.7121973 5.6513329 -1.7936316
2.5736475 5.7120275 -1.7926593
2.2925537 5.8231177 -1.7906839
2.1501856 5.8734498 -1.7896819
1.8622167 5.9635715 -1.7876529
1.716792 6.0033212 -1.7866268
1.570542 6.0395007 -1.7855941
1.2758496 6.1011143 -1.7835107
0.9788574 6.1483045 -1.7814076
0.68029785 6.1810141 -1.77929
0.53063965 6.1919298 -1.7782273
0.23102538 6.202877 -1.7760972
0.081245117 6.20292 -1.7750311
-0.068408199 6.1993527 -1.7739651
-0.21784668 6.1921716 -1.7728999
-0.36696288 6.1814036 -1.7718362
-0.5156787 6.167048 -1.7707742
-0.66395992 6.1491308 -1.769715
-0.95868653 6.1026573 -1.7676065
-1.1050098 6.0741477 -1.7665585
-1.3951074 6.0066867 -1.7644782
-1.6813036 5.9254746 -1.7624228
-1.8227344 5.879786 -1.7614056
-2.3755274 5.6639123 -1.7574219
-2.5101123 5.6018457 -1.7564498
-2.6431005 5.5366163 -1.7554884
-2.7744238 5.4682627 -1.7545381
-2.9039941 5.396842 -1.7535995
-3.6411133 4.9063425 -1.7482412
-3.7566357 4.8147326 -1.747398
-3.8698778 4.720449 -1.7465706
-4.3851852 4.4042563 -1.7783624
-5.0903463 4.2101684 -1.8901712
-5.1884522 4.0845542 -1.8894444
-5.3755026 3.8266685 -1.8880541
-5.5500293 3.5604308 -1.8867514
-5.7116599 3.286411 -1.8855385
-5.9949656 2.7175622 -1.8833923
-6.0572653 2.5714617 -1.8829156
-6.1160693 2.4239831 -1.8824633
-6.1713719 2.2751873 -1.8820357
-6.3159666 1.8217602 -1.8809032
-6.356987 1.6685345 -1.8805765
-6.3943653 1.5144231 -1.8802752
-6.4281054 1.3594995 -1.8799996
-6.4581833 1.2038336 -1.8797501
-6.5415769 0.57560182 -1.8790133
-6.5621581 -0.2159137 -1.8786864
-6.5442867 -0.5322656 -1.8787416
-6.5115428 -0.84742612 -1.8789027
-6.489624 -1.0043683 -1.8790231
-6.3651366 -1.6257718 -1.8797674
-6.1826315 -2.2330091 -1.880928
-6.0700827 -2.5296724 -1.8816613
-5.8752246 -2.9641228 -1.8829492
-5.8034716 -3.1058059 -1.8834277
-5.728364 -3.2458107 -1.8839303
-5.5682907 -3.5204022 -1.8850071
-5.4833937 -3.6548414 -1.8855807
-5.3041062 -3.91765 -1.886797
-5.2098193 -4.0458632 -1.8874389
-5.1124659 -4.171855 -1.888103
-5.0121336 -4.295567 -1.8887891
-4.9088621 -4.4169016 -1.8894962
-4.8027244 -4.5358014 -1.8902246
-4.6937304 -4.6522183 -1.8909739
-4.5819821 -4.7660527 -1.8917434
-4.230669 -5.0915079 -1.8941697
-3.8565917 -5.3915482 -1.8967639
-3.1874268 -5.830843 -1.9014266
-3.0473778 -5.9090943 -1.9024055
-2.5909717 -6.0648575 -1.8871042
-2.421001 -6.0682273 -1.8694276
-1.4555078 -6.0838852 -1.7899449
-1.3015527 -6.0858035 -1.7807469
-0.99785155 -6.089098 -1.7655509
-0.85062498 -6.1115403 -1.7655911
-0.70335448 -6.1339087 -1.7666342
-0.40712401 -6.1680241 -1.7687351
0.3392871 -6.1907072 -1.7740425
0.63831544 -6.1745429 -1.7761744
1.0851758 -6.1231871 -1.7793669
1.2333593 -6.0988469 -1.7804271
1.5408007 -6.090169 -1.7975229
1.8566992 -6.0870652 -1.8209515
2.3477685 -6.0809445 -1.8651572
2.6893799 -6.0758061 -1.9012057
3.1966944 -6.0061197 -1.9468265
3.3425145 -5.9304414 -1.9478816
4.0425196 -5.4993315 -1.9529623
4.1761279 -5.4028659 -1.9539351
4.3073878 -5.3031287 -1.9548923
4.4362254 -5.2001524 -1.9558326
4.5625634 -5.0940075 -1.9567561
4.6863036 -4.9847479 -1.9576617
4.8073926 -4.8724298 -1.9585491
5.1539159 -4.5178094 -1.9610964
5.2636032 -4.39395 -1.9619054
5.370244 -4.2673831 -1.9626933
5.4737744 -4.138185 -1.9634596
5.5741553 -4.0064054 -1.9642041
5.671289 -3.872169 -1.9649261
5.855576 -3.5965805 -1.9663006
5.9426169 -3.4553947 -1.9669523
6.026196 -3.3120327 -1.96758
6.3245945 -2.7189798 -1.969839
6.4516015 -2.4118688 -1.9708129
6.5093799 -2.2560132 -1.9712597
6.7398291 -1.4574689 -1.9730821
6.7739892 -1.2946087 -1.9733623
6.804121 -1.1309326 -1.9736141
6.900732 0.029052734 -1.9745661
6.8980908 0.19554625 -1.9745852
6.8913326 0.36192504 -1.9745752
6.8463817 0.85935301 -1.9743686
6.5994678 1.9965832 -1.9728705
6.5482812 2.1548755 -1.9725422
6.4931931 2.3118529 -1.972186
6.4342723 2.467365 -1.971802
6.3715329 2.6213458 -1.9713905
6.3050294 2.7736993 -1.9709519
5.7378955 3.7868688 -1.9671462
5.6430078 3.9229224 -1.9665017
5.5448046 4.0565772 -1.9658334
5.4434032 4.1877074 -1.9651414
5.3388376 4.316256 -1.9644265
4.6939063 4.3927941 -1.8395095
4.3933592 4.5284338 -1.8053415
4.2809715 4.6311264 -1.804565
4.1661525 4.7309861 -1.8037704
3.9294727 4.921998 -1.8021293
3.8077831 5.01302 -1.801284
3.68396 5.1009936 -1.8004228
3.4302099 5.2675977 -1.7986546
3.1688573 5.4214525 -1.7968295
3.0355468 5.4934812 -1.795897
2.9005907 5.5621972 -1.794952
2.7640624 5.6275597 -1.7939954
1.6257812 6.026278 -1.7859843
1.1835498 6.1173606 -1.7828574
0.88601071 6.1600437 -1.7807494
0.43733886 6.1968932 -1.7775644
-0.01199707 6.201117 -1.7743672
-0.16150878 6.1953001 -1.7733016
-0.45967773 6.1728821 -1.7711743
-0.60810548 6.1563034 -1.7701139
-1.0499414 6.0853052 -1.766953
-1.769541 5.8974085 -1.7617882
-1.9102441 5.8496275 -1.7607759
-2.3243847 5.6864843 -1.757791
-2.5931346 5.5615807 -1.7558497
-2.8553565 5.4241247 -1.753952
-2.9838183 5.3508081 -1.7530209
-3.2350976 5.1952243 -1.7511969
-3.3578076 5.1130466 -1.7503048
-3.4784667 5.0280051 -1.7494265
-3.596992 4.9401746 -1.7485629
-3.7133398 4.8495922 -1.7477142
-4.3087888 4.4069982 -1.7635683
-4.5142236 4.3995643 -1.8036668
-5.0525684 4.2569542 -1.8904508
-5.3411818 3.8759496 -1.8883096
-5.4312205 3.7446165 -1.8876389
-5.6821876 3.3386285 -1.8857602
-5.7593112 3.1995709 -1.8851794
-5.8331199 3.058773 -1.884622
-5.9035401 2.9163122 -1.8840884
-6.1509323 2.3314331 -1.8821942
-6.2040381 2.1818695 -1.8817821
-6.2995701 1.8792828 -1.8810332
-6.4750586 1.1065418 -1.8796078
-6.4991503 0.94988704 -1.8794006
-6.5195556 0.79269409 -1.8792197
-6.5362449 0.63510495 -1.8790649
-6.5492139 0.47718138 -1.8789365
-6.5639892 0.16066284 -1.8787593
-6.5638475 -0.15620728 -1.878688
-6.5581837 -0.31453553 -1.8786923
-6.5487986 -0.47268859 -1.8787229
-6.4983201 -0.94526672 -1.8789746
-6.4145994 -1.4131683 -1.8794638
-6.3793797 -1.5677117 -1.8796792
-6.340498 -1.7213968 -1.879921
-6.2980027 -1.8741729 -1.8801886
-6.20228 -2.1765268 -1.8808011
-6.0923829 -2.4741409 -1.8815155
-5.9684911 -2.7663925 -1.8823305
-5.901401 -2.910284 -1.8827752
-5.8309178 -3.0525875 -1.8832444
-5.7570848 -3.1932259 -1.8837379
-5.6799169 -3.3321187 -1.8842555
-5.4289012 -3.7375863 -1.8859496
-5.338872 -3.8687396 -1.8865607
-5.2457228 -3.9977717 -1.8871942
-5.1495314 -4.1246066 -1.88785
-4.9481397 -4.3714404 -1.8892272
-3.6453319 -5.5427084 -1.8982329
-2.9591699 -5.9561596 -1.9030225
-2.8160644 -6.0290112 -1.9040246
-2.6558936 -6.0635252 -1.8941287
-2.1513817 -6.0732079 -1.843577
-1.9887255 -6.0759912 -1.8293191
-1.6702245 -6.0809369 -1.804415
-1.206416 -6.086906 -1.7755637
-1.054746 -6.0885305 -1.7680969
-0.46310547 -6.1626806 -1.7683377
-0.31447265 -6.1757421 -1.7693926
-0.16545898 -6.1852298 -1.7704512
0.13330565 -6.1934338 -1.7725756
0.28287598 -6.1921334 -1.7736408
0.43243164 -6.1872215 -1.7747062
0.58197266 -6.1786938 -1.7757726
0.88043457 -6.1507926 -1.7779032
1.0292041 -6.1314259 -1.7789667
1.1775439 -6.1084495 -1.7800276
1.4820849 -6.0906711 -1.7936147
1.6383593 -6.089282 -1.8043265
1.7965331 -6.087708 -1.8161798
2.4527881 -6.0794396 -1.8757908
2.976748 -6.0709553 -1.9347004
3.1412842 -6.0337138 -1.9464258
3.5752537 -5.8000379 -1.9495678
3.7160985 -5.7150826 -1.9505895
4.1260104 -5.4396348 -1.95357
4.387949 -5.2393541 -1.95548
4.6399608 -5.0262995 -1.9573224
4.8814454 -4.8009453 -1.9590925
5.1118064 -4.5637851 -1.9607862
5.2226071 -4.4409666 -1.9616029
5.3303952 -4.3154106 -1.9623986
5.6350489 -3.9230602 -1.9646566
5.7301364 -3.7873213 -1.9653642
5.9102149 -3.508878 -1.9667095
5.9950929 -3.3663418 -1.9673462
6.0764647 -3.221714 -1.9679582
6.228457 -2.9265041 -1.9691073
6.2989645 -2.7761278 -1.9696435
6.4880419 -2.3149724 -1.9710944
6.5434518 -2.1582003 -1.9715246
6.5949512 -2.0001001 -1.9719272
6.6862106 -1.6802337 -1.9726495
6.7258935 -1.5186651 -1.9729691
6.7615867 -1.356137 -1.97326
6.7932372 -1.1927277 -1.9735225
6.8208399 -1.0285962 -1.9737563
6.8443942 -0.86381221 -1.9739617
6.8638573 -0.69848204 -1.9741378
6.8904781 -0.36659241 -1.974403
6.8976364 -0.20021057 -1.9744918
6.89957 0.13278382 -1.9745816
6.8540573 0.79705077 -1.9744091
6.8324366 0.96213621 -1.9742928
6.7769723 1.2904186 -1.9739729
6.7431641 1.4534069 -1.9737693
6.2617188 2.867749 -1.9706651
6.1891847 3.017257 -1.9701828
5.6791697 3.8719091 -1.9667475
5.378623 4.2680979 -1.9646988
4.5652928 4.4030175 -1.8148446
4.2097216 4.6936755 -1.804072
3.8539355 4.9790463 -1.8016049
3.7308886 5.0681906 -1.8007493
3.4786475 5.2371593 -1.7989924
3.2186863 5.3934326 -1.7971777
3.0860302 5.4666977 -1.7962502
2.9516649 5.5366821 -1.7953099
2.115 5.885294 -1.7894342
1.8265381 5.9736791 -1.7874012
1.6809082 6.0125499 -1.7863736
1.5344579 6.0478501 -1.7853391
1.3872753 6.0795689 -1.784299
1.2394384 6.1076975 -1.7832532
0.64352047 6.1840296 -1.7790289
0.49382812 6.1940527 -1.7779657
0.34400877 6.2004528 -1.7769009
0.044438474 6.2023792 -1.7747689
-0.10516601 6.197916 -1.7737031
-0.40358886 6.1782031 -1.7715746
-0.84787107 6.1218405 -1.7683996
-1.1408545 6.0666037 -1.7663015
-1.2861573 6.0337439 -1.7652599
-1.857329 5.8680396 -1.7611567
-1.9972314 5.8181872 -1.7601496
-2.1358447 5.7650232 -1.759151
-2.4087646 5.6489439 -1.7571818
-2.542959 5.5860963 -1.7562125
-2.9355958 5.3788071 -1.7533705
-3.1883349 5.2254505 -1.7515367
-3.5525486 4.9736266 -1.7488869
-3.7846923 4.7917957 -1.7471931
-4.0077052 4.5993285 -1.745562
-4.6469626 4.3946652 -1.8300946
-5.1147509 4.179503 -1.8899907
-5.3064303 3.924917 -1.8885683
-5.7306247 3.2522063 -1.8853956
-5.945703 2.8267596 -1.8837678
-6.0106006 2.6817729 -1.8832728
-6.1299949 2.3875017 -1.8823559
-6.1844335 2.238399 -1.8819345
-6.3263865 1.7841735 -1.8808206
-6.4029784 1.4763855 -1.8802052
-6.4358497 1.3212756 -1.8799359
-6.4650097 1.1654559 -1.8796928
-6.4904981 1.0090137 -1.8794757
-6.51229 0.8520276 -1.879285
-6.5303903 0.69459164 -1.8791201
-6.5447655 0.53675413 -1.8789819
-6.5554199 0.37866455 -1.8788699
-6.5650244 -0.096459962 -1.8786933
-6.5607567 -0.25486022 -1.8786875
-6.552783 -0.4130902 -1.8787082
-6.5256395 -0.72877502 -1.8788295
-6.4836717 -1.0428643 -1.8790567
-6.4571433 -1.1991253 -1.8792099
-6.4269385 -1.3547027 -1.8793893
-6.3555808 -1.6635602 -1.8798268
-6.2697263 -1.9687958 -1.8803684
-6.221406 -2.1198728 -1.8806777
-6.1695557 -2.2697692 -1.8810127
-6.0552735 -2.5657747 -1.8817586
-5.7853074 -3.1404021 -1.8835491
-5.7093945 -3.2799642 -1.8840575
-5.6301756 -3.4177337 -1.8845901
-5.5477099 -3.553632 -1.885146
-5.3731689 -3.8195388 -1.8863277
-5.2812109 -3.9493797 -1.8869526
-5.0880761 -4.2024903 -1.8882697
-4.9870214 -4.3256106 -1.8889608
-4.8830175 -4.4463768 -1.8896736
-4.7761621 -4.564672 -1.8904071
3.8269188 4.4016147 -1.8119736
3.6957421 4.4638767 -1.8003613
3.4731054 4.6329918 -1.7988153
3.3588231 4.7133627 -1.7980201
3.0049706 4.9371738 -1.7955526
2.8836131 5.0058775 -1.7947044
2.383081 5.2502027 -1.7911974
1.4612061 5.5558996 -1.7847058
1.1901904 5.6138949 -1.7827901
0.91697752 5.6586289 -1.7808555
0.77975094 5.6760044 -1.7798828
0.64221191 5.6900449 -1.7789069
0.50445312 5.700748 -1.7779288
0.3665576 5.7081151 -1.7769492
0.22859375 5.712141 -1.775968
0.090654291 5.7128344 -1.7749864
-0.18485351 5.7042418 -1.7730235
-0.32227051 5.6949682 -1.7720435
-0.45932615 5.682395 -1.7710649
-0.73211426 5.6473947 -1.7691152
-1.2702099 5.5384521 -1.7652606
-1.5342773 5.4648509 -1.7633642
-1.7942187 5.378757 -1.7614944
-2.0494823 5.2804136 -1.7596551
-2.1751757 5.2267346 -1.7587483
-2.2994776 5.170083 -1.7578506
-2.4223289 5.1105137 -1.7569625
-2.663413 4.9827466 -1.7552176
-2.7815087 4.9146347 -1.7543614
-3.0124903 4.7701526 -1.7526845
-3.5921483 4.4065075 -1.7661612
-3.949409 4.3936853 -1.835339
-4.138711 4.3866 -1.87356
-4.2938766 4.3364902 -1.8958691
-4.4945798 4.1210742 -1.8943914
-4.5909815 4.0099192 -1.89368
-4.8637891 3.6634338 -1.8916591
-4.949111 3.5438206 -1.8910247
-5.0315475 3.4222643 -1.8904101
-5.1875877 3.1735785 -1.8892428
-5.2611132 3.046591 -1.8886906
-5.3315916 2.9179425 -1.8881596
-5.4632711 2.6559229 -1.8871626
-5.5823536 2.3881133 -1.886254
-5.6370797 2.2522228 -1.8858334
-5.7368307 1.9768366 -1.8850607
-5.7817822 1.8375 -1.8847091
-5.8966651 1.4138018 -1.8837947
-5.9812646 0.9832263 -1.8830944
-6.0206246 0.69339538 -1.882748
-6.035161 0.54788452 -1.8826115
-6.0462742 0.40207946 -1.8824992
-6.0539207 0.25606018 -1.8824115
-6.0562205 -0.18248047 -1.8822951
-6.0500927 -0.3285614 -1.8823055
-6.0274901 -0.62008667 -1.8823999
-6.011045 -0.76537597 -1.8824838
-5.9678855 -1.0546155 -1.8827251
-5.9412012 -1.1984046 -1.8828824
-5.877666 -1.4839392 -1.8832693
-5.8408594 -1.6255239 -1.8834991
-5.7105126 -2.044641 -1.8843313
-5.6604929 -2.1822069 -1.8846561
-5.6072264 -2.3185775 -1.8850039
-5.3622899 -2.8506355 -1.8866261
-5.2932372 -2.9799225 -1.8870879
-5.0679049 -3.3576765 -1.8886057
-4.986865 -3.4799914 -1.8891548
-4.9029298 -3.6003888 -1.8897247
-4.8161278 -3.7188005 -1.8903155
-4.7265186 -3.8351691 -1.8909267
-4.5390673 -4.0614829 -1.8922094
-4.4413376 -4.1712995 -1.8928798
-4.3409619 -4.2788105 -1.8935699
-4.0247459 -4.5868607 -1.8957504
-3.8018553 -4.7795744 -1.8972929
-3.6869726 -4.8719592 -1.8980895
-3.5698779 -4.9616251 -1.8989025
-3.4506297 -5.0485206 -1.8997314
-3.3292918 -5.1325951 -1.900576
-3.2059228 -5.2137818 -1.9014355
-3.0806005 -5.2920556 -1.9023097
-2.8243554 -5.4396262 -1.9040999
-2.693584 -5.5088372 -1.9050149
-2.5611229 -5.5749421 -1.9059427
-2.2914598 -5.6976562 -1.9078342
-2.0159619 -5.807456 -1.9097699
-1.7352393 -5.9040527 -1.911746
-1.4499072 -5.9871879 -1.9137579
-1.3057128 -6.0236297 -1.914776
-1.0111572 -6.0649962 -1.9101739
-0.56485838 -6.0688901 -1.893526
-0.41749999 -6.0698276 -1.8901232
-0.27058592 -6.0705876 -1.8877769
0.022573242 -6.0715842 -1.8862258
0.16914551 -6.0718212 -1.8870193
0.61065918 -6.0714879 -1.8957002
0.7589941 -6.0710258 -1.9007223
0.90816402 -6.070385 -1.9068288
1.0583545 -6.0695639 -1.9140362
1.6570703 -6.0070543 -1.9358677
1.8025 -5.9685407 -1.9369116
1.9470264 -5.9264865 -1.9379498
3.1930614 -5.3926306 -1.9469404
3.3238623 -5.3166037 -1.9478887
3.5798974 -5.1549735 -1.9497479
3.7049706 -5.0694613 -1.9506576
3.9488037 -4.8892694 -1.9524342
4.0674462 -4.7946868 -1.9533002
4.1837645 -4.6971912 -1.9541503
4.2977052 -4.5968404 -1.9549842
4.5182128 -4.3877759 -1.9566014
4.8293943 -4.0542207 -1.9588923
4.9276414 -3.937973 -1.9596182
5.0230417 -3.8193038 -1.9603242
5.1155124 -3.6982863 -1.96101
5.2050242 -3.5749931 -1.961675
5.2914939 -3.4494958 -1.9623193
5.4551563 -3.1921813 -1.9635427
5.6765819 -2.7916164 -1.9652101
5.7437692 -2.6545253 -1.9657196
5.8075876 -2.515779 -1.9662054
5.9248972 -2.2337003 -1.9671048
6.0282178 -1.9460559 -1.9679056
6.0745311 -1.8003671 -1.9682685
6.1172557 -1.6535547 -1.9686061
6.1563478 -1.5057111 -1.9689181
6.2235498 -1.2072858 -1.9694644
6.2759519 -0.90583861 -1.9699061
6.3134327 -0.60211545 -1.9702421
6.3265281 -0.44963011 -1.9703702
6.3414159 -0.14390625 -1.9705458
6.3431931 0.0091455076 -1.9705932
6.3411961 0.16219726 -1.970614
6.3354197 0.31515685 -1.9706078
6.3258643 0.46792114 -1.9705745
6.3125291 0.62039977 -1.9705143
6.2954392 0.77250302 -1.9704275
6.2217627 1.225567 -1.9700062
6.1147604 1.6718152 -1.9693464
6.0718064 1.8186175 -1.969074
6.025239 1.9642962 -1.9687759
5.975112 2.1087561 -1.9684521
5.8036132 2.533963 -1.9673284
5.7395506 2.6726842 -1.9669039
5.6013036 2.9450896 -1.965982
5.4498777 3.2102246 -1.9649647
5.3693504 3.3398645 -1.964421
5.1989012 3.5928943 -1.9632657
5.0163426 3.8370886 -1.9620219
4.8221192 4.0718722 -1.960693
4.4774365 4.3733444 -1.9444019
4.2742333 4.3813014 -1.9015193
3.8925292 4.3956738 -1.8240336
3.7367969 4.4307704 -1.8006461
3.6272607 4.5177355 -1.7998861
3.5156884 4.6019592 -1.7991112
3.4021387 4.683392 -1.7983216
3.2866697 4.7619872 -1.7975177
2.9295604 4.9803257 -1.7950257
2.8071971 5.047153 -1.79417
2.6833055 5.1109486 -1.7933028
2.5579491 5.1716676 -1.7924243
2.431206 5.2292905 -1.7915353
2.0434911 5.3832407 -1.7888108
1.9120214 5.4281735 -1.7878854
1.7795508 5.4698715 -1.786952
1.5120019 5.5434923 -1.7850643
0.96862793 5.6512146 -1.7812214
0.83153319 5.6698461 -1.78025
0.6941064 5.6851439 -1.7792752
0.41855466 5.7057309 -1.7773187
0.14264648 5.7129636 -1.7753564
-0.1329834 5.7068763 -1.7733932
-0.27048826 5.6988502 -1.7724127
-0.54451174 5.6728978 -1.7704566
-0.81666017 5.6338258 -1.7685103
-0.95184082 5.6094089 -1.7675427
-1.0863086 5.5817637 -1.7665793
-1.2200146 5.5509129 -1.7656207
-1.7455615 5.3959327 -1.7618448
-2.4981005 5.0719409 -1.7564144
-2.6184618 5.0077062 -1.7555432
-2.7371826 4.9406409 -1.7546829
-2.8542089 4.8708019 -1.7538339
-2.9694922 4.7982225 -1.7529969
-3.3092334 4.5715113 -1.7532425
-3.4118407 4.4814563 -1.7497762
-3.5323143 4.4145837 -1.7564435
-4.0664353 4.3893285 -1.8588451
-4.2548876 4.3760409 -1.8961555
-4.3575096 4.2703977 -1.8954011
-4.9172802 3.589154 -1.8912616
-5.0814161 3.3455853 -1.8900378
-5.1590672 3.2210138 -1.8894566
-5.2337403 3.0946734 -1.8888965
-5.5608692 2.4390209 -1.8864185
-5.719028 2.0291045 -1.8851992
-5.7652149 1.8901575 -1.8848388
-5.8080955 1.7501904 -1.8845018
-5.9949899 0.89315426 -1.8829762
-6.0424805 0.45708251 -1.8825387
-6.0590134 0.018826904 -1.8823211
-6.0528026 -0.27349669 -1.8822988
-6.0445118 -0.41947204 -1.8823245
-6.0327978 -0.56521302 -1.8823745
-6.0176563 -0.71063656 -1.8824493
-5.9990625 -0.85567564 -1.8825485
-5.9770651 -1.0002465 -1.8826721
-5.9516549 -1.1442566 -1.8828201
-5.9228563 -1.2876507 -1.8829925
-5.8906837 -1.4303393 -1.8831888
-5.8162546 -1.7132812 -1.8836541
-5.7285299 -1.9924688 -1.8842149
-5.6797361 -2.1304715 -1.8845308
-5.5724216 -2.4028945 -1.8852324
-5.3196335 -2.9313588 -1.8869113
-5.1746826 -3.1862338 -1.8878847
-5.0977097 -3.3110685 -1.8884043
-5.0177636 -3.4340925 -1.8889452
-4.9349122 -3.5552237 -1.8895074
-4.6693015 -3.9065969 -1.8913177
-4.4784961 -4.1301575 -1.8926247
-4.2771435 -4.3445849 -1.894009
-4.0657077 -4.5493717 -1.8954673
-3.9563231 -4.6480036 -1.8962234
-3.8445897 -4.7440434 -1.8969967
-3.7305517 -4.8374414 -1.8977871
-3.3752832 -5.1012278 -1.9002557
-3.252666 -5.1835155 -1.9011097
-3.1280859 -5.2628903 -1.9019784
-2.8732128 -5.4127336 -1.9037582
-2.7430956 -5.4831047 -1.9046683
-2.3427587 -5.675499 -1.907474
-2.2062547 -5.733253 -1.9084324
-2.0683203 -5.7877588 -1.9094018
-1.9290527 -5.8389726 -1.9103814
-1.6468359 -5.9314013 -1.912369
-1.5040185 -5.9725547 -1.9133761
-1.3601953 -6.010293 -1.9143912
-1.0678467 -6.0643897 -1.9129634
-0.76877928 -6.067307 -1.8999554
-0.62056637 -6.0684905 -1.8950845
-0.17921874 -6.0709734 -1.8868454
-0.03267578 -6.0714493 -1.8861978
0.40749022 -6.071836 -1.8905358
0.55492187 -6.0716166 -1.894085
0.70297849 -6.0712214 -1.8987026
1.0015918 -6.0698948 -1.911189
1.1525097 -6.0689592 -1.9190935
1.8926367 -5.9427576 -1.937559
2.0365624 -5.8985095 -1.9385935
2.1794531 -5.8507519 -1.9396216
2.7388623 -5.625145 -1.9436545
3.010078 -5.4919953 -1.9456153
3.2747459 -5.3456492 -1.9475324
3.4044237 -5.2676163 -1.9484733
3.6580467 -5.1020699 -1.9503163
3.9035008 -4.9241571 -1.9521039
4.0229783 -4.8306956 -1.9529754
4.1401806 -4.7342925 -1.9538318
4.5848093 -4.3204432 -1.9570907
4.6895652 -4.2102146 -1.9578614
4.791626 -4.0974102 -1.9586138
5.2592578 -3.497067 -1.9620789
5.3438134 -3.3702376 -1.9627097
5.5035448 -3.1103957 -1.9639059
5.6503758 -2.8428655 -1.9650118
5.8456101 -2.4285614 -1.9664959
5.9038525 -2.2873254 -1.9669427
5.9586034 -2.1446648 -1.9673649
6.0574951 -1.8554345 -1.9681348
6.1420407 -1.5615753 -1.9688035
6.1788526 -1.4131274 -1.9690994
6.2120018 -1.2638006 -1.9693693
6.2414694 -1.1136858 -1.9696133
6.2672167 -0.96286803 -1.9698309
6.322031 -0.5071643 -1.970325
6.3327732 -0.35449219 -1.9704362
6.3397608 -0.20159484 -1.9705209
6.3429737 -0.048572388 -1.9705786
6.338037 0.25750303 -1.9706132
6.3299122 0.41034788 -1.9705901
6.3023291 0.71520507 -1.9704634
6.2829099 0.86701292 -1.9703598
6.2328515 1.1689465 -1.9700723
6.2022557 1.3188714 -1.9698887
6.1300292 1.6161902 -1.9694424
5.9944239 2.0544367 -1.9685773
5.9420896 2.1980927 -1.9682374
5.8862352 2.3403935 -1.9678723
5.8268895 2.4812493 -1.967482
5.7641163 2.6205726 -1.9670669
5.6979198 2.7582684 -1.9666271
5.6283836 2.8942688 -1.9661633
5.5555272 3.0284855 -1.9656754
5.4794092 3.1608245 -1.9651637
5.3175879 3.4195917 -1.9640708
5.231987 3.5458484 -1.9634904
4.9570751 3.9112511 -1.9616169
4.8595948 4.0283532 -1.9609498
4.7593112 4.1429868 -1.9602621
4.6562791 4.2550817 -1.9595544
4.5505662 4.3645654 -1.9588269
4.3498096 4.3783665 -1.9173422
4.1519728 4.3859887 -1.8762504
3.962168 4.3931103 -1.8378543
3.6688135 4.4852662 -1.8001745
3.4451756 4.6530175 -1.7986211
3.3304296 4.7326903 -1.7978225
3.2138183 4.8094945 -1.7970099
2.8535302 5.0223107 -1.794494
2.7301953 5.0872498 -1.7936311
2.6053858 5.149138 -1.7927568
2.4791601 5.2079272 -1.7918718
2.3515918 5.2636023 -1.7909765
2.2227783 5.3161216 -1.7900717
1.9617138 5.4116101 -1.7882353
1.8296239 5.4545288 -1.7873048
1.696582 5.4942026 -1.7863668
1.5626904 5.5306125 -1.7854223
1.4280322 5.5637426 -1.7844714
0.88326168 5.663209 -1.7806165
0.74595702 5.6797681 -1.7796431
0.056733396 5.7124925 -1.7747449
-0.081069335 5.7090378 -1.7737632
-0.21867187 5.7022667 -1.7727822
-0.49297851 5.6788025 -1.7708246
-0.62950194 5.6621275 -1.7698491
-0.76551753 5.6421885 -1.7688763
-0.9009375 5.6189952 -1.7679073
-1.0356933 5.592566 -1.7669421
-1.1696924 5.562922 -1.7659814
-1.9538281 5.3189182 -1.7603446
-2.3298242 5.1557078 -1.7576313
-2.5732567 5.0322571 -1.7558705
-2.6926074 4.9662595 -1.7550061
-2.926245 4.8259006 -1.7533112
-3.3714795 4.5130763 -1.7500708
-3.6346581 4.4050231 -1.7741786
-4.1864405 4.3847852 -1.8833605
-4.4201121 4.2033958 -1.8949401
-4.6142774 3.9822412 -1.8935078
-4.8850489 3.6342089 -1.8915013
-5.1301413 3.2681913 -1.8896732
-5.2059374 3.1425164 -1.8891052
-5.3484473 2.8860576 -1.8880323
-5.4150829 2.7554333 -1.8875283
-5.53895 2.4897368 -1.8865861
-5.5961032 2.3548157 -1.8861485
-5.7007518 2.0812061 -1.8853413
-5.7923145 1.8030834 -1.8846262
-5.8331394 1.6625061 -1.8843036
-5.8706298 1.5210364 -1.8840045
-5.9047556 1.3787457 -1.8837292
-5.9355125 1.2357019 -1.8834776
-5.9628711 1.0919904 -1.8832501
-5.9868407 0.94769466 -1.8830465
-6.0585546 -0.072249144 -1.8823037
-6.0550342 -0.21841553 -1.8822955
-6.0237694 -0.65584779 -1.8824182
-6.0064697 -0.80104184 -1.8825082
-5.9857616 -0.94579101 -1.8826226
-5.9616404 -1.0900286 -1.8827615
-5.9341159 -1.2336657 -1.8829248
-5.903203 -1.3766235 -1.883112
-5.7903419 -1.8006713 -1.8838187
-5.6476903 -2.2158566 -1.8847393
-5.5363669 -2.486702 -1.8854699
-5.4759083 -2.6201208 -1.8858699
-5.4123096 -2.7521005 -1.8862926
-5.3455858 -2.8825715 -1.8867376
-5.0482469 -3.3879268 -1.8887389
-4.9664893 -3.5097711 -1.8892931
-4.7943454 -3.7476125 -1.8904639
-4.7040672 -3.8634636 -1.8910801
-4.6110206 -3.9771779 -1.8917164
-4.5152879 -4.0886965 -1.8923724
-4.1063132 -4.511519 -1.895187
-3.8869922 -4.7081361 -1.8967031
-3.6583836 -4.8942599 -1.8982879
-3.5407469 -4.9832506 -1.8991048
-3.4209764 -5.0694599 -1.8999377
-3.175288 -5.2333059 -1.9016491
-3.0494874 -5.3108478 -1.9025269
-2.6611571 -5.525383 -1.905242
-2.1204784 -5.767591 -1.909035
-1.9817187 -5.8200464 -1.9100108
-1.8416504 -5.8691964 -1.9109966
-1.7003906 -5.9150043 -1.9119915
-1.414541 -5.9964662 -1.9140075
-0.82487303 -6.066813 -1.9020721
-0.52857423 -6.0691366 -1.892591
-0.23451659 -6.0707474 -1.887361
0.05859375 -6.0716586 -1.8863245
0.20519042 -6.0718527 -1.887374
0.35204101 -6.0718737 -1.8894711
0.49927244 -6.0717196 -1.8926224
0.64707029 -6.0713906 -1.8968354
0.79557616 -6.0708847 -1.9021229
0.94499511 -6.0702 -1.9084988
1.2471631 -6.0682831 -1.9245912
1.4000536 -6.0660143 -1.9340249
1.6929003 -5.9979167 -1.9361248
1.838125 -5.9585295 -1.9371675
2.408911 -5.7658415 -1.941274
2.5486619 -5.7089963 -1.9422817
2.687041 -5.6487451 -1.9432803
2.8239942 -5.5851111 -1.9442697
3.0932372 -5.4478173 -1.9462173
3.2253857 -5.3742332 -1.9471747
3.355752 -5.2974138 -1.9481201
3.6108348 -5.134234 -1.9499727
3.7353954 -5.0479627 -1.950879
3.8578856 -4.9586253 -1.9517711
4.2120166 -4.6727772 -1.9543569
4.3253565 -4.5717325 -1.9551867
4.5446239 -4.3613191 -1.9567953
4.6503758 -4.2520871 -1.9575731
4.8538132 -4.0258608 -1.9590725
5.0460448 -3.7897666 -1.9604946
5.1377978 -3.668179 -1.9611754
5.3122997 -3.4182994 -1.9624745
5.7597752 -2.620553 -1.9658413
5.8227487 -2.4814255 -1.9663211
5.938364 -2.1986284 -1.9672085
6.0399413 -1.9103308 -1.9679972
6.0853858 -1.7643636 -1.968354
6.1272116 -1.6172955 -1.9686853
6.1653953 -1.469215 -1.9689907
6.1999459 -1.3202008 -1.9692706
6.2307858 -1.1703742 -1.9695244
6.2813768 -0.86860043 -1.9699533
6.3010592 -0.71685302 -1.9701278
6.316987 -0.56465513 -1.9702759
6.3421969 -0.10628601 -1.97056
6.3430514 0.046786498 -1.9706008
6.3334131 0.35273436 -1.9706019
6.3086815 0.6578387 -1.9704956
6.2906737 0.80983883 -1.970402
6.2689209 0.9613269 -1.9702816
6.2142282 1.2624408 -1.969961
6.0606933 1.8545495 -1.9690032
5.9622412 2.1440892 -1.9683685
5.8496728 2.4283135 -1.9676321
5.7232809 2.7065477 -1.9667959
5.6549997 2.8431933 -1.966341
5.5833836 2.9780943 -1.965862
5.5084863 3.1111486 -1.9653593
5.1770997 3.6234021 -1.9631174
5.0865722 3.7460949 -1.962501
4.9930758 3.8664732 -1.961863
4.8966942 3.9844847 -1.9612039
4.4266453 4.3753538 -1.9335793
4.0328174 4.390481 -1.8520265
3.8484032 4.3981566 -1.8155557
3.7101316 4.4524045 -1.8004611
3.257993 4.780879 -1.797318
3.140249 4.8558726 -1.7964969
2.77687 5.0631261 -1.7939578
2.6526172 5.1261644 -1.7930877
2.5269043 5.1861291 -1.7922066
2.3998389 5.2429795 -1.7913153
1.8795313 5.4387231 -1.7876565
1.7468457 5.4796262 -1.7867215
1.6132715 5.5172682 -1.7857792
1.4788916 5.5516381 -1.7848306
1.0717382 5.6349607 -1.7819515
0.79777342 5.6739173 -1.7800105
0.66028321 5.6883945 -1.7790351
0.10873047 5.7129321 -1.775115
-0.1668164 5.7052112 -1.7731521
-0.30425781 5.696373 -1.7721717
-0.44137207 5.6842308 -1.7711931
-0.71429688 5.650094 -1.7692428
-0.98497069 5.6029077 -1.7673054
-1.3853955 5.5080271 -1.7644337
-1.6477392 5.4289722 -1.7625484
-1.7773291 5.3847766 -1.761616
-1.9057275 5.3375278 -1.7606913
-2.1587744 5.2339416 -1.7588667
-2.2832568 5.1776829 -1.7579678
-2.5278418 5.0564084 -1.7561994
-2.6478076 4.9914732 -1.7553306
-2.766118 4.9237256 -1.7544731
-2.9975684 4.7799606 -1.752793
-3.1105614 4.7040405 -1.7519714
-3.2216797 4.6254735 -1.7511625
-3.4379735 4.4606481 -1.7495855
-3.5705469 4.4084167 -1.7623881
-3.9251366 4.3945789 -1.830513
-4.382339 4.2440586 -1.8952183
-4.4817333 4.1354833 -1.8944862
-4.672544 3.9115367 -1.8930769
-4.8523927 3.6789782 -1.8917439
-4.938086 3.5596166 -1.8911067
-5.100781 3.3151219 -1.8898929
-5.1777196 3.1901038 -1.8893168
-5.2516308 3.0633464 -1.8887619
-5.5165577 2.5402613 -1.886757
-5.5749269 2.4058392 -1.8863108
-5.6300926 2.270119 -1.8858873
-5.7306833 1.9950329 -1.8851086
-5.8568845 1.574475 -1.8841145
-5.8922753 1.4324847 -1.8838302
-6.0000486 0.85754514 -1.8829321
-6.0450144 0.42122069 -1.8825125
-6.0589991 -0.017117919 -1.882313
-6.0567722 -0.1633136 -1.8822956
-6.051084 -0.30940673 -1.8823028
-6.0419679 -0.4553369 -1.8823344
-6.0293946 -0.60100341 -1.8823907
-5.9939694 -0.89127624 -1.8825767
-5.9448876 -1.1795788 -1.8828602
-5.9152589 -1.3228106 -1.8830386
-5.8822556 -1.4653088 -1.8832409
-5.8458934 -1.6069995 -1.8834676
-5.7631593 -1.8876836 -1.8839923
-5.716836 -2.0265071 -1.8842905
-5.6143994 -2.3007658 -1.884957
-5.5583348 -2.4360344 -1.8853253
-5.4990721 -2.5699825 -1.8857166
-5.4366598 -2.7025094 -1.8861305
-5.3024607 -2.9630618 -1.8870263
-5.1560397 -3.2170882 -1.8880105
-5.0783153 -3.341496 -1.8885354
-4.9976563 -3.4640558 -1.8890815
-4.9140964 -3.5847025 -1.8896487
-4.7384276 -3.8200247 -1.8908454
-4.6464257 -3.9345531 -1.8914742
-4.5516844 -4.0469131 -1.8921229
-4.4543066 -4.1570234 -1.8927909
-4.2516847 -4.3702917 -1.8941845
-4.1466017 -4.4733167 -1.894909
-4.0390186 -4.5738773 -1.8956518
-3.8167577 -4.7672534 -1.8971896
-3.2222216 -5.2033024 -1.901322
-2.9701757 -5.3576493 -1.9030807
-2.841372 -5.4303207 -1.903981
-2.7108202 -5.4999356 -1.9048944
-2.5785644 -5.566452 -1.9058206
-2.4447362 -5.6298141 -1.9067585
-2.172451 -5.7469602 -1.9086699
-1.4687451 -5.9821501 -1.913625
-1.1797022 -6.0524945 -1.9156661
-1.030874 -6.0647879 -1.9111264
-0.5842334 -6.0687542 -1.8940513
-0.28984374 -6.0704985 -1.8880242
-0.1431787 -6.0711064 -1.8865896
0.0033593748 -6.0715404 -1.8862002
0.2966406 -6.0718865 -1.8885571
0.59126461 -6.0715356 -1.8951211
1.0385938 -6.0696816 -1.9130282
1.1898144 -6.0687013 -1.9212109
1.4915771 -6.0463343 -1.9346807
1.9281347 -5.9322038 -1.9378141
2.7724805 -5.6094995 -1.9438974
3.0429883 -5.4747105 -1.9458536
3.3068066 -5.3267579 -1.947765
3.6886766 -5.0808487 -1.950539
3.9330809 -4.9014564 -1.9523196
4.1686473 -4.710146 -1.9540399
4.3947458 -4.5073652 -1.9556953
4.6108203 -4.2935777 -1.9572821
4.714922 -4.182714 -1.9580482
4.8163085 -4.0692878 -1.9587958
4.9149218 -3.9533529 -1.959524
5.0106735 -3.8350024 -1.9602325
5.2803321 -3.4660766 -1.9622359
5.5965476 -2.9446032 -1.9646057
5.6675243 -2.8094673 -1.9651415
5.860249 -2.3939633 -1.966608
5.9176316 -2.2523744 -1.9670488
5.9715185 -2.109386 -1.9674648
6.0218701 -1.9650707 -1.967856
6.0686569 -1.8195416 -1.9682223
6.1118503 -1.6728774 -1.9685632
6.1514354 -1.5251538 -1.9688787
6.2195897 -1.2269647 -1.9694318
6.2729783 -0.9256866 -1.9698803
6.3348436 -0.3169232 -1.9704596
6.3431835 -0.010934448 -1.9705887
6.3416696 0.14213379 -1.9706128
6.3273239 0.44789732 -1.9705805
6.1941648 1.3556159 -1.9698395
6.1589746 1.5045209 -1.9696231
6.0776415 1.7994219 -1.9691113
5.9818993 2.089884 -1.9684961
5.8719578 2.3751721 -1.9677786
5.7481446 2.654577 -1.966961
5.6107812 2.9274406 -1.9660455
5.4602051 3.1930773 -1.9650342
5.3800778 3.3229742 -1.9644936
5.210454 3.576566 -1.9633441
5.1210546 3.7000976 -1.9627359
5.0286765 3.8213537 -1.962106
4.8352051 4.0567713 -1.9607828
4.7342286 4.1707911 -1.96009
4.6305323 4.2822447 -1.9593773
3.7510009 4.4191651 -1.8007444
3.5304441 4.5910692 -1.7992139
3.3019238 4.7518406 -1.797624
3.1848583 4.8279357 -1.7968081
2.6996338 5.102756 -1.793417
2.0606639 5.3771091 -1.7889317
1.9293262 5.4224634 -1.7880071
1.7969873 5.4645863 -1.7870748
1.1231885 5.6261268 -1.782316
0.98658198 5.6485214 -1.7813486
0.84954101 5.6675863 -1.7803776
0.4366504 5.7047901 -1.7774472
0.29870605 5.7105079 -1.7764668
0.16074707 5.7128968 -1.7754854
-0.11492188 5.7076817 -1.773522
-0.38972166 5.6891966 -1.7715619
-0.526582 5.6750073 -1.7705846
-0.66300291 5.6575294 -1.7696097
-0.93414551 5.6127977 -1.7676693
-1.9851025 5.3065491 -1.7601193
-2.1114697 5.2543869 -1.7592081
-2.2364795 5.1992455 -1.7583057
-2.6027586 5.0162902 -1.7556568
-3.2899022 4.575232 -1.7506655
-4.2346973 4.3829355 -1.8933294
-4.5423193 4.0666881 -1.8940393
-4.7297606 3.8400085 -1.8926535
-4.8193455 3.7234521 -1.8919892
-5.2961569 2.9835217 -1.8884268
-5.3651218 2.854079 -1.8879064
-5.4309864 2.7230754 -1.8874078
-5.4937253 2.5905817 -1.8869309
-5.6628175 2.1849358 -1.885635
-5.7127147 2.0472467 -1.8852484
-5.759336 1.9084467 -1.884885
-5.8026609 1.7685968 -1.8845446
-5.8426609 1.6278027 -1.8842279
-5.9425535 1.2004242 -1.8834194
-5.9922214 0.91212827 -1.8830001
-6.028203 0.62188232 -1.8826779
-6.0410495 0.4762091 -1.8825533
-6.0564356 0.18418884 -1.8823773
-6.0589452 0.03800232 -1.882326
-6.0580125 -0.10819641 -1.8822993
-6.0536327 -0.25434446 -1.8822972
-6.0458055 -0.40033689 -1.8823196
-6.019834 -0.69159114 -1.8824382
-6.001699 -0.83667904 -1.8825341
-5.8950977 -1.4116626 -1.8831618
-5.8599901 -1.5536798 -1.8833792
-5.8215427 -1.6948361 -1.8836209
-5.7346826 -1.9742962 -1.8841752
-5.6863232 -2.1124399 -1.884488
-5.5798483 -2.3851891 -1.8851837
-5.5217967 -2.5196376 -1.8855662
-5.3961911 -2.7843311 -1.8863997
-5.3287158 -2.9144137 -1.8868506
-5.2581592 -3.042901 -1.8873234
-5.1845655 -3.1697285 -1.8878182
-5.1079688 -3.2947998 -1.8883349
-5.0284128 -3.4180572 -1.8888731
-4.8605857 -3.6588745 -1.8900127
-4.7724071 -3.7762985 -1.8906137
-4.5877295 -4.0048037 -1.8918759
-4.3922949 -4.2244611 -1.893217
-4.2906737 -4.3308101 -1.893916
-4.1865087 -4.4347606 -1.8946338
-3.9708056 -4.6352105 -1.8961233
-3.85937 -4.7315979 -1.8968945
-3.7456348 -4.8253427 -1.8976825
-3.629668 -4.9163971 -1.8984872
-3.0182714 -5.3294616 -1.9027449
-2.890166 -5.4032769 -1.9036398
