# .PCD v0.7 - Point Cloud Data file format
VERSION 0.7
FIELDS x y z
SIZE 4 4 4
TYPE F F F
COUNT 1 1 1
WIDTH 1494
HEIGHT 1
VIEWPOINT 0 0 0 1 0 0 0
POINTS 1494
DATA ascii
-7.8030124 6.4800458 -1.0025882
-8.1990528 6.4810929 -1.033072
-8.6201658 6.4822087 -1.0661055
-9.0693893 6.4833951 -1.1019868
-9.5501413 6.4846673 -1.1410501
-10.066596 6.486033 -1.1837054
-11.226523 6.4890957 -1.2817457
-12.91562 6.265933 -1.4189754
-15.762861 5.8462005 -1.6618196
-15.889843 5.4608355 -1.6608244
-16.67786 4.4120283 -1.7052618
-17.711069 4.2308331 -1.7999376
-17.800694 3.8006377 -1.7991987
-17.880552 3.3686998 -1.7985293
-18.010981 2.500495 -1.7973989
-18.102051 1.6277679 -1.7965484
-18.132826 1.1902398 -1.7962284
-18.164799 0.31389466 -1.7957994
-18.16601 -0.12454834 -1.7956903
-18.157305 -0.56288636 -1.7956522
-18.13876 -1.0009216 -1.7956842
-18.110332 -1.4384369 -1.7957872
-18.072124 -1.8752105 -1.7959601
-18.024038 -2.3110986 -1.7962036
-17.898497 -3.1793094 -1.7969015
-17.821045 -3.6112335 -1.7973559
-17.637026 -4.4696436 -1.7984738
-17.530478 -4.8957663 -1.7991372
-17.288599 -5.7408085 -1.8006713
-16.860312 -6.0540867 -1.7707702
-15.520292 -6.4342499 -1.6607397
-15.369638 -6.8109698 -1.6617296
-15.210429 -7.1844401 -1.6627812
-12.917315 -7.7046075 -1.486706
-14.287812 -8.9964924 -1.6689565
-14.07851 -9.3465719 -1.6703714
-15.052514 -10.52523 -1.8155481
-14.80768 -10.895381 -1.817212
-13.743383 -12.321057 -1.8244879
-13.456538 -12.662764 -1.8264586
-13.161645 -12.998257 -1.8284881
-12.858852 -13.327258 -1.8305757
-12.548252 -13.649693 -1.8327204
-12.229838 -13.965281 -1.8349226
-11.903837 -14.273882 -1.8371805
-11.570463 -14.575315 -1.8394928
-10.527163 -15.434747 -1.8467484
-10.165463 -15.70571 -1.8492699
-9.7970943 -15.968619 -1.8518407
-9.0409517 -16.469616 -1.8571273
-8.653491 -16.707365 -1.8598405
-8.2600288 -16.93644 -1.8625985
-7.4557714 -17.367706 -1.8682445
-7.045361 -17.569679 -1.8711299
-6.2088819 -17.945438 -1.8770187
-5.7757907 -18.095646 -1.8775976
-5.2848144 -18.049765 -1.859063
-4.7139206 -17.670567 -1.8077595
-4.290288 -17.796484 -1.8095198
-3.8635547 -17.913374 -1.8113934
-3.0014942 -18.119711 -1.8154799
-2.128999 -18.288979 -1.8200147
-1.6892871 -18.359562 -1.8224487
-1.2475537 -18.420664 -1.8249929
-0.80308104 -18.455313 -1.8259737
0.086826168 -18.16008 -1.7950828
0.52388668 -18.112671 -1.791128
1.8388036 -18.086391 -1.7969949
2.2776563 -18.059839 -1.7992975
2.7165477 -18.024378 -1.8017727
3.155288 -17.979984 -1.8044202
4.4698386 -17.792767 -1.8134027
5.343257 -17.622711 -1.8202554
6.6460838 -17.299282 -1.8318286
7.5079393 -17.037872 -1.8404036
3.9354832 -7.8772326 -0.87040573
4.1419187 -7.8129416 -0.87409467
11.993526 -16.371311 -2.006038
12.816367 -15.831448 -2.0134008
13.21373 -15.539931 -2.0163057
13.604131 -15.238073 -2.0191636
13.987324 -14.926082 -2.0219724
15.090722 -13.930776 -2.030082
15.78499 -13.219742 -2.0352037
17.06496 -11.690997 -2.0446968
17.36084 -11.287943 -2.0469024
17.646563 -10.877024 -2.0490377
17.921934 -10.458518 -2.0511005
16.747236 -9.238596 -1.8905849
16.981113 -8.8399801 -1.8923471
17.418251 -8.0244207 -1.8956562
17.621172 -7.6079407 -1.8972011
18.165302 -6.3272014 -1.9013811
19.019169 -6.1140985 -1.9747343
20.344843 -4.9492431 -2.0696692
20.833456 -2.4690444 -2.0737274
20.970917 -0.95608276 -2.0750558
20.990459 -0.4497827 -2.0753114
20.996817 0.056814574 -2.0754728
20.990009 0.56351745 -2.0755403
20.75878 3.0846117 -2.074466
20.673378 3.5838153 -2.0739703
20.575008 4.0805073 -2.0733812
18.729971 4.66398 -1.9079319
18.604179 5.1124811 -1.9071362
18.466913 5.5573969 -1.9062576
18.318174 5.9983954 -1.905296
18.158115 6.435174 -1.9042529
17.988995 6.868228 -1.9033456
14.430742 6.3234415 -1.557371
12.158837 6.4135795 -1.3588132
11.48208 6.4154692 -1.3001107
10.288447 6.4188004 -1.1986678
9.7582912 6.4202785 -1.1546211
9.1530762 6.3437958 -1.1008044
8.6910934 6.3394685 -1.0633458
6.2611618 6.4356289 -0.88752586
5.6845994 6.4372296 -0.84888601
5.4144287 6.4379778 -0.83150709
5.1549511 6.4386978 -0.81528991
4.9052687 6.4393902 -0.80015188
4.6645799 6.4400554 -0.78601545
4.2071385 6.4413214 -0.76047909
3.9324365 6.350368 -0.73831761
3.7238183 6.3509431 -0.72772062
3.5209911 6.3515034 -0.71783775
3.3276219 6.3599639 -0.70950979
2.4335206 6.4382806 -0.68034321
2.0847607 6.4392376 -0.66902131
1.9145019 6.4397025 -0.66407573
1.7466455 6.440165 -0.6595825
1.4171777 6.4410648 -0.65190303
1.2551123 6.4415078 -0.64869332
0.93529296 6.4423809 -0.64348125
0.61982423 6.4432416 -0.63983053
0.15146972 6.4445171 -0.63719231
-0.0040917969 6.4449382 -0.63705802
-0.15968749 6.4453616 -0.63729447
-0.3154785 6.4457841 -0.63790435
-0.94437987 6.4474869 -0.64411038
-1.1039941 6.4479179 -0.64662683
-1.4086425 6.3637114 -0.64425576
-1.7348437 6.3645916 -0.65206695
-1.9014893 6.3662834 -0.65675205
-2.0971045 6.4493475 -0.670349
-2.2707715 6.4498148 -0.67589837
-2.6273682 6.4507732 -0.68849564
-2.9984326 6.451767 -0.70324051
-3.1902149 6.4522805 -0.71148288
-3.3866699 6.4528069 -0.72034591
-4.2278271 6.4550543 -0.76273268
-4.6888185 6.4562836 -0.78871995
-5.4455519 6.4582977 -0.83502495
-5.7184763 6.459024 -0.85271871
-6.5438375 6.3929214 -0.90427727
-6.8520947 6.3782477 -0.92532468
-7.30582 6.4787273 -0.965204
-7.6721826 6.4796977 -0.99265242
-8.4724026 6.4818168 -1.0544446
-11.952333 -7.0194211 -1.6860918
-11.787246 -7.3106394 -1.6872042
-11.61538 -7.5981822 -1.6883661
-11.436841 -7.8819218 -1.6895763
-11.251684 -8.1616888 -1.6908348
-10.861831 -8.7087488 -1.6934942
-10.65731 -8.9757357 -1.6948941
-10.446494 -9.2381802 -1.6963397
-10.866529 -10.58679 -1.8454345
-10.362558 -11.119663 -1.8489124
-10.101049 -11.377614 -1.8507212
-9.8333931 -11.629702 -1.8525753
-9.5596676 -11.875778 -1.8544742
-9.2800198 -12.115698 -1.8564167
-8.9945555 -12.349299 -1.8584024
-8.7034035 -12.576469 -1.86043
-8.4067135 -12.797038 -1.8624988
-7.7972608 -13.2179 -1.8667556
-6.8450098 -13.79645 -1.8734252
-6.1865964 -14.145461 -1.8780483
-5.5107908 -14.464017 -1.8828027
-5.1607275 -14.594409 -1.8830117
-4.7444334 -14.523078 -1.8584908
-3.6549366 -14.721577 -1.8451239
-2.9454834 -14.906666 -1.8483322
-1.8649902 -15.125728 -1.853853
-1.1355274 -15.232091 -1.8579996
-0.76853025 -15.273224 -1.8602107
0.33963379 -15.34778 -1.8673888
0.71087402 -15.356251 -1.8699603
1.8279052 -15.331855 -1.8782016
2.5736279 -15.273804 -1.8841234
2.9463086 -15.232175 -1.8872108
7.5748434 -13.708509 -1.905162
8.2662592 -13.389927 -1.9141499
9.9457321 -12.457463 -1.9390539
10.271924 -12.247787 -1.9444424
10.866084 -12.338807 -1.9999527
12.059287 -11.285022 -2.0090342
12.33539 -9.0236435 -1.8591205
12.779081 -8.4329166 -1.8624249
13.388359 -7.5047302 -1.8669897
13.57584 -7.1848984 -1.868402
13.926435 -6.530767 -1.8710562
14.089345 -6.1969023 -1.8722965
14.846777 -6.1068234 -1.9527926
15.626406 -5.9908285 -2.0357268
15.914736 -5.2356262 -2.0379593
16.044394 -4.8524647 -2.0389731
16.274355 -4.0763121 -2.0407934
16.464491 -3.2888112 -2.0423319
16.61418 -2.4920938 -2.0435836
16.673681 -2.090975 -2.0441005
16.722929 -1.6883569 -2.0445447
16.761835 -1.2845428 -2.0449152
16.79039 -0.87980223 -2.0452116
16.816328 -0.068662718 -2.0455828
16.813721 0.33718628 -2.0456569
16.800684 0.74283326 -2.0456567
16.777246 1.1480029 -2.0455823
16.743408 1.5524194 -2.045433
16.699266 1.9558038 -2.0452101
16.580048 2.7583594 -2.0445426
16.324667 3.9475274 -2.0429907
14.714335 4.7079191 -1.879258
14.457129 5.4075589 -1.8775811
14.315292 5.7519989 -1.876647
14.164784 6.0925312 -1.8756499
14.005733 6.428947 -1.8745909
11.666005 6.4146881 -1.6194508
10.444619 6.418118 -1.4911996
9.9031153 6.4196391 -1.435595
9.4002533 6.4210477 -1.384763
8.5004683 6.4291863 -1.2964532
8.0886135 6.4303384 -1.2569454
6.9883008 6.4334173 -1.1554354
5.4891844 6.4376006 -1.0291028
4.9744678 6.4390349 -0.98976421
4.7313185 6.4397101 -0.97203034
4.4965868 6.440362 -0.95546508
4.2695947 6.4409919 -0.93999553
4.0497069 6.4416022 -0.92554837
3.781826 6.3506341 -0.89910156
3.3826807 6.3596673 -0.87622267
3.2264795 6.4359527 -0.87574661
3.0346532 6.4364834 -0.8655988
2.6635058 6.4375076 -0.84744549
2.483501 6.4380035 -0.83937407
2.133086 6.4389668 -0.82510346
1.7936132 6.4399004 -0.8131718
1.3005322 6.4412503 -0.7993325
1.1395751 6.4416924 -0.7957418
0.8214941 6.4425602 -0.79002577
0.19525391 6.4442668 -0.78424782
0.039672852 6.4446893 -0.78395432
-0.11588379 6.4451118 -0.78411698
-0.42764649 6.4459562 -0.78581679
-0.58421874 6.4463811 -0.787359
-0.74149901 6.446806 -0.78936774
-1.3633202 6.3634577 -0.79162407
-2.0486767 6.4490814 -0.82310528
-2.2215478 6.4495449 -0.82976669
-2.3973339 6.4500165 -0.83702976
-2.576333 6.4504948 -0.84491605
-2.9451904 6.4514823 -0.86267424
-3.1357274 6.4519901 -0.87260938
-3.5308545 6.4530449 -0.89477581
-3.7362742 6.4535904 -0.90709287
-3.947578 6.4541531 -0.92029715
-4.1652341 6.4547319 -0.93444592
-4.3898144 6.4553289 -0.94959509
-4.6219435 6.4559441 -0.96581662
-4.8622704 6.4565825 -0.98318326
-5.1115723 6.4572415 -1.0017809
-6.7589598 6.3778119 -1.1304141
-7.566792 6.479218 -1.2117612
-7.948452 6.4802237 -1.2474692
-9.7390041 6.484931 -1.4232706
-10.843389 6.4878302 -1.5370744
-12.232012 6.5387812 -1.6871731
-12.517261 5.9334025 -1.685023
-12.773979 5.3163004 -1.6830479
-13.001914 4.6888385 -1.6812761
-14.302627 4.3905144 -1.8199253
-14.431314 4.0516424 -1.8233237
-14.670859 2.9938574 -1.8213705
-14.79 2.2812457 -1.8203562
-14.837314 1.9232219 -1.8199363
-14.907382 1.2046448 -1.8192712
-14.950878 0.12305176 -1.8187127
-14.93876 -0.59843504 -1.8186342
-14.893755 -1.3186395 -1.8187906
-14.815981 -2.0361593 -1.8191818
-14.764829 -2.3934872 -1.8194653
-14.638164 -3.1043711 -1.8202074
-14.479028 -3.8090661 -1.8211826
-14.180287 -4.851531 -1.8230778
-13.941518 -5.5347672 -1.8246267
-12.570835 -6.077353 -1.6984613
-12.312417 -6.3234239 -1.683679
-12.163423 -6.6226239 -1.6846746
-12.00752 -6.9185295 -1.6857207
-11.316054 -8.0659742 -1.690397
-11.126596 -8.3430719 -1.6916869
-10.930664 -8.6159458 -1.6930238
-10.703964 -10.764074 -1.8465551
-10.450986 -11.029686 -1.8483013
-9.6544285 -11.791883 -1.8538165
-9.3768015 -12.033925 -1.8557441
-9.0933104 -12.269719 -1.8577151
-4.6535254 -7.7411914 -1.0987191
-7.5927196 -13.349965 -1.8681865
-7.2769675 -13.545315 -1.8703971
-6.6309566 -13.914268 -1.8749272
-5.9667039 -14.25341 -1.8795942
-5.2846875 -14.559597 -1.8841093
-4.4734035 -14.465717 -1.8418503
-4.1260104 -14.579975 -1.8431827
-2.7106934 -14.960649 -1.8494674
-2.351162 -15.036369 -1.8512758
-0.89483887 -15.260005 -1.8594402
0.21220702 -15.342988 -1.8665252
0.58319825 -15.354262 -1.8690667
0.95490235 -15.357305 -1.8716962
1.6997656 -15.33846 -1.8772177
2.4454834 -15.286185 -1.8830813
3.5389404 -15.044008 -1.8799288
4.6029687 -14.70075 -1.8738339
5.3255711 -14.512429 -1.8804258
5.6848288 -14.40656 -1.8839402
6.0425439 -14.292886 -1.8875996
6.3985643 -14.171409 -1.8914032
3.9245067 -7.680614 -1.0491813
7.4550195 -13.760113 -1.9036742
7.802793 -13.607388 -1.9080495
8.1481447 -13.446886 -1.9125652
9.5019922 -12.727086 -1.9320235
9.8327827 -12.527771 -1.937232
10.735557 -12.396405 -1.9947865
11.373398 -11.918728 -2.0039899
11.6704 -11.653466 -2.0061719
11.960977 -11.380574 -2.0083101
12.791826 -10.517508 -2.0144424
12.02123 -9.4070492 -1.8567886
12.25624 -9.122776 -1.8585323
12.18415 -7.7661452 -1.7575811
13.322089 -7.6134992 -1.8664913
13.512314 -7.2954044 -1.8679229
13.694492 -6.9723239 -1.8692983
13.868535 -6.6444931 -1.8706167
14.034297 -6.3121448 -1.8718766
14.516142 -6.1120963 -1.9159086
15.514746 -6.0961075 -2.0276957
15.725215 -5.7447305 -2.036489
16.341171 -3.8190439 -2.0413296
16.434687 -3.4248734 -2.042088
16.518105 -3.0282848 -2.0427747
16.591356 -2.6295714 -2.0433893
16.707178 -1.8268881 -2.0444002
16.749609 -1.4234686 -2.044796
16.803486 -0.61380672 -2.045366
16.815762 0.1977008 -2.0456395
16.786474 1.0088128 -2.0456161
16.715624 1.8172899 -2.0452955
16.664677 2.2198541 -2.0450237
16.450331 3.4174566 -2.0437667
16.358534 3.8123674 -2.0432014
16.25668 4.2047138 -2.0425642
15.339892 4.3651152 -1.9400465
14.365029 5.6340446 -1.8769754
14.2175 5.9759378 -1.8759997
13.897324 6.6476736 -1.8739413
12.613339 6.4120245 -1.7211767
11.8975 6.4140372 -1.6441451
10.640595 6.4175663 -1.5115283
8.2273045 6.4299517 -1.2701648
7.8316016 6.4310598 -1.2326823
7.1053219 6.4330912 -1.1659207
6.7705564 6.4340262 -1.1361401
6.4522457 6.434916 -1.1084703
5.8591895 6.4365702 -1.0587665
5.5818405 6.4373431 -1.036427
5.3158154 6.4380841 -1.0155915
5.060122 6.4387956 -0.99614453
4.8139062 6.4394817 -0.97798902
4.5763574 6.4401398 -0.96103221
3.8534179 6.3504353 -0.90356368
3.4505615 6.3594794 -0.88010526
3.2934716 6.4357681 -0.87941009
3.1000731 6.4363031 -0.86900371
2.9111035 6.4368253 -0.85933465
2.5449853 6.4378338 -0.84207541
2.3671777 6.438323 -0.83442277
2.020581 6.4392776 -0.82093948
1.684248 6.4402008 -0.8097409
1.194746 6.4415412 -0.79692113
0.87584472 6.4424124 -0.79087204
0.56102538 6.4432721 -0.78673249
0.40467283 6.443697 -0.78536302
0.24876952 6.4441228 -0.78445417
0.093134761 6.4445453 -0.78400421
-0.062407225 6.4449663 -0.78400999
-0.37395507 6.4458108 -0.78539425
-0.6873486 6.4466605 -0.78862441
-0.84519529 6.4470878 -0.79094237
-1.3081787 6.3633084 -0.79022712
-1.469165 6.3637433 -0.79445547
-1.9898876 6.4489236 -0.82094985
-2.1618211 6.4493852 -0.82741082
-2.3365674 6.4498539 -0.8344627
-2.5144286 6.4503303 -0.84213281
-2.6956983 6.4508147 -0.85044402
-2.8806884 6.4513102 -0.85942584
-3.2632177 6.452332 -0.87953568
-3.6650341 6.4534016 -0.90276235
-4.0896726 6.4545307 -0.92947215
-4.5412693 6.4557304 -0.96011579
-4.7786961 6.4563603 -0.97707975
-5.0248241 6.4570136 -0.99524504
-5.2804346 6.4576898 -1.0146999
-5.5463719 6.4583926 -1.0355462
-5.8236523 6.4591265 -1.0578966
-6.1133204 6.4598932 -1.0818754
-6.6635056 6.3930535 -1.1232814
-6.9777489 6.3783894 -1.1499581
-7.4405713 6.4788847 -1.2001156
-7.8147507 6.4798713 -1.23488
-8.2115088 6.480916 -1.2724833
-8.6334276 6.4820242 -1.3132367
-9.0835352 6.4832087 -1.3575015
-9.5653563 6.4844742 -1.4057075
-10.641148 6.487299 -1.5159832
-12.180625 6.6418195 -1.6876297
-12.731904 5.4231305 -1.683373
-12.851992 5.1114798 -1.6824439
-13.070375 4.4808831 -1.6807394
-13.916811 4.3987274 -1.7754135
-14.572558 3.4695311 -1.8221817
-14.771855 2.4040587 -1.8205138
-14.821982 2.0463879 -1.820074
-14.863925 1.6877649 -1.8196924
-14.897671 1.3283361 -1.8193688
-14.923227 0.96828979 -1.8191038
-14.949648 0.2470758 -1.8187499
-14.943183 -0.47448975 -1.8186309
-14.927608 -0.83498353 -1.8186597
-14.831675 -1.9130993 -1.8190979
-14.726835 -2.6273437 -1.8196832
-14.508672 -3.6884539 -1.8209985
-14.322968 -4.3870049 -1.822165
-14.1054 -5.0768676 -1.8235611
-12.830254 -6.0719829 -1.7266465
-12.215415 -6.520155 -1.6843268
-10.798574 -8.792676 -1.6939269
-10.37934 -9.3192587 -1.6968009
-10.789448 -10.671541 -1.8459657
-10.538652 -10.939027 -1.8476958
-10.018057 -11.457048 -1.8512957
-8.6112595 -12.64612 -1.8610723
-7.7001266 -13.281196 -1.867435
-7.0670753 -13.669628 -1.8718679
-6.74333 -13.852968 -1.8741385
-6.4149218 -14.028885 -1.8764441
-6.0820847 -14.197277 -1.8787829
-5.7449608 -14.358017 -1.8811543
-5.0403905 -14.603674 -1.8792475
-4.2457175 -14.541557 -1.8427138
-3.8965232 -14.650867 -1.8441092
-3.5446923 -14.752556 -1.8456001
-3.1904101 -14.846547 -1.8471866
-2.8337598 -14.932793 -1.848868
-2.1141307 -15.081809 -1.8525134
-1.7514062 -15.144471 -1.8544766
-0.28486326 -15.314891 -1.8632514
0.45560059 -15.351315 -1.8681833
1.1991357 -15.354778 -1.8734698
1.5716602 -15.344067 -1.8762442
4.4783053 -14.729987 -1.8727597
4.8406248 -14.642384 -1.8759329
5.2017627 -14.547011 -1.8792517
6.2764158 -14.21404 -1.8900797
6.6312399 -14.087441 -1.8939776
3.9183252 -7.8281059 -1.0648521
8.3733883 -13.337321 -1.9156053
9.0524216 -12.982753 -1.9252397
9.7194529 -12.597148 -1.9354262
10.537393 -12.373502 -1.9769694
11.269854 -12.008113 -2.0032296
11.569043 -11.74551 -2.0054269
11.861835 -11.475226 -2.0075803
12.148037 -11.19737 -2.0096881
12.427451 -10.912158 -2.0117493
11.938818 -9.5033026 -1.8561779
12.176259 -9.2211666 -1.8579385
12.629844 -8.6386118 -1.8613119
13.254911 -7.7216702 -1.8659867
13.632783 -7.083921 -1.8688319
13.809649 -6.7577085 -1.8701701
13.978261 -6.4268746 -1.8714502
15.673994 -5.8738575 -2.0360935
15.819912 -5.4969373 -2.0372219
16.199755 -4.3444901 -2.0401993
16.306728 -3.953944 -2.0410528
16.490557 -3.1648424 -2.0425467
16.633877 -2.3669145 -2.0437529
16.690186 -1.9652863 -2.0442474
16.736181 -1.5622613 -2.0446682
16.771854 -1.15812 -2.0450156
16.797178 -0.75314087 -2.045289
16.812109 -0.34763303 -2.0454886
16.816631 0.058187254 -2.045614
16.794453 0.86954099 -2.0456412
16.767782 1.274516 -2.0455434
16.730732 1.6786139 -2.0453713
16.683331 2.0816236 -2.045125
16.557686 2.883178 -2.0444114
16.39122 3.6768866 -2.0434041
16.292831 4.0701518 -2.0427911
14.54955 5.1686296 -1.8781866
14.41375 5.5156131 -1.8772961
14.269179 5.8588591 -1.8763422
13.954238 6.5331802 -1.8742404
13.785937 6.8647528 -1.8733493
11.461406 6.4152617 -1.5977218
10.842021 6.4170022 -1.5325253
9.1381245 6.3436136 -1.3531526
8.6771479 6.3392901 -1.3071768
8.3689642 6.4295549 -1.2837584
7.5842676 6.4317508 -1.2096353
7.2245312 6.4327579 -1.1766837
6.2515965 6.4354753 -1.0913748
5.406045 6.4378314 -1.0225906
5.1468992 6.4385538 -1.0026791
4.6570849 6.4399161 -0.96673095
4.4248385 6.4405608 -0.95051616
3.717329 6.3508134 -0.89512813
3.1660302 6.43612 -0.87249416
2.6068749 6.437664 -0.84485364
2.4279199 6.4381561 -0.83698308
2.079375 6.4391141 -0.8230902
1.7414111 6.440043 -0.81150925
0.93032223 6.4422636 -0.79177338
0.61490721 6.4431252 -0.78731078
0.30232421 6.443975 -0.7847147
-0.0089453124 6.4448209 -0.78395629
-0.16453613 6.4452448 -0.7842629
-0.32032225 6.4456668 -0.78502578
-0.47651365 6.4460907 -0.78625
-0.63329589 6.4465127 -0.78793591
-0.94933105 6.4473686 -0.79272056
-1.1089697 6.4477997 -0.79583389
-1.2699707 6.4482327 -0.79943782
-1.4136376 6.3635941 -0.79294437
-2.4529247 6.4501667 -0.83942521
-2.6329737 6.4506464 -0.84751236
-3.0042772 6.4516397 -0.86570036
-3.8016651 6.4537663 -0.91112339
-4.0148878 6.4543328 -0.92461538
-4.4615378 6.4555192 -0.95454723
-5.1914454 6.4574552 -1.0078611
-6.0122657 6.4596257 -1.0734385
-6.3107471 6.460413 -1.0985664
-6.5534911 6.3927631 -1.1136407
-6.8622313 6.3780842 -1.139606
-7.683701 6.479527 -1.2226237
-8.9254389 6.4827933 -1.3418669
-9.3959274 6.4840298 -1.3886639
-9.9006929 6.4853559 -1.4397095
-12.128442 6.7444782 -1.6880914
-12.422456 6.1429009 -1.6857482
-12.559267 5.8377032 -1.6847011
-12.811508 5.2188897 -1.6827575
-12.92685 4.9055839 -1.681862
-13.034897 4.5899234 -1.6810179
-14.459658 3.9421673 -1.8230963
-14.752734 2.5267425 -1.8206787
-14.805674 2.1694396 -1.8202186
-14.850439 1.8111126 -1.8198168
-14.947436 0.37108764 -1.8187943
-14.933882 -0.71110713 -1.8186431
-14.912925 -1.07133 -1.8187103
-14.846396 -1.789946 -1.819021
-14.800879 -2.1479623 -1.8192642
-14.537343 -3.5676501 -1.8208213
-14.451269 -3.9185455 -1.8213558
-14.145059 -4.9589868 -1.8233049
-14.027134 -5.3011088 -1.8240689
-13.901386 -5.6405859 -1.8248892
-12.266591 -6.4172726 -1.683985
-11.62083 -7.5892973 -1.6883291
-11.4425 -7.8731279 -1.6895379
-11.066059 -8.4288235 -1.6920996
-10.868086 -8.7003622 -1.6934515
-10.87416 -10.57831 -1.8453819
-10.37059 -11.111557 -1.8488568
-9.841836 -11.621948 -1.8525168
-9.5682764 -11.868195 -1.8544145
-9.2888231 -12.108317 -1.8563555
-9.0035248 -12.342121 -1.8583399
-8.7125731 -12.569482 -1.8603662
-4.6128955 -7.806365 -1.102977
-6.8551364 -13.790769 -1.8733542
-6.1969824 -14.140254 -1.8779752
-5.1721482 -14.591798 -1.8831729
-4.0168796 -14.614146 -1.8436186
-3.3124511 -14.8151 -1.8466305
-2.9566064 -14.90402 -1.8482794
-1.8762988 -15.12381 -1.8537914
-1.5124267 -15.18124 -1.8558155
-0.77998048 -15.272065 -1.8601404
0.32808593 -15.3474 -1.8673102
1.071206 -15.356548 -1.8725363
1.4435742 -15.348699 -1.8752807
2.1891699 -15.307933 -1.8810287
2.5620263 -15.27497 -1.8840288
3.6472802 -14.99615 -1.8773348
3.9909179 -14.839867 -1.8692858
4.3535056 -14.758303 -1.8717027
5.4380322 -14.480183 -1.8815087
5.7968259 -14.371863 -1.8850687
6.1540332 -14.255759 -1.888773
6.5095115 -14.131833 -1.8926218
3.9212205 -7.9990082 -1.0836366
7.5639744 -13.71321 -1.9050267
7.9110351 -13.558059 -1.9094458
8.2555466 -13.395135 -1.9140054
9.6057711 -12.66562 -1.9336369
9.9355078 -12.463882 -1.938888
10.261816 -12.254444 -1.9442724
10.85582 -12.345853 -1.9997698
11.165625 -12.096564 -2.0024648
11.466924 -11.836622 -2.0046766
12.0504 -11.293715 -2.0089688
12.332227 -11.011008 -2.0110466
12.09542 -9.3188629 -1.8573387
12.553974 -8.7404108 -1.8607466
14.084394 -6.2073717 -1.8722585
14.816279 -6.1073108 -1.9493856
15.621631 -6.0024638 -2.0356901
15.910507 -5.2475128 -2.0379262
16.040518 -4.8644552 -2.0389426
16.160732 -4.4780269 -2.0398898
16.271093 -4.0884852 -2.0407674
16.461817 -3.3011608 -2.0423102
16.54208 -2.9038839 -2.0429742
16.671982 -2.1034811 -2.0440857
16.808153 -0.48704711 -2.0454285
16.813934 0.32455871 -2.0456557
16.801229 0.73018736 -2.0456576
16.778124 1.1353863 -2.0455856
16.744638 1.5398407 -2.045439
16.582207 2.7459033 -2.0445549
16.422714 3.5411518 -2.0435979
16.327772 3.9353032 -2.04301
14.945683 4.3750739 -1.8943114
14.594189 5.0485611 -1.8784781
14.169609 6.0819769 -1.875682
13.844727 6.7513113 -1.8736627
12.38247 6.4126725 -1.6962267
9.9193649 6.4195929 -1.4372512
9.4153509 6.4210062 -1.3862782
8.1010742 6.4303045 -1.2581304
7.7126169 6.4313922 -1.2215567
6.3558984 6.4351835 -1.1002259
5.497539 6.4375772 -1.0297595
5.2348337 6.4383097 -1.0093691
4.2765622 6.4409733 -0.94046229
3.5837011 6.351182 -0.88706803
3.3888037 6.3596501 -0.87656814
3.2325292 6.4359369 -0.87607479
3.0405614 6.4364667 -0.86590391
2.6691601 6.4374919 -0.84770805
2.4890478 6.4379888 -0.83961594
1.9673975 6.4394231 -0.81904155
1.4681445 6.4407916 -0.80356109
1.1445655 6.441679 -0.7958461
0.9849121 6.4421148 -0.79273182
0.8264209 6.4425483 -0.79010099
0.66887695 6.4429779 -0.78794241
0.51209962 6.4434052 -0.78625488
0.35589844 6.44383 -0.78502983
0.20010254 6.4442544 -0.78426421
0.044521485 6.4446759 -0.78395599
-0.26674315 6.4455218 -0.784711
-0.8947314 6.4472208 -0.79176354
-1.05396 6.4476495 -0.7947095
-1.2144775 6.4480829 -0.79814339
-1.3583251 6.3634439 -0.79149526
-1.5198535 6.3638787 -0.79588044
-1.8492138 6.3660088 -0.80637711
-2.0433447 6.4490681 -0.82290787
-2.570708 6.4504814 -0.84466016
-2.7531054 6.4509683 -0.85317785
-3.1297314 6.4519744 -0.87228912
-3.3246531 6.4524941 -0.88295096
-3.5245409 6.4530268 -0.89440626
-3.7298045 6.4535732 -0.90669602
-4.3827 6.4553103 -0.94910657
-4.6145897 6.4559245 -0.965294
-5.3623877 6.4579067 -1.0210614
-5.9128027 6.4593635 -1.0652102
-6.2065964 6.4601398 -1.0897272
-6.5144334 6.4609513 -1.1160655
-6.7487545 6.3777847 -1.1295097
-7.0846338 6.3786712 -1.1596153
-7.555244 6.4791875 -1.210694
-7.936235 6.4801908 -1.2463149
-8.3405561 6.4812555 -1.2848686
-8.7709131 6.4823871 -1.3266751
-9.2305422 6.4835954 -1.3721248
-10.252822 6.48628 -1.4757888
-10.824843 6.4877825 -1.5351347
-12.075415 6.8467584 -1.6885591
-12.513051 5.9429193 -1.6850554
-12.645205 5.6358232 -1.6840409
-12.77022 5.3260102 -1.6830771
-12.998584 4.6986699 -1.6813022
-13.202543 4.4151773 -1.6934048
-14.266904 4.3912749 -1.815798
-14.428452 4.0625553 -1.8233469
-14.668759 3.0049114 -1.8213879
-14.732646 2.6492963 -1.8208501
-14.788398 2.2923865 -1.8203703
-14.835966 1.9343927 -1.8199484
-14.875356 1.5754876 -1.819585
-14.929516 0.85568053 -1.8190331
-14.950795 0.13429444 -1.8187159
-14.921064 -0.94755918 -1.8186805
-14.894721 -1.3074365 -1.8187863
-14.860175 -1.6666534 -1.8189508
-14.817441 -2.025028 -1.8191738
-14.766533 -2.3823845 -1.8194559
-14.068564 -5.183804 -1.8237997
-13.375795 -6.0606298 -1.7862839
-12.316943 -6.3140554 -1.6836488
-12.168159 -6.613358 -1.684643
-12.012495 -6.9093475 -1.6856872
-11.504536 -7.7760162 -1.6891171
-11.321851 -8.0572939 -1.6903574
-10.734702 -8.8761711 -1.694364
-10.526245 -9.1403608 -1.6957926
-10.711753 -10.755726 -1.8465015
-10.199809 -11.281605 -1.8500377
-9.6629877 -11.784242 -1.8537571
-9.3855371 -12.026472 -1.8556836
-9.102231 -12.262475 -1.8576531
-8.2185106 -12.931516 -1.8638123
-6.6411767 -13.908746 -1.8748554
-6.3113718 -14.082334 -1.8771714
-5.6387157 -14.40667 -1.881902
-5.2956247 -14.555625 -1.884109
-4.9123778 -14.588613 -1.872488
-3.7868261 -14.683481 -1.8445648
-3.4342284 -14.782751 -1.8460858
-3.0791748 -14.874337 -1.847702
-2.7218506 -14.958154 -1.8494128
-2.0009422 -15.102247 -1.853117
-1.6377051 -15.162412 -1.8551091
-0.90627438 -15.258739 -1.8593712
-0.53844237 -15.294822 -1.8616394
-0.16939452 -15.322737 -1.8639987
0.9433105 -15.357336 -1.8716129
1.3155518 -15.352341 -1.8743277
2.060991 -15.317322 -1.8800164
2.8066258 -15.248777 -1.8860439
3.1780322 -15.196928 -1.8885686
3.5281103 -15.048667 -1.8801811
3.8732469 -14.89393 -1.8719826
4.5916796 -14.703444 -1.8737358
5.6736622 -14.409982 -1.8838285
7.7920117 -13.612275 -1.9079107
8.4802637 -13.283944 -1.9170746
9.1575003 -12.924527 -1.9267956
9.4916401 -12.733181 -1.9318632
9.8225384 -12.53409 -1.9370676
10.150048 -12.327277 -1.9424076
10.722148 -12.399767 -1.9940279
11.952031 -11.389174 -2.008244
12.236094 -11.109021 -2.0103376
12.51334 -10.821496 -2.0123837
12.013799 -9.4157934 -1.8567336
12.477187 -8.8415365 -1.860175
12.698144 -8.5454187 -1.8618211
13.316054 -7.6233153 -1.866446
13.863242 -6.6547751 -1.8705764
15.481884 -6.0966372 -2.0239997
16.120518 -4.6111851 -2.039572
16.234278 -4.2227263 -2.0404737
16.338116 -3.8312881 -2.0413051
16.515654 -3.040658 -2.0427544
16.589218 -2.6420398 -2.043371
16.652588 -2.2415323 -2.0439155
16.705673 -1.8394433 -2.0443866
16.802969 -0.62645626 -2.0453594
16.814638 -0.22079894 -2.0455358
16.815899 0.1850531 -2.0456378
16.787235 0.99620545 -2.0456188
16.717022 1.8047235 -2.0453024
16.666407 2.2073309 -2.0450332
16.605478 2.6084454 -2.0446897
16.453028 3.4050915 -2.0437832
16.361532 3.8001018 -2.0432203
15.380654 4.3642325 -1.944785
14.508046 5.277482 -1.877915
14.222236 5.9653616 -1.8760312
14.066347 6.3033562 -1.8749951
13.902519 6.6373005 -1.8739686
11.918847 6.4139762 -1.6464269
10.101318 6.4190826 -1.4558483
9.5845404 6.4205313 -1.4032947
8.9851751 6.3384271 -1.3375539
8.5662403 6.357935 -1.2976605
8.2400484 6.4299164 -1.2713841
7.8435836 6.431026 -1.2338066
7.4696679 6.4320722 -1.1990632
6.4619532 6.4348893 -1.1093044
5.5903125 6.4373188 -1.0371011
5.3239355 6.4380608 -1.0162195
4.8214402 6.4394598 -0.97853559
4.5836377 6.4401202 -0.96154284
4.3538132 6.4407573 -0.9456712
4.1313281 6.4413748 -0.93084729
2.1978612 6.4387884 -0.82759488
2.0259082 6.4392619 -0.82113087
1.5244092 6.440639 -0.80509216
1.199746 6.4415274 -0.79702985
0.88077635 6.442399 -0.7909503
0.72291988 6.4428287 -0.78863174
0.56591308 6.4432573 -0.78678274
0.25361815 6.444108 -0.78447568
0.09797851 6.4445319 -0.78401089
-0.21318847 6.4453764 -0.78445196
-0.36909178 6.4457974 -0.78535855
-0.5254541 6.4462223 -0.78672636
-0.84026855 6.447073 -0.79086208
-1.3031884 6.3632951 -0.79010344
-1.4641358 6.36373 -0.79431516
-1.7920361 6.3658562 -0.80444717
-2.331079 6.4498391 -0.83423489
-3.0637889 6.4517984 -0.86879867
-3.8676512 6.4539409 -0.91524076
-4.0828614 6.4545135 -0.92902809
-4.3047853 6.455102 -0.94379479
-4.5339842 6.4557123 -0.95960462
-6.1040869 6.4598684 -1.0811024
-6.6534519 6.3930254 -1.1224012
-7.4292331 6.4788556 -1.1990743
-7.8027682 6.4798408 -1.2337551
-8.1987839 6.4808817 -1.2712662
-9.0690765 6.4831705 -1.3560674
-9.5497952 6.4844341 -1.4041374
-12.021567 6.9486322 -1.6890321
-12.848339 5.1212187 -1.682472
-13.882773 4.3994513 -1.7714905
-14.396289 4.1826749 -1.8236041
-14.487226 3.8325031 -1.8228743
-14.770146 2.4151726 -1.8205286
-14.896748 1.339538 -1.819378
-14.940126 0.61904848 -1.8189032
-14.949492 0.25833741 -1.8187536
-14.950615 -0.1025 -1.818663
-14.94353 -0.46325561 -1.8186309
-14.928218 -0.8237561 -1.8186578
-14.872973 -1.5432556 -1.8188876
-14.833047 -1.901939 -1.8190907
-14.59186 -3.3253458 -1.8204875
-14.511309 -3.6775112 -1.8209822
-14.326108 -4.3761997 -1.822145
-14.221533 -4.722373 -1.8228128
-13.988682 -5.4075046 -1.8243191
-13.860439 -5.7461448 -1.8251575
-13.662876 -6.0546246 -1.8178523
-12.854145 -6.0714874 -1.7292491
-12.366469 -6.2104363 -1.6833187
-11.906568 -7.1017509 -1.6863998
-11.739541 -7.3919425 -1.6875263
-11.38539 -7.9610572 -1.6899257
-10.804912 -8.7843218 -1.6938834
-10.598623 -9.0500574 -1.6952963
-10.386054 -9.3112001 -1.6967547
-11.041284 -10.389973 -1.8442312
-10.797143 -10.663108 -1.8459126
-10.546582 -10.930766 -1.8476411
-10.289599 -11.192836 -1.8494167
-10.026362 -11.44917 -1.8512384
-9.4815674 -11.94394 -1.8550165
-8.6204681 -12.639196 -1.861008
-8.0186377 -13.069855 -1.8652084
-6.0925388 -14.192139 -1.8787093
-5.4143848 -14.506323 -1.8834815
-5.0528221 -14.60408 -1.8797876
-4.6029005 -14.420948 -1.8413757
-4.2566113 -14.538017 -1.8426718
-3.9074707 -14.647573 -1.844064
-3.5557323 -14.749487 -1.8455522
-3.2014892 -14.843733 -1.8471355
-2.4861865 -15.008904 -1.8505868
-2.1254053 -15.079719 -1.8524538
-1.762749 -15.142636 -1.8544139
-1.3983399 -15.197556 -1.8564672
-1.0324365 -15.244487 -1.8586121
0.073334962 -15.336628 -1.8655957
0.44401366 -15.351008 -1.8681034
0.81546873 -15.357127 -1.8707002
1.1875439 -15.354995 -1.8733847
1.9328369 -15.325715 -1.8790145
3.0510547 -15.218933 -1.8880938
3.7550633 -14.947678 -1.8747512
4.4669776 -14.732605 -1.8726628
5.5503321 -14.447163 -1.8826059
5.9086523 -14.336411 -1.886211
6.2652731 -14.217874 -1.8899599
8.0189552 -13.507966 -1.9108558
8.3626947 -13.342586 -1.9154598
8.7037792 -13.169432 -1.9202033
9.3771191 -12.799855 -1.9301052
9.7091303 -12.60342 -1.9352629
10.037851 -12.399267 -1.9405564
10.954922 -12.27067 -2.0009198
11.260449 -12.016179 -2.0031607
11.559814 -11.75382 -2.0053592
11.852812 -11.483754 -2.0075138
12.139238 -11.206144 -2.0096233
12.691455 -10.62893 -2.0137
11.931328 -9.5120258 -1.8561223
12.168945 -9.230092 -1.8578842
12.39957 -8.9419775 -1.8595974
13.047792 -8.0424118 -1.8644339
13.248759 -7.7314358 -1.8659407
13.627168 -7.0939898 -1.8687894
13.804257 -6.7679772 -1.870129
13.973134 -6.4372873 -1.8714112
14.169326 -6.1176023 -1.8773626
15.127031 -6.1023374 -1.9841589
15.669296 -5.8855371 -2.0360572
15.952177 -5.1281495 -2.0382514
16.196299 -4.356585 -2.0401719
16.400801 -3.5729678 -2.0418119
16.565077 -2.7793028 -2.0431671
16.688593 -1.9778214 -2.0442331
16.811094 0.45132628 -2.0456643
16.76878 1.2618731 -2.0455477
16.55999 2.8707433 -2.044425
16.4821 3.2687895 -2.0439599
16.394131 3.6646283 -2.043422
15.844697 4.3541617 -1.9988238
14.797997 4.4532843 -1.8797975
14.418096 5.5048599 -1.8773248
14.120898 6.1876349 -1.8753582
12.15831 6.4133039 -1.6720959
11.481621 6.4152045 -1.5998639
10.860615 6.4169497 -1.5344696
9.7579298 6.4200459 -1.4208351
8.6908007 6.339252 -1.3085144
7.9771676 6.4306512 -1.2463863
7.2354684 6.4327273 -1.1776758
6.8940625 6.433681 -1.1470495
5.9663033 6.4362726 -1.0675552
5.4142871 6.4378095 -1.0232335
5.154819 6.4385319 -1.003279
4.6644678 6.4398966 -0.96725535
4.207036 6.441165 -0.93583065
3.9323387 6.3502178 -0.90855968
3.5209131 6.3513565 -0.88335693
3.3275487 6.3598199 -0.87310851
2.9814501 6.4366312 -0.8628754
2.6125195 6.4376483 -0.84511018
2.4334667 6.4381399 -0.8372196
2.0847216 6.4390998 -0.82328808
1.9144628 6.4395685 -0.81720108
1.7466063 6.4400296 -0.81167251
1.0945263 6.4418159 -0.79482055
0.9352783 6.4422503 -0.79185849
0.77709472 6.4426813 -0.78937572
0.4632324 6.4435382 -0.78582257
0.30718261 6.4439631 -0.78474122
-0.0040966794 6.444809 -0.78395432
-0.31547362 6.4456534 -0.78499526
-0.62838376 6.4465008 -0.78787613
-0.9443652 6.4473538 -0.7926324
-1.1039746 6.4477849 -0.79572856
-1.7348046 6.3644571 -0.80242646
-1.9014404 6.3661504 -0.80818915
-2.2707176 6.449677 -0.83174908
-2.6273193 6.4506316 -0.84725022
-2.8108788 6.4511223 -0.85597807
-3.1901414 6.4521356 -0.87553859
-3.5881004 6.453196 -0.89815581
-3.7951367 6.4537492 -0.9107179
-4.0081739 6.4543142 -0.92418331
-4.6886964 6.4561224 -0.97058314
-4.9314842 6.4567657 -0.98828781
-5.1834373 6.4574323 -1.0072498
-5.445405 6.458128 -1.0275619
-6.0032129 6.4596014 -1.0726879
-6.3012595 6.4603887 -1.0977587
-6.5436425 6.392736 -1.1127793
-8.0599556 6.4805169 -1.2580334
-9.995122 -6.1991348 -1.7002599
-9.8483639 -6.4422894 -1.7012527
-9.2051849 -7.3804874 -1.705632
-9.0307274 -7.605813 -1.7068264
-8.8509369 -7.8271747 -1.7080601
-8.6659374 -8.0444689 -1.7093316
-8.2805519 -8.4663677 -1.7119879
-7.66541 -9.0656862 -1.7162446
-7.2317381 -9.4415255 -1.7192563
-7.6104932 -10.449031 -1.868724
-7.3629346 -10.639462 -1.8704487
-6.8539987 -11.003187 -1.8740007
-6.3275194 -11.343315 -1.8776834
-6.0580173 -11.504255 -1.8795717
-5.7845359 -11.659002 -1.8814896
-5.5071921 -11.807391 -1.8834367
-5.2261181 -11.949368 -1.885412
-4.3038087 -12.171096 -1.86624
-3.1182323 -12.559858 -1.8707989
-2.206543 -12.781726 -1.875083
-1.2795508 -12.942374 -1.8800951
-0.96779293 -12.982088 -1.8819253
-0.65489256 -13.014868 -1.8838335
-0.34098142 -13.040612 -1.8858203
0.28924805 -13.070947 -1.8900247
0.9217822 -13.072868 -1.8945323
2.5052636 -12.952111 -1.9070852
2.8211131 -12.906272 -1.9098086
3.1363232 -12.853209 -1.9126006
3.4507227 -12.792882 -1.9154601
4.6971922 -12.478996 -1.9275526
5.31146 -12.278591 -1.9339737
5.6157908 -12.167563 -1.9372729
3.9038525 -7.9484558 -1.2801532
4.0271239 -7.7226682 -1.2590787
6.5155272 -11.79143 -1.9475117
6.8104882 -11.651795 -1.951033
7.1026363 -11.505088 -1.9546059
7.3919044 -11.351336 -1.9582292
7.9609079 -11.022901 -1.965619
8.2403412 -10.848312 -1.9693823
8.7882032 -10.478655 -1.977037
8.8346577 -9.1058064 -1.8340957
9.2802925 -8.684433 -1.8373754
9.4953613 -8.4652557 -1.838962
10.107715 -7.7753062 -1.8434939
10.667734 -7.0396433 -1.8476628
12.615156 -5.9158378 -2.0142345
13.268564 -4.3650889 -2.0192568
13.474483 -3.7227881 -2.020875
13.565264 -3.3977504 -2.0215979
13.845361 -2.0767746 -2.023901
13.894375 -1.7424325 -2.0243278
14.005234 -0.39528623 -2.0254283
14.011553 -0.057211302 -2.0255508
13.998388 0.61893004 -2.0256116
13.978965 0.95652831 -2.0255501
13.914424 1.6296436 -2.0252433
13.81583 2.2984846 -2.0246923
13.753857 2.6307495 -2.0243256
13.683467 2.9612622 -2.0238986
13.604746 3.2898138 -2.0234115
13.517735 3.6161895 -2.0228646
13.422509 3.9401555 -2.0222588
12.052334 4.5080643 -1.8601977
11.810644 5.0799723 -1.8586023
11.679091 5.3609796 -1.8577271
10.919355 6.7097988 -1.8527247
9.9027538 6.4193997 -1.7060325
9.3999214 6.4208183 -1.6456267
7.334609 6.4322529 -1.4102762
6.9880857 6.4332266 -1.3731065
6.0477099 6.4358659 -1.2766948
5.7623682 6.4366655 -1.248895
5.489038 6.4374309 -1.2229786
4.7312012 6.4395475 -1.1551546
4.2694874 6.4408364 -1.1170871
4.0496044 6.4414496 -1.0999177
3.3826075 6.3595209 -1.0412987
3.2264061 6.4358072 -1.0407346
2.8470507 6.4368596 -1.0174794
2.4834423 6.4378643 -0.99751157
2.3067431 6.4383526 -0.98867106
1.9620653 6.439301 -0.97312772
1.7935693 6.439765 -0.96637386
1.4630225 6.4406719 -0.95479107
1.3005078 6.4411197 -0.94992673
1.1395557 6.4415593 -0.94566005
0.8214795 6.4424295 -0.93886662
0.50721192 6.4432864 -0.93433166
0.35103515 6.4437127 -0.93289292
0.19525391 6.4441361 -0.9320001
0.039672852 6.4445586 -0.93165123
-0.11588379 6.4449821 -0.93184566
-0.27159667 6.4454031 -0.93258327
-0.58420408 6.4462504 -0.93569809
-0.74148434 6.4466753 -0.93808436
-0.8996582 6.4471025 -0.94103163
-1.058916 6.4475322 -0.94455045
-1.363291 6.3633256 -0.94076508
-1.5248828 6.363759 -0.94599593
-1.6883788 6.3641987 -0.95184249
-2.221499 6.4494071 -0.98609412
-2.5762792 6.4503555 -1.0040964
-2.7587841 6.4508414 -1.0142424
-2.9451268 6.4513383 -1.0252006
-3.3307323 6.452364 -1.0497073
-3.5307665 6.4528947 -1.0633485
-3.7361963 6.4534392 -1.0779862
-3.9474804 6.4540005 -1.0936788
-4.3897119 6.4551702 -1.1284949
-4.6218357 6.4557829 -1.1477718
-5.1114402 6.4570756 -1.1905099
-5.3704882 6.4577579 -1.2141855
-6.215786 6.459981 -1.2959628
-6.5240622 6.4607916 -1.3273339
-6.7587547 6.3776226 -1.3433703
-7.0951805 6.3785052 -1.3792338
-7.5665526 6.4790154 -1.4400421
-7.9481931 6.4800138 -1.482474
-9.6606445 6.7748356 -1.7057476
-9.8138275 6.5347443 -1.704445
-10.104834 6.0459247 -1.7022809
-10.241568 5.7967997 -1.7012471
-10.372421 5.5447197 -1.7002547
-10.61625 5.0322895 -1.6983955
-10.835903 4.5097113 -1.696707
-11.340102 4.4015899 -1.7585057
-11.979179 4.3200126 -1.840901
-12.075019 4.0280304 -1.8401495
-12.164042 3.7340252 -1.8394462
-12.321596 3.1406145 -1.838185
-12.627914 1.3278656 -1.8355817
-12.654497 1.0225958 -1.8353219
-12.686538 0.4107489 -1.834953
-12.692001 0.10446106 -1.8348438
-12.666133 -0.81392395 -1.8348181
-12.643442 -1.1194043 -1.8349103
-12.482588 -2.3339598 -1.8357811
-12.360386 -2.9347093 -1.8365164
-12.210595 -3.5294681 -1.8374503
-12.12544 -3.8242188 -1.8379909
-12.033471 -4.1170349 -1.8385807
-11.93476 -4.4077506 -1.8392193
-11.341489 -5.8247628 -1.8431326
-11.128154 -6.0589566 -1.8317033
-10.539516 -6.0726919 -1.7584292
-9.5928173 -6.8376713 -1.7029873
-9.2639112 -7.3021545 -1.7052304
-8.5417185 -8.1848078 -1.7101868
-8.3482075 -8.3950987 -1.7115209
-7.738071 -8.9991407 -1.7157409
-7.5251269 -9.1911621 -1.7172179
-7.3075633 -9.3783236 -1.7187293
-7.4485397 -10.574634 -1.8698519
-7.1979198 -10.761353 -1.8715996
-4.6535153 -7.7411723 -1.3057384
-6.4191942 -11.286579 -1.8770416
-6.1511083 -11.449641 -1.8789191
-5.8789649 -11.606515 -1.8808272
-3.8175244 -12.344772 -1.8679663
-3.5206883 -12.440962 -1.8691192
-2.6170166 -12.689846 -1.8730732
-2.0049365 -12.822137 -1.8761178
-0.76256347 -13.004387 -1.8831689
-0.44899902 -13.032558 -1.8851286
-0.13450195 -13.053694 -1.8871659
0.18074219 -13.067749 -1.8892802
1.7633495 -13.031147 -1.9009768
2.0801122 -13.002275 -1.9035356
2.3965771 -12.966188 -1.9061651
2.7126122 -12.922849 -1.9088647
3.0280712 -12.872277 -1.9116333
3.6565576 -12.749341 -1.9173732
4.2808104 -12.59737 -1.9233758
4.5909519 -12.510532 -1.9264735
5.2064109 -12.31509 -1.9328531
5.5114059 -12.20654 -1.9361323
5.8143845 -12.090788 -1.9394697
6.7093844 -11.700603 -1.9498166
7.2928319 -11.40497 -1.9569784
7.5800486 -11.246633 -1.9606332
7.8640623 -11.081322 -1.9643356
8.1446972 -10.909099 -1.9680837
8.4217672 -10.730015 -1.9718755
8.9646187 -10.351475 -1.9795841
8.5241604 -9.3758078 -1.8318161
8.7560644 -9.1758852 -1.8335184
9.4220114 -8.5412235 -1.8384205
9.633584 -8.3184252 -1.8399829
9.8396578 -8.0902166 -1.8415072
10.234815 -7.6181431 -1.8444378
10.423613 -7.3745604 -1.8458422
10.606338 -7.1261191 -1.8472042
10.782929 -6.8729954 -1.8485236
11.117031 -6.353312 -1.8510293
11.322324 -6.1130199 -1.8601025
11.982754 -6.1008139 -1.9438385
12.711914 -5.7173786 -2.014971
12.986504 -5.1026988 -2.0170734
13.229921 -4.4743414 -2.0189557
13.441406 -3.8339312 -2.0206132
13.53499 -3.5097482 -2.0213561
13.620361 -3.1831758 -2.0220406
13.697441 -2.8544521 -2.0226665
13.826572 -2.191376 -2.0237405
13.878486 -1.8574966 -2.0241878
13.921933 -1.5223285 -2.0245752
13.956855 -1.1861273 -2.0249014
13.983232 -0.8490814 -2.0251672
14.003096 0.50278562 -2.0256186
13.927958 1.5142199 -2.0253136
13.88582 1.8496886 -2.0250893
13.776103 2.5167346 -2.0244586
13.708603 2.8478796 -2.0240521
13.632753 3.1771228 -2.0235858
13.456182 3.8290837 -2.0224738
12.917285 4.3596587 -1.9708351
11.854209 4.9825983 -1.8588912
11.445918 5.8185296 -1.8561662
11.296035 6.0897489 -1.8551577
11.139433 6.3569341 -1.8541003
10.976553 6.6201496 -1.8530493
7.8313575 6.4308538 -1.464902
6.7703609 6.4338369 -1.3501773
6.4520602 6.4347305 -1.3172953
6.1487598 6.4355826 -1.2867123
5.8590331 6.4363933 -1.2582295
5.5816894 6.437171 -1.2316831
4.8137841 6.4393167 -1.1622374
4.3466845 6.4406204 -1.1232651
4.1244187 6.4412408 -1.1056871
3.1000097 6.4361577 -1.0327215
2.7261329 6.4371939 -1.0105784
2.3671288 6.4381843 -0.99162656
2.1924219 6.4386673 -0.98326373
2.0205469 6.4391398 -0.97560406
1.8512206 6.4396062 -0.96862119
1.5192724 6.4405179 -0.95660329
1.1947168 6.4414091 -0.9470607
1.0346631 6.4418464 -0.94317693
0.87582517 6.4422808 -0.93987167
0.40466797 6.4435663 -0.93332499
0.24876465 6.4439907 -0.93224531
0.093134761 6.4444146 -0.93171036
-0.37395018 6.4456806 -0.93336296
-0.53032225 6.446105 -0.93500471
-0.84517574 6.4469547 -0.93995452
-1.3081542 6.3631778 -0.9391064
-1.4691406 6.3636112 -0.94412863
-1.631958 6.3640485 -0.94976342
-1.7971728 6.3657341 -0.9562093
-2.1617725 6.4492483 -0.98329395
-2.3365135 6.4497137 -0.9916755
-2.6956494 6.4506717 -1.010666
-2.880625 6.4511662 -1.0213392
-3.8741698 6.4538054 -1.0881624
-4.0895801 6.4543767 -1.1045825
-4.5411572 6.4555707 -1.1409966
-4.7785788 6.4561968 -1.1611559
-5.8235006 6.4589505 -1.2571962
-6.1131492 6.4597125 -1.2856905
-6.6633105 6.3928642 -1.334892
-6.9775391 6.3781977 -1.3665978
-7.8145065 6.4796648 -1.4675153
-8.2112446 6.4807024 -1.5122021
-8.6331348 6.4818072 -1.5606285
-9.7618017 6.6176395 -1.7048886
-10.19523 5.8827667 -1.7015977
-10.32811 5.6316886 -1.7005911
-10.455073 5.3777456 -1.699626
-10.799902 4.6001959 -1.6969848
-11.860518 4.3887224 -1.8281969
-12.042847 4.1286249 -1.8404024
-12.21876 3.5400724 -1.8390111
-12.29647 3.2430725 -1.8383878
-12.367285 2.9444854 -1.8378137
-12.431191 2.6444194 -1.8372885
-12.488139 2.3430443 -1.8368127
-12.538139 2.0405321 -1.8363861
-12.581152 1.7370086 -1.8360095
-12.6681 0.82196838 -1.8351787
-12.690928 0.20974609 -1.8348755
-12.691762 -0.096560054 -1.8347994
-12.685556 -0.40280455 -1.8347735
-12.672304 -0.70883054 -1.8347982
-12.624726 -1.319585 -1.8349981
-12.500795 -2.2302055 -1.8356749
-12.445541 -2.5316784 -1.8360004
-12.383359 -2.8318579 -1.8363758
-12.314258 -3.1305847 -1.8368011
-12.238305 -3.4277322 -1.8372755
-12.155478 -3.7231212 -1.8377994
-12.065845 -4.0166254 -1.8383725
-11.640082 -5.1687002 -1.8411498
-11.38748 -5.7295327 -1.8428258
-10.736494 -6.0681152 -1.7828323
-9.9498529 -6.2754931 -1.7005658
-9.8013277 -6.5176182 -1.7015713
-9.6471043 -6.7563891 -1.7026182
-9.487319 -6.9916954 -1.7037057
-9.3219967 -7.2233834 -1.7048336
-9.1512356 -7.4513445 -1.706001
-8.9751024 -7.675436 -1.7072079
-8.7936716 -7.8955441 -1.7084535
-8.6070461 -8.1115417 -1.7097371
-8.2185011 -8.5307283 -1.7124165
-7.284585 -10.69783 -1.8709949
-7.0309472 -10.880774 -1.8727648
-6.7728515 -11.057915 -1.8745679
-6.2437205 -11.394275 -1.8782704
-5.972959 -11.553306 -1.880168
-5.6982565 -11.706057 -1.8820953
-5.1375241 -11.992421 -1.886035
-4.508379 -12.106704 -1.8675793
-3.6229639 -12.408635 -1.8687137
-3.3246336 -12.500531 -1.869921
-3.0240674 -12.585799 -1.8712109
-2.110625 -12.80135 -1.8755714
-1.802627 -12.859616 -1.8771873
-1.4931201 -12.91103 -1.8788831
-1.1822363 -12.955527 -1.8806586
-0.87010252 -12.993093 -1.8825133
0.38798338 -13.073132 -1.8907092
0.70419431 -13.075427 -1.8929492
1.0207568 -13.070588 -1.8952637
1.9712646 -13.013015 -1.9026481
2.2878418 -12.979399 -1.9052534
2.6040528 -12.938552 -1.9079292
2.9197168 -12.890469 -1.9106741
3.2346923 -12.835132 -1.9134872
3.861953 -12.702671 -1.9193145
4.1738768 -12.625559 -1.9223258
4.4845166 -12.541201 -1.9254017
4.7936425 -12.44959 -1.9285401
5.4068017 -12.244658 -1.9349988
5.7104831 -12.131392 -1.9383161
6.6080174 -11.748541 -1.9486068
6.9021091 -11.606698 -1.9521444
7.4816794 -11.301834 -1.9593716
7.7667966 -11.13893 -1.9630579
8.0486135 -10.969072 -1.9667904
8.6016111 -10.60878 -1.9743872
8.8724413 -10.418439 -1.9782481
8.9056244 -9.0414705 -1.8346174
9.1293945 -8.8318481 -1.8362639
9.3480854 -8.6165247 -1.8378754
10.359375 -7.4588389 -1.845364
10.544209 -7.2120571 -1.8467408
10.722929 -6.9605284 -1.848075
11.061436 -6.4438615 -1.8506113
11.220986 -6.1790748 -1.8518116
11.749169 -6.1051517 -1.9140987
12.449433 -6.0920844 -2.0036387
12.80542 -5.5172758 -2.0156848
12.941513 -5.209372 -2.0167274
13.407363 -3.9447715 -2.0203447
13.503759 -3.6214659 -2.0211072
13.591933 -3.2956827 -2.0218117
13.671875 -2.9676659 -2.0224578
13.861582 -1.9724313 -2.0240407
13.907948 -1.6376742 -2.0244489
13.945801 -1.3017895 -2.024796
14.008115 -0.28965452 -2.0254729
14.011747 0.048480835 -2.0255764
14.006777 0.38661131 -2.0256183
13.993252 0.72450745 -2.025599
13.971132 1.0619433 -2.0255184
13.940469 1.3986621 -2.0253766
13.853544 2.0691943 -2.0249093
13.732763 2.734237 -2.0241988
13.659756 3.0641649 -2.0237529
13.578437 3.392066 -2.023247
13.488857 3.7177203 -2.022682
13.253994 4.3511348 -2.0166264
12.315087 4.3748441 -1.8892878
11.495869 5.724411 -1.8565015
11.34833 5.9969573 -1.8555099
11.033076 6.5300369 -1.8533802
8.6768456 6.3390727 -1.5534335
7.2242966 6.4325614 -1.3983566
6.5596972 6.4344292 -1.3283274
5.9571729 6.4361186 -1.2677943
5.4059033 6.4376616 -1.2152393
5.1467624 6.4383869 -1.191577
4.8974071 6.439085 -1.1694884
4.6569676 6.439755 -1.1488583
4.4247313 6.4404035 -1.1295891
3.5145996 6.3512273 -1.0493454
3.3244922 6.3656206 -1.0381619
2.9755321 6.4365029 -1.0250864
2.7892528 6.4370184 -1.0141484
2.427876 6.4380169 -0.99466962
2.0793309 6.4389787 -0.97815913
1.575747 6.4403629 -0.958489
1.4120361 6.4408121 -0.95320541
0.93029785 6.442132 -0.9409439
0.61489254 6.4429936 -0.93563992
0.45835936 6.4434195 -0.93382263
-0.0089404294 6.4446902 -0.93165451
-0.47650877 6.44596 -0.9343788
-0.94931149 6.4472356 -0.94206959
-1.1089501 6.4476666 -0.94576842
-1.2699462 6.448101 -0.95005155
-1.4136132 6.363461 -0.94233549
-1.5757763 6.3638983 -0.94775707
-1.7399023 6.3643365 -0.95379955
-1.9066113 6.3660297 -0.96066874
-2.6329198 6.4505057 -1.007182
-2.8165965 6.4509954 -1.0175787
-3.0042088 6.4514956 -1.028796
-3.39271 6.4525285 -1.0538676
-3.8015819 6.4536138 -1.0827764
-5.4535937 6.4579763 -1.2219273
-5.7268553 6.4586968 -1.2478575
-6.5533056 6.3925762 -1.3234389
-8.0721626 6.4803386 -1.4964377
-9.5520506 6.9378996 -1.7066648
-9.7091208 6.7001457 -1.7053365
-9.860918 6.4592986 -1.7041179
-10.007451 6.2154202 -1.7030152
-10.148189 5.9683795 -1.7019534
-10.763149 4.6904044 -1.697268
-10.868027 4.4271894 -1.6964586
-12.270536 3.3453441 -1.8385965
-12.34373 3.0472729 -1.8380054
-12.521752 2.1446385 -1.8365271
-12.567158 1.8414367 -1.8361334
-12.605561 1.5373363 -1.8357894
-12.636977 1.2325152 -1.8354951
-12.661357 0.92707455 -1.835251
-12.678696 0.62119079 -1.8350571
-12.688993 0.3150177 -1.8349135
-12.692261 0.0087084956 -1.8348199
-12.65979 -0.90946591 -1.8348416
-12.518168 -2.1263161 -1.8355746
-12.465327 -2.4282033 -1.8358828
-12.405502 -2.7288377 -1.8362412
-12.338784 -3.0280945 -1.8366493
-12.265185 -3.3257797 -1.8371069
-12.184716 -3.6217914 -1.8376139
-12.097412 -3.9159644 -1.8381702
-12.00334 -4.2081461 -1.8387752
-11.902529 -4.498189 -1.8394288
-11.560078 -5.3539557 -1.8416789
-11.432758 -5.6339569 -1.8425242
-11.29894 -5.9110513 -1.8434167
-10.939013 -6.0633883 -1.8080478
-9.700757 -6.6746988 -1.7022537
-9.5428753 -6.9112177 -1.7033273
-9.2105465 -7.3734221 -1.7055953
-8.8566256 -7.8203363 -1.708021
-8.671772 -8.0377645 -1.7092917
-8.4817677 -8.2510071 -1.7105999
-8.2866993 -8.459938 -1.7119454
-8.0866547 -8.6644392 -1.7133276
-7.6720166 -9.0596724 -1.7161988
-7.4576073 -9.2501888 -1.7176868
-7.3707128 -10.633603 -1.8703946
-7.1186423 -10.818549 -1.8721527
-4.6160154 -7.8116488 -1.3116919
-5.7931151 -11.654273 -1.8814294
-5.5158787 -11.80288 -1.8833758
-5.2349267 -11.945065 -1.88535
-4.9503856 -12.080701 -1.8873515
-4.6426072 -12.157817 -1.8813415
-4.0201902 -12.274846 -1.8672221
-3.7249901 -12.375546 -1.8683178
-3.4274316 -12.469687 -1.8694966
-3.1276317 -12.557238 -1.8707581
-2.8257079 -12.638132 -1.8721019
-2.5218163 -12.712299 -1.8735278
-1.9086816 -12.840364 -1.8766226
-1.2892431 -12.94101 -1.8800395
-0.97751462 -12.980966 -1.8818671
-0.6646533 -13.013939 -1.8837732
-0.35079101 -13.039909 -1.8857572
-0.036049806 -13.058852 -1.8878186
0.27941895 -13.070692 -1.8899568
1.5455225 -13.046811 -1.8992596
1.8623925 -13.0229 -1.901769
2.4954247 -12.95341 -1.9070016
3.1265137 -12.854965 -1.9125127
3.4409521 -12.794858 -1.9153703
4.6875682 -12.481879 -1.9274545
4.9956493 -12.38553 -1.9306332
5.6063523 -12.171134 -1.9371694
4.0168161 -7.7170367 -1.2576673
6.8013377 -11.656255 -1.9509225
7.3829198 -11.356237 -1.9581153
7.9521484 -11.028227 -1.9655024
8.231699 -10.853848 -1.9692645
8.7797852 -10.484621 -1.9769164
8.5971479 -9.3139524 -1.8323517
8.8275681 -9.1121759 -1.8340437
9.0530462 -8.9045534 -1.8357018
9.2734861 -8.6911707 -1.8373252
