# .PCD v0.7 - Point Cloud Data file format
VERSION 0.7
FIELDS x y z
SIZE 4 4 4
TYPE F F F
COUNT 1 1 1
WIDTH 1498
HEIGHT 1
VIEWPOINT 0 0 0 1 0 0 0
POINTS 1498
DATA ascii
10.26976 -22.898415 1.485301
10.70269 -22.400425 1.4693208
11.180132 -22.01808 1.4615108
12.350405 -21.666235 1.4760191
15.295033 -21.671717 1.5699079
16.09231 -21.672228 1.5976053
16.918736 -21.67276 1.6272657
19.606655 -21.6812 1.7300794
17.291626 -8.3450756 1.1363482
18.46064 -7.3150144 1.1752412
10.044623 6.3468342 0.70322144
9.1399851 6.4121537 0.66079301
7.8669286 6.4156375 0.6008026
7.1369576 6.4176359 0.56805843
6.8006492 6.4185576 0.55345547
5.0180616 6.3396516 0.47852615
4.7993212 6.3733697 0.47219527
4.6033349 6.430202 0.46804047
4.3731003 6.4308343 0.46027175
3.5203075 6.4331818 0.43402448
3.3215184 6.4337273 0.42852995
2.9381299 6.4347858 0.41866425
2.7527783 6.4352961 0.41425535
2.5711865 6.4357963 0.41017455
2.3930273 6.4362893 0.40640715
2.0458448 6.4372463 0.39976546
1.8762792 6.4377165 0.39686781
1.3807129 6.439086 0.38975859
1.219126 6.4395342 0.38789275
0.74227047 6.440855 0.38372374
0.58527833 6.4412909 0.38279709
0.11589355 6.3508697 0.37593749
-0.81861329 6.4372625 0.38405609
-1.1365576 6.4381485 0.38693205
-1.2975147 6.4385967 0.38872772
-1.6244189 6.4395099 0.39306015
-2.1306739 6.4409246 0.4015213
-2.8460791 6.442924 0.41687056
-3.0341015 6.4434528 0.42151731
-3.6259081 6.4451089 0.43767393
-4.0477538 6.4462919 0.45050138
-4.2683692 6.4469123 0.45760864
-4.4961619 6.4475517 0.46521819
-4.9760303 6.4488993 0.48208985
-5.1604443 6.3643804 0.48494095
-5.7669578 6.4498796 0.51207292
-6.053906 6.4506865 0.52358049
-6.3542576 6.4515314 0.53593731
-6.6692867 6.4524188 0.54921764
-8.1097507 6.4564762 0.61350954
-11.120332 6.4804654 0.76175779
-11.767056 6.4822917 0.79511577
-12.473447 6.4842863 0.8320334
-16.560284 -7.2595596 1.0701557
-16.949472 -7.9229198 1.1073384
-16.303408 -8.1057014 1.0775932
-15.704296 -8.2861481 1.0509024
-18.365171 -21.833927 1.6885886
-16.636049 -21.83482 1.6246439
-15.812954 -21.827234 1.5952241
-13.575629 -21.916243 1.5257978
-12.898086 -21.990191 1.5088444
-11.650942 -22.258736 1.4869395
-11.146406 -22.605793 1.4917167
-10.739497 -23.173609 1.5116514
-10.385908 -25.576769 1.633805
0.0018066405 -7.6189775 0.45092925
0.37716797 -7.7734165 0.46061033
0.71911621 -7.4112167 0.4406929
0.97510737 -8.0293684 0.4787088
1.1823437 -8.0983553 0.48438156
10.947876 -22.176672 1.4637517
11.449917 -21.849461 1.4599607
12.714008 -21.652792 1.4861085
13.444164 -21.681023 1.5098702
14.931597 -21.671478 1.5575962
16.528568 -21.67251 1.613148
19.166351 -21.680849 1.7126951
20.11931 -21.681614 1.7506208
17.355288 -8.1026239 1.133603
17.631245 -7.7190914 1.1391309
8.0499945 6.4151349 0.60922104
7.6644287 6.4161921 0.5915854
7.3003955 6.4171882 0.57527035
6.9556885 6.4181328 0.56014693
6.0200243 6.4206977 0.52091521
5.1351318 6.3393316 0.48284394
4.25354 6.4311638 0.4563472
4.03438 6.431767 0.44935256
3.8217039 6.4323516 0.44282258
3.4138134 6.4334745 0.43105072
3.2176709 6.4340153 0.42576003
3.0261767 6.4345427 0.42084181
2.8389404 6.4350591 0.41627347
2.6556299 6.4355645 0.41204208
2.4758935 6.4360614 0.4081305
2.1259716 6.437027 0.40121475
1.7869629 6.437963 0.39543578
1.6208837 6.4384222 0.39294693
1.1336865 6.4397697 0.38699812
0.65856934 6.4410882 0.38320145
-0.27231932 6.3519473 0.37628385
-0.42656738 6.3603067 0.37727919
-0.58794433 6.4366202 0.38253585
-0.74493653 6.4370575 0.38351744
-1.0618114 6.4379401 0.38617507
-1.22208 6.4383869 0.38785812
-1.3838671 6.4388385 0.38978302
-1.7127539 6.4397564 0.39438507
-2.9456835 6.4432025 0.41930115
-3.1360009 6.443737 0.42413726
-3.3308544 6.4442825 0.42933762
-3.7358837 6.4454169 0.44091719
-3.9469383 6.4460101 0.44734192
-4.1643896 6.4466205 0.45422575
-4.3887448 6.4472504 0.46159667
-4.8607516 6.448576 0.47793761
-5.9181933 6.4503045 0.51810014
-7.1841159 6.4538689 0.57156724
-7.543613 6.4548821 0.58760571
-10.238403 6.462482 0.71657425
-10.669379 6.3799052 0.73574889
-12.1352 6.4833317 0.81429625
-26.583309 -7.6802416 1.6376829
-17.814219 -7.068635 1.1343032
-17.371191 -7.3826714 1.1171093
-16.594467 -8.0183392 1.0907866
-18.78931 -21.833603 1.7048417
-17.891937 -21.834631 1.6707268
-17.02976 -21.836269 1.6389369
-16.195898 -21.833344 1.608917
-15.384785 -21.820784 1.5801759
-10.559361 -23.573994 1.5287989
-10.428149 -24.872507 1.5962285
-10.325064 -26.394585 1.677429
0.10154296 -7.7607336 0.45935774
0.64184082 -7.4929142 0.44509199
1.0848535 -8.0658455 0.48167524
9.57271 -26.159433 1.6486497
9.597456 -24.387583 1.5511378
10.295473 -22.859516 1.4838258
11.212426 -21.99604 1.4612013
11.761899 -21.760235 1.4639738
13.098295 -21.664953 1.4983674
14.573881 -21.671251 1.5456657
15.346049 -21.671747 1.5716544
16.973558 -21.672798 1.62925
18.734838 -21.680502 1.6958741
16.530756 -8.4426765 1.0985858
17.567856 -7.9285984 1.1407391
18.119976 -7.6571941 1.1642529
10.044692 6.3689508 0.7039265
10.045728 6.714726 0.71514481
8.2382269 6.4146209 0.61795318
7.8418503 6.4157047 0.5996576
7.4680223 6.416729 0.5827409
5.8672605 6.4211164 0.51478928
5.5897803 6.4218779 0.50389248
5.0019288 6.3396964 0.47793806
4.7993894 6.3943157 0.47318831
4.5881104 6.4302444 0.4675183
3.9203465 6.4320807 0.44581908
3.5072119 6.433218 0.43365538
3.3087645 6.433764 0.42818525
3.1151319 6.4342961 0.42309615
2.7408741 6.4353299 0.41397995
2.2067139 6.4368033 0.40272644
1.8653271 6.437747 0.39668763
1.6982569 6.4382071 0.39407745
1.5332763 6.4386649 0.39172745
1.3701465 6.4391155 0.38962951
0.26297852 6.4421854 0.38159698
0.10592285 6.3508964 0.37592894
-0.047290038 6.3513227 0.37591246
-0.20058593 6.3517475 0.37611404
-0.35456541 6.3601065 0.37700546
-0.51481444 6.4364176 0.38215408
-0.67143553 6.4368525 0.38303068
-1.308037 6.4386258 0.38885254
-1.4706933 6.4390812 0.39090896
-1.8017138 6.4400043 0.39578536
-1.9705371 6.4404764 0.39861983
-2.1419044 6.4409552 0.40173203
-2.8581738 6.4429584 0.41716111
-3.046494 6.4434857 0.42183304
-3.2391651 6.444025 0.42686048
-3.436626 6.4445791 0.43226349
-3.8475292 6.4457316 0.44428498
-4.5112643 6.4475932 0.46573272
-4.7474365 6.4482574 0.4739157
-6.6903219 6.4524775 0.55011731
-7.7434325 6.4554448 0.59666413
-8.5533543 6.4577274 0.63430554
-8.9984426 6.4589825 0.65556592
-9.4746437 6.4603262 0.67870587
-9.986001 6.4617691 0.70396256
-11.160747 6.4805789 0.76383024
-16.263453 -8.1176987 1.0757943
-15.666367 -8.2976036 1.0492353
-20.176571 -21.832548 1.7594481
-18.306782 -21.833971 1.6863688
-12.209834 -22.098705 1.4942698
-11.612241 -22.269815 1.486461
-10.717407 -23.221453 1.5136741
-10.47437 -24.213291 1.5614011
-10.303852 -27.371721 1.7309748
0.20186035 -7.7833481 0.46081206
0.56300777 -7.5763998 0.44964522
0.98844725 -8.0337925 0.47906524
9.6167622 -27.227272 1.7089894
9.5312452 -25.044523 1.5859724
10.980268 -22.154558 1.4634244
12.758784 -21.65114 1.4873655
13.492768 -21.683279 1.5115004
14.233793 -21.689779 1.535453
14.98186 -21.671513 1.5592866
15.768139 -21.672018 1.586233
16.582485 -21.672543 1.6150862
18.311596 -21.680162 1.6795878
19.227123 -21.680899 1.7150841
20.182777 -21.681665 1.7531456
17.266176 -7.5269761 1.1147803
18.313189 -7.4630833 1.1704128
10.045239 6.5517292 0.70980436
8.8663816 6.4129009 0.64763057
7.6401219 6.4162564 0.59048522
6.9338818 6.4181924 0.5592007
5.3805323 6.3442731 0.49233946
4.6982179 6.4299417 0.47131896
4.464829 6.4305825 0.46333495
4.2390671 6.4312038 0.45587766
4.0203562 6.4318061 0.44891343
3.8080711 6.4323883 0.44241178
3.2050731 6.4340496 0.42542908
3.0138621 6.434577 0.42053419
2.6438231 6.435596 0.41177809
2.4643211 6.4360919 0.40788651
2.2880664 6.4365778 0.40430143
1.7760888 6.4379926 0.39526504
1.4461865 6.4389057 0.3905789
1.2839696 6.4393549 0.38861403
0.96390623 6.4402409 0.38540909
0.33577636 6.4419827 0.38178465
-0.28265136 6.3599052 0.37678084
-0.59812987 6.4366498 0.38259277
-1.5580517 6.4393244 0.39210662
-1.7235986 6.4397869 0.39455229
-1.8913232 6.4402556 0.39726105
-2.0614648 6.4407306 0.40024185
-2.4100389 6.4417057 0.40705946
-2.7715673 6.4427152 0.41509718
-2.9579394 6.4432364 0.41960633
-3.1485252 6.4437723 0.42446485
-3.3437059 6.4443192 0.42968962
-3.7494383 6.4454556 0.44132155
-4.4035983 6.4472919 0.46209303
-4.8766847 6.4486213 0.47850752
-5.5824265 6.3668108 0.50115234
-5.9368896 6.450357 0.51885068
-6.2317038 6.4511871 0.53085893
-7.5676804 6.4549494 0.58869183
-7.9495945 6.4560261 0.60610688
-8.3549995 6.4571686 0.62495679
-9.2479095 6.4596868 0.66763943
-10.274277 6.4625845 0.71837354
-11.500127 6.4815373 0.78129423
-12.18144 6.4834614 0.81671476
-17.795395 -7.0935221 1.1338094
-17.337509 -7.4004717 1.1156895
-16.818174 -7.6635222 1.0938488
-16.553564 -8.0306129 1.0889249
-19.662958 -21.832939 1.7389802
-16.974779 -21.836374 1.6369419
-15.333901 -21.821285 1.5784743
-14.567455 -21.831612 1.5533412
-13.854175 -21.888412 1.5331266
-13.167338 -21.957964 1.5153321
-12.503271 -22.039045 1.4996711
-11.890805 -22.190054 1.4899907
-10.42395 -24.972363 1.601581
-10.322544 -26.510593 1.6837736
-0.24430175 -7.2694888 0.43048781
-0.07118652 -7.5152683 0.44481155
9.6357079 -28.293131 1.7689781
9.5625925 -26.00547 1.639889
10.321069 -22.82077 1.4823604
10.759995 -22.339943 1.4675605
11.800141 -21.749298 1.4644829
12.438794 -21.662968 1.4784467
13.146079 -21.667175 1.4999428
17.028481 -21.672832 1.6312433
17.896284 -21.679829 1.6638145
18.794428 -21.68055 1.6981822
16.582066 -8.436079 1.1011145
17.616089 -7.9171472 1.1430627
18.143423 -7.6336365 1.1649928
25.796566 -8.0297041 1.5989974
-1.9483935 6.44028 0.24634475
-2.1194043 6.4407573 0.24824707
-2.6501367 6.4422369 0.25503996
-2.8339207 6.4427509 0.2576921
-3.0216796 6.4432745 0.26055267
-3.2137647 6.4438105 0.26363343
-3.6124902 6.4449234 0.27049956
-3.8199852 6.4455047 0.27431244
-4.0335498 6.4461017 0.27839905
-4.9597311 6.4486918 0.29785231
-5.1437254 6.3641691 0.29959914
-5.6748047 6.3669 0.31225401
-6.0346727 6.4504557 0.32340088
-6.3341012 6.4512959 0.33100876
-6.9782419 6.4530997 0.34798354
-7.3261666 6.4540739 0.35746291
-8.0833349 6.4561968 0.37875625
-8.4972553 6.4573574 0.39073807
-9.410429 6.4599185 0.41789976
-10.351602 6.3942609 0.44545957
-12.424932 6.4838715 0.51311535
-13.195688 6.486033 0.53832567
-15.84144 6.4096723 0.62566298
-17.191469 -7.5041099 0.68676102
-16.116777 -7.9813867 0.65845811
-20.303627 -21.832161 1.0915529
-19.343487 -21.832897 1.0679437
-16.690508 -21.835127 1.0062256
-15.865917 -21.828154 0.98797786
-15.07207 -21.82406 0.97104871
-14.325034 -21.851379 0.95660108
-13.620751 -21.912182 0.94460785
-12.941723 -21.985422 0.93403244
-12.288671 -22.07741 0.9250775
-11.179873 -22.584221 0.92260998
-0.0099218749 -7.44278 0.27249479
0.53388673 -7.5030637 0.27539518
0.95163572 -7.9402151 0.29278609
9.6179934 -27.505459 1.0668232
10.055982 -23.215952 0.92629057
13.395903 -21.679096 0.93301833
14.136313 -21.689377 0.94786161
14.881489 -21.671423 0.96248901
15.664243 -21.671928 0.9790138
17.315737 -21.672991 1.0156354
19.10556 -21.680506 1.0579947
17.397564 -8.6734781 0.71172863
17.724369 -7.7930393 0.70887846
18.078949 -7.4338818 0.71567732
15.725464 6.3140388 0.6203984
13.958559 6.4026871 0.56224686
12.357964 6.4070878 0.50964278
9.8954735 6.4098516 0.43165922
8.9247408 6.4125223 0.40235123
8.4867039 6.4137287 0.38946578
7.6886082 6.415926 0.36662903
6.9773583 6.4178839 0.34708586
6.6490769 6.4187884 0.33836091
6.3366942 6.4196501 0.33025008
3.8352783 6.4321647 0.27417922
3.2302196 6.4338369 0.26357666
2.3107812 6.4363799 0.25037414
2.1371436 6.4368596 0.24831513
1.7977978 6.4377995 0.24471802
1.6315967 6.4382596 0.24316894
1.3049561 6.4391656 0.24054138
1.1440772 6.439611 0.23945831
0.98455566 6.4400539 0.23852219
0.66877443 6.4409308 0.23708099
0.35604492 6.4417973 0.23620589
0.2003662 6.4422307 0.23597625
-0.26232421 6.3517923 0.23274963
-0.73467284 6.4368997 0.23719604
-0.89249998 6.4373393 0.23793715
-1.0514014 6.4377813 0.23882155
-1.2115917 6.4382267 0.23985274
-1.5366211 6.4391327 0.24236877
-1.7018994 6.4395928 0.24385986
-2.0391357 6.4405327 0.24733596
-2.2115819 6.4410138 0.24933121
-2.5654883 6.4420013 0.25386903
-2.747534 6.4425101 0.25642607
-3.1234081 6.4435587 0.26216429
-3.3179541 6.4441018 0.26536712
-3.9329345 6.4458194 0.2764543
-4.8447461 6.4483695 0.29529494
-5.2806349 6.3645525 0.30278122
-5.5469384 6.3665433 0.3091507
-7.5193553 6.4546146 0.36281386
-8.3005514 6.4568048 0.38501602
-8.7286425 6.4580059 0.39752975
-11.415298 6.4810367 0.48059708
-12.088784 6.4829264 0.50222093
-12.826161 6.4849968 0.52620053
-13.638007 6.4872761 0.55292553
-17.322294 -7.3297949 0.68864346
-15.436416 -21.821241 0.97860473
-14.664326 -21.828098 0.96276855
-13.946245 -21.881542 0.94999921
-13.256088 -21.949444 0.93879485
-12.589194 -22.029039 0.92893875
-11.96919 -22.168884 0.92238969
-10.920102 -22.791193 0.92526275
-10.581606 -23.524624 0.94439679
-10.436201 -24.782507 0.98450786
-10.331811 -26.290188 1.0341945
-0.092402339 -7.3280597 0.26831648
0.2788623 -7.8217978 0.28655273
1.0599755 -7.9756904 0.29457229
9.5775433 -26.300455 1.0247705
9.5804834 -24.457018 0.96165097
10.268179 -22.894905 0.91866833
11.179184 -22.016188 0.90399563
11.723228 -21.770298 0.90526885
12.350395 -21.666218 0.91306531
13.789097 -21.687386 0.94092113
16.092289 -21.672205 0.98828185
17.781908 -21.679453 1.0265698
19.606401 -21.680902 1.0702204
20.58102 -21.68354 1.0945415
17.376089 -8.3858376 0.70638424
17.218472 -7.8034601 0.69212079
17.912241 -7.6025791 0.71242738
14.381792 6.4015241 0.57634979
11.980786 6.4081244 0.49744216
11.318921 6.4099445 0.47624433
10.564838 6.3242178 0.45080885
10.042739 6.3456354 0.43493378
9.6234035 6.4105988 0.42334792
9.1396627 6.4119306 0.40875411
8.6879244 6.4131732 0.39535522
7.4914889 6.4164677 0.36113083
6.8004541 6.4183707 0.34236008
4.7980614 6.3716836 0.29202241
4.1501513 6.4312954 0.28023162
3.724282 6.4324713 0.2721315
3.5202293 6.4330349 0.26848251
3.3214502 6.4335842 0.26508424
2.9380713 6.4346442 0.25898102
2.5711279 6.4356594 0.2537303
2.3929639 6.4361529 0.25139984
2.2179542 6.4366374 0.24925628
2.0458007 6.4371123 0.24729034
1.8762401 6.4375834 0.24549805
1.7090282 6.438046 0.24387237
1.543916 6.4385037 0.24240783
1.3806884 6.4389544 0.24110107
1.2191064 6.4394021 0.23994659
1.0589746 6.4398465 0.23894134
0.90008301 6.4402885 0.23808365
0.74225098 6.4407253 0.2373677
0.58526856 6.4411612 0.23679443
0.42895019 6.4415946 0.23636138
0.27310547 6.442028 0.23606643
0.11588867 6.3507414 0.23255111
-0.037324216 6.3511677 0.23253204
-0.66121578 6.4366961 0.23689941
-0.97696775 6.4375749 0.23839019
-1.1365331 6.4380193 0.23935211
-1.2974854 6.4384661 0.24046248
-1.4600341 6.43892 0.24172485
-1.6243848 6.4393768 0.24314208
-1.7907764 6.4398403 0.24472015
-1.9594336 6.4403105 0.246463
-2.3045897 6.4412737 0.25046632
-2.6619775 6.4422708 0.25520599
-2.8460155 6.4427838 0.25787124
-3.0340381 6.4433084 0.26074585
-3.2264209 6.4438457 0.26384094
-3.6258252 6.4449615 0.27074021
-4.2682567 6.4467568 0.28307036
-4.9758983 6.4487371 0.29821411
-5.1603122 6.3642154 0.29997605
-5.4205027 6.3649445 0.30608779
-5.7667966 6.4497061 0.31675994
-7.3494625 6.4541397 0.35810545
-8.968257 6.4586782 0.4046295
-9.4422798 6.4600077 0.41886458
-9.9512005 6.4614348 0.43439865
-10.388203 6.3943634 0.44660643
-11.119897 6.480207 0.47120848
-11.766577 6.4820218 0.49183974
-14.105063 6.4885869 0.56843537
-15.057217 6.4912601 0.60031998
-17.453901 -7.1545153 0.69062346
-17.173325 -7.5282969 0.68650967
-16.835463 -7.8696294 0.68039656
-16.077606 -7.9934444 0.65736938
-8.4022169 -7.8409991 0.420766
-20.239882 -21.832209 1.0899663
-17.485102 -21.835884 1.0241746
-12.898427 -21.990778 0.93339765
-11.147519 -22.608044 0.92287505
-10.741562 -23.178049 0.93528992
-10.48815 -24.141157 0.96366209
-10.389555 -25.585737 1.0110528
-10.310893 -27.260508 1.0670677
0.37226072 -7.6722136 0.28122497
0.54488277 -7.4915538 0.27500549
9.6154346 -27.360233 1.0617654
9.5270844 -25.152212 0.98471832
9.7181005 -23.899672 0.94458342
10.082105 -23.176428 0.92534435
10.946948 -22.174755 0.90539885
12.714008 -21.652775 0.91930979
13.44438 -21.681349 0.93402082
14.185043 -21.689655 0.94886166
14.931597 -21.671457 0.96352857
17.376459 -21.679129 1.0172141
18.25308 -21.679827 1.037608
19.166098 -21.680552 1.0594651
20.119038 -21.681309 1.0828953
8.4210787 -7.851141 0.42152342
17.394917 -8.6381063 0.71106625
17.354984 -8.1024904 0.70123762
17.747221 -7.7698669 0.70930433
18.102251 -7.4102893 0.71613938
15.654907 6.3142328 0.61801863
13.901323 6.4028435 0.56034666
13.067211 6.4051371 0.53279954
12.310913 6.407217 0.5081166
11.621147 6.4091144 0.48588866
10.264692 6.3250432 0.44143584
9.8616552 6.4099445 0.4306221
8.8953562 6.4126029 0.40147904
8.4591742 6.4138041 0.38866317
8.0497408 6.4149323 0.37685242
7.6642041 6.4159927 0.36594465
6.9554834 6.4179435 0.34649795
6.0198779 6.4205227 0.32223067
5.3975143 6.3440619 0.30495894
5.135005 6.339169 0.29868102
4.8870749 6.3398538 0.29307204
4.7135692 6.4297404 0.2918843
4.4796534 6.4303861 0.28692475
3.6149364 6.4327741 0.27015671
3.4137449 6.4333305 0.2666426
3.2176025 6.4338713 0.26337036
3.0261083 6.4344001 0.26032835
2.655581 6.4354253 0.25488448
2.4758399 6.4359231 0.25246489
2.2994041 6.4364114 0.25023544
1.7869238 6.43783 0.24461257
0.9742285 6.4400821 0.23846634
0.50194335 6.4413934 0.23654556
0.34590819 6.4418254 0.23618698
0.18754883 6.3505425 0.23260681
-0.11892089 6.3513947 0.23257674
-1.0617871 6.4378104 0.23888488
-1.2220557 6.4382563 0.23992507
-1.8803027 6.4400907 0.24562728
-2.0502636 6.4405632 0.24746017
-2.7595067 6.442543 0.25659958
-2.9456151 6.4430618 0.25937545
-3.1359277 6.443593 0.26236647
-3.3307762 6.4441385 0.26558396
-4.1642823 6.4464664 0.28097793
-4.3886328 6.447094 0.28553772
-4.620532 6.4477434 0.29041931
-4.8606248 6.4484148 0.29564467
-5.2975683 6.3646002 0.3031781
-5.56457 6.3665924 0.30957717
-6.8433642 6.4527202 0.34436446
-7.1839013 6.4536762 0.35356352
-8.3276072 6.4568815 0.3858003
-8.7574701 6.4580874 0.39838088
-9.2165918 6.4593744 0.41205779
-10.238028 6.4622393 0.44325683
-10.668974 6.3796573 0.45511901
-11.457354 6.4811554 0.48193923
-12.876611 6.485137 0.52785248
-13.693676 6.487432 0.55476803
-26.583183 -7.6801958 1.0129528
-17.304033 -7.3541265 0.68837446
-16.481821 -7.4790277 0.66265333
-16.849434 -8.64888 0.69341534
-18.789072 -21.833323 1.0546035
-17.892328 -21.835112 1.0335387
-13.900312 -21.885201 0.94921672
-11.930283 -22.180021 0.92207336
-11.379536 -22.437172 0.92108047
-10.898481 -22.838041 0.92647445
-10.562534 -23.581099 0.94600368
-0.081079103 -7.3438001 0.26888764
0.099370115 -7.5948477 0.27808577
0.29139158 -7.828393 0.2868112
9.5673094 -26.14467 1.0192868
9.902339 -23.483706 0.933092
10.293891 -22.85601 0.91775692
11.761431 -21.759373 0.90558165
12.394575 -21.664585 0.91381866
13.837114 -21.68766 0.94186521
14.573862 -21.671228 0.95615447
15.34604 -21.671722 0.97222668
16.14517 -21.672237 0.98943782
19.668373 -21.680952 1.0717454
20.645922 -21.68362 1.0961763
25.80439 -8.0765553 0.98994565
15.287875 6.3957572 0.60672623
12.655513 6.4062686 0.51932526
11.935913 6.4082475 0.49599624
11.277817 6.4100566 0.47493774
8.659565 6.4132524 0.39452285
8.2379732 6.4144135 0.38225523
7.8415966 6.4155045 0.37093824
7.4677877 6.4165325 0.36047241
7.1143308 6.4175076 0.35078323
6.4605808 6.4193072 0.33344221
6.1570263 6.4201446 0.32567549
5.867085 6.4209428 0.31844252
5.5896335 6.4217095 0.31170121
5.0018115 6.3395367 0.29564559
4.1358933 6.4313345 0.27994934
2.9258935 6.4346771 0.25879654
2.7408056 6.4351897 0.25608414
1.865288 6.4376125 0.24538726
1.3701172 6.4389834 0.24102111
1.2086475 6.4394317 0.23987624
0.88979489 6.4403167 0.23803237
0.73202145 6.4407535 0.23732604
0.57507324 6.4411893 0.23676223
0.4187988 6.4416242 0.23633818
-0.20058104 6.3516216 0.23265991
-0.35455567 6.3599787 0.23321213
-0.8288818 6.4371624 0.23762207
-0.9873144 6.4376044 0.23844802
-1.1469629 6.4380474 0.2394197
-1.470664 6.4389496 0.24181227
-1.8016747 6.4398723 0.2448297
-1.9704931 6.4403424 0.24658218
-2.1418602 6.4408197 0.24850677
-2.493242 6.4417996 0.25289506
-2.6738427 6.4423027 0.25537384
-2.8581102 6.4428177 0.2580516
-3.2390916 6.4438825 0.26405135
-3.6391649 6.4449978 0.27098128
-3.8474364 6.4455814 0.27482802
-4.0618114 6.4461799 0.27895126
-4.5111523 6.4474368 0.28809479
-4.9921045 6.4487834 0.29857802
-5.4378076 6.3649931 0.30650344
-5.7850928 6.4497576 0.3172093
-6.0728564 6.4505634 0.32435942
-6.3741159 6.4514065 0.33203948
-6.6901364 6.4522915 0.34029388
-7.3728614 6.4542046 0.35875258
-7.7432032 6.4552436 0.3690857
-8.9981251 6.4587612 0.40552077
-11.160302 6.4803214 0.47248793
-11.810639 6.4821463 0.49325743
-14.163969 6.4887528 0.57039809
-17.435532 -7.1789775 0.69034088
-17.15519 -7.5524645 0.68625641
-20.176308 -21.832258 1.0883877
-17.429008 -21.835989 1.0228974
-16.581884 -21.834764 1.0038033
-14.971763 -21.825054 0.96899962
-14.231973 -21.858791 0.95495635
-13.531196 -21.921333 0.94316512
-12.855205 -21.996128 0.9327687
-12.210449 -22.099804 0.92440277
-10.477588 -24.220741 0.96618301
-10.381567 -25.681593 1.014174
-10.308242 -27.383385 1.0712403
0.013505859 -7.4753704 0.27368835
0.20061523 -7.7357678 0.28331679
0.38373533 -7.6602001 0.28080672
0.97799313 -7.9488401 0.29321715
9.5269966 -25.033329 0.98064923
10.108159 -23.137001 0.924402
10.523198 -22.58581 0.9122569
11.487466 -21.837725 0.90339321
12.078881 -21.676256 0.90850645
14.233901 -21.689938 0.94982725
18.311361 -21.679873 1.038983
19.22687 -21.680599 1.0609406
17.392271 -8.6027756 0.71040314
17.278217 -8.0336237 0.6976248
18.125629 -7.3866453 0.71660459
15.5848 6.3144245 0.61564881
14.76353 6.4004741 0.58913118
13.015757 6.4052787 0.53110915
12.264096 6.4073443 0.50659883
11.578383 6.4092302 0.48451948
9.8279934 6.4100385 0.42958984
9.3302784 6.4114065 0.41447493
8.4317427 6.4138784 0.3878659
8.0239401 6.4150019 0.37611678
7.6398778 6.41606 0.36526319
7.2771726 6.4170585 0.35522231
6.9336767 6.4180036 0.34591368
6.6075535 6.4189029 0.3372708
6.2971435 6.4197574 0.32923737
6.0010009 6.4205742 0.32176024
4.2389698 6.4310503 0.28200135
4.0202684 6.4316545 0.27769271
3.6016748 6.4328103 0.26992005
3.2049952 6.4339066 0.26316604
3.0138037 6.4344354 0.26013732
2.2880225 6.4364433 0.25009689
1.9441748 6.4373956 0.24619964
1.7760546 6.4378595 0.24450713
1.6101123 6.4383197 0.2429782
1.4461523 6.4387736 0.24160843
1.123247 6.4396687 0.2393277
0.80564451 6.4405499 0.23763855
0.6483447 6.4409866 0.23700836
0.49178711 6.4414215 0.23651901
0.33577147 6.4418535 0.23616867
0.17757323 6.3505707 0.23259689
-0.28264648 6.3597794 0.23307265
-0.43659177 6.3602066 0.23340668
-0.59811521 6.4365201 0.23666763
-0.75516599 6.4369574 0.23728561
-0.91311032 6.4373965 0.23804396
-1.0721778 6.43784 0.23894805
-1.2325391 6.4382854 0.23999862
-1.5580175 6.4391923 0.2425534
-1.7235644 6.4396539 0.24406707
-1.891289 6.4401212 0.24574158
-2.2342236 6.4410782 0.24960433
-2.5889697 6.4420657 0.25419021
-3.148452 6.4436283 0.2625688
-3.3436327 6.4441738 0.26580122
-3.5437646 6.4447317 0.2692723
-3.7493505 6.4453058 0.27299744
-3.9608006 6.445899 0.27698958
-4.403491 6.4471354 0.28584501
-4.6358886 6.4477849 0.29074812
-4.8765626 6.4484587 0.29599822
-5.0584764 6.3639297 0.29763854
-5.5822802 6.3666425 0.31000608
-5.9367332 6.450181 0.32095444
-6.2315331 6.4510088 0.32838166
-6.5404639 6.4518728 0.33635923
-6.8649998 6.4527812 0.34494293
-7.5674415 6.4547491 0.36415419
-7.9493356 6.4558206 0.37492689
-8.7864304 6.458168 0.39923552
-9.7419777 6.4608479 0.42798141
-10.273891 6.4623404 0.44436994
-11.499662 6.4812751 0.48329026
-14.661469 6.4901481 0.58702618
-16.516962 -7.5262718 0.66454023
-16.850063 -8.6826658 0.69400036
-8.4614887 -7.7440162 0.41994795
-19.662704 -21.832651 1.0757216
-18.729595 -21.833368 1.0531858
-17.83519 -21.835222 1.0322201
-16.142334 -21.832602 0.99409145
-14.567759 -21.832052 0.96092129
-13.854438 -21.888851 0.94841993
-12.503603 -22.039631 0.92772168
-10.552343 -23.657822 0.94841456
-10.427856 -24.981733 0.99111569
-0.069716796 -7.3596087 0.26946136
0.11154785 -7.6117945 0.27871275
0.30395997 -7.8350058 0.28707075
0.47633299 -7.5632768 0.27745575
1.0866748 -7.9844651 0.29502288
9.5572309 -25.990898 1.0138718
9.6087446 -24.304176 0.95684785
9.9245558 -23.433544 0.93172145
12.438774 -21.662951 0.91456956
13.146284 -21.6675 0.92788404
13.88519 -21.687935 0.94283628
14.623227 -21.671259 0.95716476
16.198101 -21.672272 0.99060166
17.028471 -21.672808 1.0091152
17.89604 -21.679541 1.0292288
17.370893 -8.3162193 0.70510906
17.062807 -7.6684837 0.68488997
25.791439 -8.0281057 0.9890182
-2.1193602 6.4406228 0.095441438
-2.4699364 6.441597 0.097110443
-2.6500781 6.4420986 0.098051906
-2.8338623 6.4426103 0.099072419
-3.4104881 6.4442167 0.10262985
-4.716001 6.4478521 0.11244659
-4.959609 6.4485297 0.11451218
-5.4031153 6.3647294 0.11752411
-6.0345116 6.4502802 0.12433441
-7.3259473 6.4538798 0.13742919
-8.0830755 6.4559903 0.14561477
-10.908682 6.3800788 0.17788406
-11.72228 6.4816313 0.18854843
-12.42439 6.4835906 0.19726898
-13.195097 6.4857402 0.20696075
-14.991269 6.4907498 0.22994979
-15.840595 6.4093289 0.24053542
-16.976522 -7.4102859 0.26073945
-16.729502 -7.7881298 0.25975159
-20.303373 -21.831869 0.41965955
-19.343262 -21.832615 0.41058654
-18.423252 -21.833324 0.40212402
-17.541758 -21.836254 0.39426985
-16.690596 -21.835257 0.38686019
-15.072192 -21.824236 0.37334213
-12.94207 -21.98601 0.35911635
-11.690825 -22.249855 0.35379195
-11.180982 -22.586472 0.35475692
-10.765644 -23.134752 0.35917968
-10.501875 -24.069267 0.36964798
-10.401128 -25.499369 0.38767591
0.36935547 -7.8673205 0.11086365
9.6140966 -27.494337 0.4099437
9.5228949 -25.260798 0.38000318
10.054428 -23.212376 0.35607299
12.669301 -21.654411 0.35314927
13.396098 -21.679426 0.3587184
14.13642 -21.689533 0.36439344
14.881479 -21.6714 0.3700473
16.474791 -21.672424 0.38320267
18.194721 -21.679489 0.39839554
19.105307 -21.680206 0.40676329
17.154594 -8.5523472 0.26981461
17.546869 -7.7149949 0.26981354
25.973511 6.2757502 0.37612259
18.461851 6.3973393 0.27503175
15.724633 6.313704 0.23851165
14.889907 6.3998041 0.22813232
13.118403 6.4047065 0.2054895
12.357436 6.4068131 0.19593322
10.300278 6.3247051 0.17014724
9.3927097 6.4110098 0.16007553
8.4864206 6.4135175 0.14973281
8.0753269 6.4146562 0.14516754
6.9771533 6.417696 0.13343978
6.6488914 6.4186053 0.13008529
6.3365283 6.4194694 0.12696685
6.0386181 6.4202948 0.12406585
5.4145265 6.3438482 0.11740433
5.1513233 6.3389616 0.11497635
4.9027977 6.3396502 0.11281143
4.2678466 6.4308171 0.10864258
3.2301512 6.4336929 0.10133514
3.0383642 6.4342251 0.1001593
2.8508739 6.4347453 0.099068142
2.6673291 6.4352546 0.098056637
2.4873779 6.4357538 0.097121887
1.9661914 6.4372001 0.094743803
1.7977587 6.4376664 0.094085231
1.6315576 6.438128 0.093488313
1.4673632 6.4385834 0.092954405
1.3049268 6.4390359 0.092479549
1.1440625 6.4394817 0.092062071
0.82616699 6.4403629 0.091398619
0.66875976 6.4408002 0.091148831
0.51210934 6.441236 0.090953827
0.35604003 6.441669 0.090812378
0.2003662 6.4421015 0.090724483
-0.41652831 6.3600249 0.089716181
-0.57772946 6.436336 0.090963438
-0.73465818 6.4367704 0.091193847
-1.0513818 6.4376516 0.091817774
-1.2115674 6.4380975 0.092213899
-1.3732324 6.4385467 0.092668302
-1.7018652 6.4394608 0.09375488
-1.8692821 6.4399261 0.094390564
-2.3868897 6.4413662 0.096694484
-2.5654395 6.4418631 0.097602688
-2.7474804 6.4423699 0.098586269
-3.1233349 6.4434161 0.10079239
-3.5173485 6.4445133 0.10334609
-4.3737106 6.4468985 0.10965988
-5.280498 6.3643875 0.11640762
-5.8991942 6.4499016 0.12303756
-6.1922216 6.4507184 0.12586699
-6.4992332 6.4515753 0.12890488
-7.1609912 6.4534197 0.13569213
-7.5191307 6.4544182 0.139487
-7.8981104 6.4554753 0.14358672
-8.3002834 6.4565959 0.14802109
-9.1854544 6.459064 0.15806091
-13.637373 6.4869742 0.21257263
-14.536548 6.4894814 0.22408278
-18.848583 -21.832994 0.4060066
-15.43646 -21.821314 0.37624419
-13.946533 -21.881979 0.36523101
-13.256392 -21.949955 0.36094666
-11.96979 -22.169983 0.35464585
-10.583652 -23.529165 0.36316207
-10.440087 -24.791704 0.37865126
-10.33606 -26.300991 0.39777771
0.27878419 -7.8196726 0.11014114
9.5721235 -26.285593 0.39376724
9.8781395 -23.529335 0.35920456
10.266616 -22.891397 0.3531436
11.178218 -22.014303 0.34753385
13.050971 -21.663387 0.35599807
14.524438 -21.671171 0.36721998
15.295014 -21.671667 0.37337342
17.781675 -21.679165 0.39467773
19.606117 -21.680603 0.41146073
27.737562 6.3718133 0.40060532
15.285171 6.3664594 0.23307495
13.500278 6.4036493 0.21032532
12.704145 6.4058523 0.20027283
11.980288 6.4078555 0.19124298
10.564428 6.3239737 0.17331664
10.040845 6.3444486 0.16718674
9.6230516 6.4103703 0.16275741
9.1393499 6.4117093 0.15714829
8.2643404 6.4141326 0.14725661
7.8664303 6.4152336 0.14288238
7.4912548 6.4162736 0.13883911
6.8002586 6.4181867 0.13162307
6.4806495 6.4190717 0.12839675
4.6031103 6.4298882 0.11131027
3.5201514 6.4328885 0.10322143
3.321372 6.4334402 0.10191482
2.752661 6.4350176 0.098520197
2.5710692 6.4355216 0.097548671
2.2179053 6.4365005 0.095829926
2.0457616 6.4369793 0.0950737
1.8762012 6.437448 0.094384611
1.5438867 6.4383721 0.093197323
1.3806542 6.4388237 0.092693783
0.90006346 6.4401593 0.09153381
0.74223632 6.4405961 0.091259003
0.58525389 6.4410334 0.091038972
0.27310058 6.4418998 0.090758972
-0.19059081 6.3514667 0.089444272
-0.81858885 6.4370036 0.091337889
-1.1365136 6.4378886 0.092021637
-1.7907422 6.4397073 0.094086148
-1.9593945 6.4401774 0.094755553
-2.3045361 6.4411368 0.096295469
-3.2263427 6.4437027 0.10143692
-3.4234667 6.444252 0.10271591
-3.6257422 6.4448147 0.1040889
-4.0475731 6.4459891 0.10713898
-4.4959474 6.447238 0.11063904
-4.9757762 6.4485736 0.11465179
-5.7666407 6.4495339 0.12178177
-6.0535836 6.4503336 0.12451705
-6.3538961 6.45117 0.12745574
-6.6689014 6.4520473 0.13061492
-7.0001268 6.4529705 0.13401337
-8.1092281 6.4560623 0.14590317
-8.5248432 6.457222 0.15053603
-9.4419527 6.4597797 0.16103515
-9.9508495 6.4611979 0.16700608
-10.387802 6.3941193 0.1716986
-12.472363 6.4837236 0.19786835
-13.247861 6.4858866 0.20762756
-15.91287 6.4095292 0.24148071
-20.239599 -21.831919 0.41905409
-19.282207 -21.832661 0.41001663
-17.485493 -21.836359 0.3937709
-15.813051 -21.827374 0.37939972
-15.021992 -21.824734 0.37294799
-13.576269 -21.917274 0.36290327
-12.250151 -22.089712 0.35555145
-11.652109 -22.260937 0.35367981
-11.148627 -22.6103 0.35484681
-10.491352 -24.148556 0.37061003
-10.393193 -25.594687 0.38885528
9.5228176 -25.140955 0.37842315
9.716177 -23.894926 0.36308867
10.493032 -22.613604 0.35091108
10.946011 -22.172853 0.34806913
12.036255 -21.679775 0.34904417
12.713999 -21.652758 0.35344619
14.931577 -21.671432 0.37044755
17.376245 -21.678844 0.39108306
19.165825 -21.680256 0.40732634
20.118744 -21.681007 0.41632232
8.4172802 -7.8476019 0.16199051
17.56938 -7.692008 0.26997191
25.867855 6.2931938 0.37473968
21.596489 6.3716483 0.31694961
19.889477 6.3933892 0.29407546
17.044672 6.4012589 0.25628373
15.654067 6.3138995 0.23760101
14.826138 6.3999796 0.22731094
13.900679 6.4025407 0.21542419
13.066635 6.4048491 0.20483428
11.620659 6.4088507 0.1868013
10.988461 6.4105997 0.1790747
9.8612938 6.4097114 0.16555434
8.8950539 6.4123859 0.1543515
8.4588919 6.4135942 0.14942428
7.6639695 6.4157939 0.14069015
6.6281004 6.4186625 0.12987579
6.3167334 6.4195242 0.12677291
6.019702 6.4203472 0.12388534
5.735786 6.4211345 0.12119461
4.8869481 6.339694 0.11267792
4.253335 6.4308572 0.10852996
3.821538 6.4320536 0.10531311
3.4136572 6.4331851 0.10251404
3.2175341 6.4337287 0.10125641
2.6555126 6.4352875 0.097993769
2.475791 6.4357853 0.097063899
1.9551611 6.4372296 0.094698943
1.6208154 6.4381585 0.093452603
1.2944092 6.439064 0.092450865
0.97420895 6.4399543 0.091680445
0.18754394 6.3504167 0.089428253
-0.11892089 6.3512688 0.089416809
-0.27230957 6.3516946 0.089489289
-0.74490231 6.4368 0.091210023
-1.5472851 6.4390311 0.093216859
-1.8802637 6.4399567 0.094434507
-2.7594483 6.4424038 0.098652497
-2.9455516 6.4429216 0.099720307
-3.1358643 6.44345 0.1008699
-3.330703 6.4439921 0.10210678
-3.9467578 6.4457097 0.10638809
-4.3885255 6.446939 0.10977677
-5.2974315 6.3644342 0.11655945
-5.5644336 6.3664236 0.11901764
-6.2117529 6.4507732 0.12605652
-6.5197363 6.4516325 0.12911071
-6.8431735 6.4525323 0.13239425
-7.1836863 6.4534831 0.13593155
-8.3273335 6.4566717 0.14832428
-9.2162743 6.4591508 0.15841736
-9.708354 6.4605231 0.16414948
-10.237641 6.4619989 0.17041199
-14.598472 6.4896536 0.22488159
-18.788837 -21.833042 0.40545762
-17.892714 -21.835592 0.39737105
-15.385034 -21.821136 0.3758252
-14.615073 -21.828762 0.36977553
-13.900596 -21.885637 0.36494368
-12.546709 -22.034924 0.35692397
-11.380664 -22.439409 0.35415709
-10.900552 -22.842367 0.35626587
-10.435937 -24.891081 0.37991714
-10.333589 -26.416376 0.39928114
0.097299799 -7.4361587 0.10468124
0.29130858 -7.8262658 0.11024078
9.5619383 -26.129965 0.39166349
9.5918407 -24.37332 0.36871567
10.29231 -22.852526 0.35279694
11.760962 -21.758511 0.34815338
13.837202 -21.687815 0.36208481
14.573842 -21.671204 0.3676123
16.145161 -21.672215 0.38041154
16.973511 -21.672747 0.38749862
17.838667 -21.679209 0.39518997
19.6681 -21.680651 0.41204527
17.408228 -7.8565569 0.26884124
20.529066 6.344522 0.30246016
19.052973 6.3957038 0.28289932
15.285258 6.3946562 0.23322861
14.320903 6.4013786 0.22080581
13.446069 6.4037991 0.2096373
11.935414 6.40798 0.19068694
11.277368 6.4098001 0.18259338
10.527056 6.3240776 0.1728688
9.1090384 6.4117937 0.15680069
8.2377005 6.4142056 0.14696045
7.4675732 6.4163394 0.13858642
7.1141162 6.4173174 0.1348619
6.4603953 6.4191265 0.12819518
5.8669286 6.4207721 0.12242843
4.7968507 6.3909259 0.11248016
4.1357861 6.4311819 0.10762985
3.9201708 6.4317803 0.10602584
3.7107666 6.4323611 0.10452896
3.5070555 6.4329252 0.10313339
3.3086083 6.4334769 0.10183288
2.7407372 6.4350519 0.098454587
2.3814502 6.436048 0.096598051
2.2066209 6.4365325 0.095778808
2.0346532 6.4370098 0.095027313
1.6981884 6.4379435 0.093721613
1.5332129 6.4384012 0.09316238
1.3700879 6.4388528 0.09266296
1.2086231 6.4393024 0.092223205
0.73200196 6.4406257 0.091242827
0.57505858 6.441061 0.091025233
0.26296386 6.4419279 0.090752713
0.10591797 6.3506427 0.089405514
-0.047280271 6.3510699 0.089400783
-0.20057617 6.3514957 0.089449458
-0.35455078 6.3598514 0.089661404
-0.51479489 6.4361591 0.090886228
-0.82885742 6.4370327 0.091356806
-1.1469384 6.4379168 0.092047267
-1.4706347 6.4388175 0.092968442
-1.8016455 6.4397378 0.094127193
-1.9704492 6.4402065 0.094801478
-2.1418114 6.4406853 0.09554214
-2.6737792 6.4421649 0.098180689
-3.0463574 6.4432025 0.10032242
-3.4364696 6.4442878 0.10280243
-3.639082 6.4448514 0.10418182
-4.0617237 6.4460297 0.10724548
-4.7472019 6.4479389 0.11270828
-5.4376612 6.3648257 0.11784027
-6.0726852 6.450386 0.12470337
-6.3739405 6.4512262 0.12765549
-7.0222559 6.4530325 0.13424423
-7.3726363 6.4540091 0.13792525
-8.1355076 6.4561357 0.14619492
-8.997817 6.4585404 0.15590514
-9.4739647 6.4598684 0.1614061
-9.9852581 6.4612932 0.16741318
-10.424609 6.3942218 0.17214005
-11.810151 6.4818754 0.18963455
-14.163271 6.4884405 0.21928832
-15.122109 6.4911151 0.23164368
-15.985781 6.4097342 0.24243438
-16.940855 -7.4581027 0.26054734
-19.221308 -21.832706 0.40945205
-18.306318 -21.833416 0.40105909
-17.429384 -21.836464 0.39328125
-14.971885 -21.82523 0.37255263
-13.531523 -21.921848 0.36262634
-11.11626 -22.63414 0.35496077
-10.721528 -23.23036 0.36014128
-10.385215 -25.690603 0.39006028
-10.312627 -27.395037 0.41203123
9.7389307 -23.843554 0.36254317
11.487026 -21.836861 0.34731141
12.078853 -21.676237 0.34929153
12.758764 -21.651104 0.3537451
14.234009 -21.690094 0.36518508
15.76811 -21.67197 0.37726042
16.582466 -21.672495 0.38411942
17.591938 -7.6689825 0.2701335
25.773394 6.3131013 0.37351194
21.473364 6.3719902 0.31529051
16.964281 6.4014826 0.2552281
15.583969 6.3140922 0.2366803
14.762797 6.4001565 0.22648956
13.843774 6.4026995 0.21469985
12.263578 6.4070721 0.19476318
10.228472 6.324904 0.16928497
9.827632 6.4098053 0.16515808
9.3299465 6.4111834 0.15934753
8.8657856 6.412466 0.15401779
7.276958 6.4168658 0.13656768
6.6073585 6.4187198 0.12966704
6.0008445 6.4203997 0.12370437
5.1184521 6.3390522 0.11468627
4.8711572 6.3397379 0.1125412
4.6979833 6.4296255 0.1120906
4.4646044 6.4302716 0.11019165
4.2388721 6.4308963 0.10841766
4.0201707 6.4315033 0.10676163
3.4007568 6.4332209 0.10242874
2.2879736 6.4363065 0.096151732
2.114707 6.4367876 0.095370024
1.9441259 6.4372611 0.094654232
1.7760108 6.4377265 0.094003901
1.6100781 6.438189 0.093415983
1.4461279 6.438642 0.092889406
1.2839209 6.4390936 0.09242218
1.1232226 6.439539 0.09201324
0.33576173 6.4417253 0.090798341
0.17756347 6.3504448 0.08942505
-0.43658692 6.3600812 0.089736022
-0.75515133 6.4368277 0.091226652
-1.3943847 6.4386053 0.09273117
-1.8912548 6.4399881 0.09447784
-2.2341797 6.4409418 0.09596283
-2.4099414 6.441431 0.096808009
-2.5889208 6.4419293 0.097726285
-2.7714403 6.4424372 0.098720551
-3.1483886 6.4434857 0.10094742
-3.3435545 6.4440289 0.10219085
-3.5436914 6.4445868 0.10352463
-3.7492676 6.445158 0.1049562
-4.1785741 6.4463544 0.10813645
-4.4033837 6.4469805 0.10989562
-4.6357713 6.4476261 0.11178131
-5.3144093 6.3644814 0.11671524
-5.9365673 6.4500065 0.12339279
-6.540278 6.4516897 0.12931579
-6.8647947 6.4525943 0.13261642
-7.2064843 6.4535456 0.13617004
-7.9491014 6.455617 0.14414382
-8.7861328 6.4579511 0.15348922
-9.2472601 6.4592376 0.15877578
-9.7416258 6.4606156 0.1645401
-11.499204 6.48101 0.18580352
-12.180386 6.4829092 0.19422561
-12.926816 6.484992 0.20357528
-13.74913 6.4872856 0.21399733
-26.565298 -7.7201834 0.38940719
-17.835585 -21.835701 0.39686751
-16.142387 -21.832672 0.38219771
-11.892002 -22.192255 0.35440597
-10.878877 -22.889338 0.35673338
-10.431763 -24.991079 0.38119566
-10.331099 -26.532568 0.4007881
0.10920898 -7.4523978 0.10491242
0.30387694 -7.8328748 0.11033905
9.6276808 -28.269587 0.42036971
9.5518799 -25.976372 0.38958222
9.6059322 -24.297098 0.36779478
9.9226122 -23.428967 0.35814878
10.757437 -22.334612 0.34895173
11.24269 -21.970285 0.34739622
13.146469 -21.667824 0.35674575
13.885288 -21.688093 0.36248657
15.397192 -21.671734 0.37420714
16.198071 -21.672249 0.38085434
19.730288 -21.6807 0.41263214
-1.9483154 6.4400125 -0.056821592
-2.1193116 6.4404874 -0.057260282
-2.4698877 6.4414606 -0.058261871
-2.8337939 6.442471 -0.05943878
-3.0215478 6.4429913 -0.060099028
-4.0333591 6.4457989 -0.064214937
-4.7158837 6.4476919 -0.067462921
-5.1434617 6.3638434 -0.069102325
-5.4029737 6.3645635 -0.070500642
-6.333745 6.4509344 -0.076349787
-7.3257275 6.4536843 -0.082451321
-8.4967089 6.4569302 -0.090124436
-9.4097652 6.4594622 -0.096389614
-10.35081 6.3937726 -0.1027523
-11.721797 6.4813628 -0.11311935
-22.637993 6.1159501 -0.19803764
-16.717489 -7.7825365 -0.15573478
-8.3876657 -7.8028259 -0.09674751
-18.423021 -21.83305 -0.24126068
-17.542149 -21.836731 -0.23655608
-16.690708 -21.835381 -0.23210944
-15.072309 -21.824411 -0.22399536
-13.621391 -21.913216 -0.21790084
-12.942417 -21.986599 -0.21546599
-12.289887 -22.079609 -0.21341072
-10.767705 -23.139174 -0.21553954
-10.505078 -24.076607 -0.22184822
0.36925292 -7.8651776 -0.066497192
9.6101904 -27.483171 -0.24588387
9.691411 -23.941708 -0.21813263
10.052866 -23.208796 -0.2136042
10.91269 -22.19305 -0.20886023
12.669291 -21.654392 -0.21187744
13.396313 -21.679752 -0.21522757
14.136518 -21.68969 -0.21866012
14.88145 -21.671377 -0.22201842
15.664224 -21.671879 -0.22582725
16.474791 -21.6724 -0.22991034
17.315699 -21.672941 -0.23427947
19.105034 -21.679914 -0.24404128
20.055189 -21.680655 -0.24942237
25.971342 6.2752252 -0.22563766
23.811674 6.3650308 -0.20815764
21.71937 6.3708587 -0.19115326
19.994858 6.3926797 -0.17728241
18.460747 6.3969536 -0.16500168
15.723804 6.3133698 -0.14309616
14.889165 6.3994851 -0.13686638
12.356899 6.4065361 -0.11754929
11.663247 6.4084682 -0.11238831
10.299888 6.3244658 -0.10207374
9.8947506 6.4093852 -0.099561915
9.3923874 6.4107842 -0.096036606
8.4861469 6.4133072 -0.089831926
7.6881394 6.4155293 -0.084565125
5.753706 6.4209137 -0.072812043
5.4143896 6.3436832 -0.070433959
5.151196 6.3387995 -0.068979643
4.9026804 6.3394914 -0.067680359
4.4944186 6.4300332 -0.066253357
4.2677393 6.4306631 -0.065180354
3.6280518 6.4324431 -0.062369078
3.4265184 6.4330044 -0.061554562
2.8508251 6.4346061 -0.059436034
2.1370506 6.4365911 -0.057275847
1.9661474 6.4370661 -0.056841429
1.7977197 6.4375334 -0.056446534
1.6315283 6.4379959 -0.056089018
1.4673339 6.4384527 -0.055768277
1.3049023 6.4389043 -0.05548355
0.51209962 6.4411077 -0.054568481
0.35603026 6.4415412 -0.054483794
-0.10895019 6.3511138 -0.053643797
-1.0513623 6.4375224 -0.055086974
-1.2115381 6.4379668 -0.055325013
-1.373203 6.438416 -0.055596311
-1.5365527 6.438869 -0.055905301
-1.8692431 6.4397931 -0.056630857
-2.0390477 6.4402642 -0.057050016
-2.2114892 6.4407425 -0.057510681
-2.3868408 6.4412284 -0.058012236
-2.5653808 6.4417253 -0.058557432
-3.1232665 6.4432745 -0.060470581
-3.3178124 6.4438128 -0.06120941
-3.5172703 6.4443669 -0.062001798
-3.9327538 6.4455194 -0.063766174
-4.3736033 6.4467425 -0.065791167
-4.844502 6.4480486 -0.068111569
-5.2803612 6.364223 -0.069836423
-5.5466356 6.3662066 -0.071309507
-5.8990331 6.449728 -0.073816523
-6.4990478 6.4513922 -0.077336729
-6.8214307 6.4522858 -0.079297483
-7.1607809 6.4532266 -0.081409454
-8.7280617 6.4575725 -0.091690823
-9.1851416 6.4588394 -0.094828792
-10.201606 6.461658 -0.10198356
-10.630033 6.3790545 -0.10469741
-14.535839 6.4891629 -0.13443619
-18.654419 6.2520499 -0.1661544
-20.001879 6.1711555 -0.17677703
-21.731972 6.1349225 -0.19070731
-23.759115 6.0924702 -0.20714188
-26.408129 6.0968719 -0.22888991
-29.31374 6.0268474 -0.2527397
-18.848354 -21.832714 -0.24358955
-17.94829 -21.833418 -0.23868354
-17.085962 -21.83758 -0.23416603
-13.256694 -21.95047 -0.21656249
-12.589868 -22.030212 -0.21429045
-11.970386 -22.171083 -0.21278869
-11.414047 -22.417877 -0.2124626
-10.585693 -23.533731 -0.21792877
-10.443965 -24.800932 -0.22726578
0.27870604 -7.8175511 -0.066063687
10.698872 -22.392397 -0.20958839
11.17726 -22.012415 -0.20850165
12.350386 -21.666182 -0.21061881
13.051176 -21.663713 -0.21359199
13.789282 -21.687695 -0.2170404
14.524447 -21.671146 -0.22032371
15.295005 -21.671642 -0.22401489
17.78145 -21.678879 -0.23679031
19.605864 -21.680302 -0.24685852
24.923325 6.3619351 -0.2172351
22.653227 6.3682575 -0.19872749
19.150522 6.395031 -0.17051071
16.480795 6.4024677 -0.14931877
15.282543 6.3653665 -0.13981423
14.380385 6.4009027 -0.13293418
11.97978 6.4075871 -0.11473457
10.564028 6.3237309 -0.10397834
9.6227198 6.4101419 -0.097646333
9.1390381 6.4114885 -0.094280854
8.6873484 6.4127469 -0.091191404
6.1759911 6.4197378 -0.075232081
5.8852587 6.4205475 -0.07355652
5.2753663 6.3440704 -0.069681399
4.7955127 6.3683195 -0.06732437
4.603003 6.4297309 -0.066781312
4.372788 6.4303718 -0.065671995
3.9339111 6.4315934 -0.063671418
3.5200732 6.4327435 -0.061927948
3.3213036 6.4332976 -0.061143797
2.9379344 6.4343643 -0.059736326
2.2178612 6.4363651 -0.057492826
1.7089648 6.4377813 -0.05625122
1.5438573 6.4382391 -0.055914
1.380625 6.438693 -0.055611875
0.74222654 6.4404678 -0.054751128
0.42892089 6.4413395 -0.05451889
0.2730957 6.4417706 -0.054451294
0.11588867 6.3504901 -0.053639676
-0.037319336 6.350915 -0.053636167
-0.19058593 6.3513408 -0.05366287
-0.66118652 6.4364386 -0.054644011
-0.8185693 6.4368753 -0.054798886
-1.2974267 6.4382038 -0.055465698
-1.4599756 6.4386563 -0.055756226
-1.7907031 6.4395742 -0.056447141
-1.9593506 6.440042 -0.056848601
-2.3044872 6.441 -0.057772674
-2.66187 6.4419928 -0.058865506
-2.8458934 6.4425039 -0.059480436
-3.0338964 6.4430256 -0.06014267
-3.2262743 6.4435601 -0.060858153
-3.4233885 6.4441056 -0.061624296
-3.8335254 6.4452457 -0.063331604
-4.4958396 6.4470816 -0.06637878
-4.9756494 6.4484134 -0.068784639
-5.1600485 6.3638883 -0.069191433
-5.4202147 6.3646111 -0.070598908
-5.766489 6.4493608 -0.073063657
-6.0534177 6.4501567 -0.074704744
-6.6687107 6.4518633 -0.078363344
-8.1089745 6.4558563 -0.087536007
-8.5245552 6.4570084 -0.090313107
-8.9676466 6.4582367 -0.093328476
-9.9504786 6.4609613 -0.10019477
-11.119003 6.4796939 -0.10868515
-11.765605 6.4814858 -0.11344322
-12.47183 6.4834428 -0.11870834
-14.103721 6.4879665 -0.13110939
-15.055697 6.4906034 -0.13846131
-18.617573 6.4741068 -0.16646393
-20.890469 6.1525455 -0.18391708
-20.239346 -21.831631 -0.25141448
-19.281948 -21.832378 -0.24599364
-18.364468 -21.833094 -0.24094276
-17.485884 -21.836834 -0.23626076
-16.636347 -21.835197 -0.23183219
-15.022104 -21.824909 -0.22375983
-14.279023 -21.855968 -0.22048698
-13.576591 -21.917793 -0.21773712
-11.652685 -22.262043 -0.21220855
-10.319633 -27.283634 -0.24634956
0.38194335 -7.8718543 -0.066558227
9.6076708 -27.338129 -0.24472602
9.5185499 -25.129704 -0.22694336
10.078999 -23.169289 -0.21338341
12.713999 -21.652739 -0.21205787
13.444799 -21.682007 -0.21545731
14.931547 -21.671408 -0.22225815
16.528521 -21.672436 -0.23018615
17.376011 -21.678562 -0.23463203
19.165571 -21.67996 -0.24437775
20.118481 -21.680706 -0.24981932
25.865688 6.2926702 -0.22483176
15.653247 6.3135648 -0.14255463
14.825405 6.3996634 -0.13637093
13.900024 6.4022393 -0.12924331
13.06605 6.404562 -0.12288986
12.309868 6.4066668 -0.11719734
10.988032 6.4103494 -0.10743408
9.8609324 6.4094791 -0.099324413
8.8947506 6.4121695 -0.092601545
8.0492239 6.4145231 -0.086924665
7.2997508 6.4166107 -0.082079619
6.6279049 6.4184794 -0.07791885
6.3165574 6.4193463 -0.076057278
5.3972411 6.3437309 -0.070341185
5.1347413 6.3388457 -0.068893433
4.7133446 6.4294229 -0.067325287
4.2532372 6.4307036 -0.065112457
3.82145 6.4319048 -0.063183442
3.6147704 6.4324808 -0.062314756
3.413579 6.4330401 -0.061503906
3.0259912 6.4341178 -0.060046844
2.6554637 6.4351492 -0.058791503
2.2993016 6.4361396 -0.05771881
2.1258447 6.4366226 -0.057246551
1.955122 6.4370966 -0.056814879
1.4567138 6.4384818 -0.055749357
1.2943896 6.4389334 -0.055466004
1.1336132 6.4393802 -0.055218201
0.81588376 6.4402642 -0.05482376
0.5019238 6.4411368 -0.054561157
0.34589356 6.4415689 -0.05447815
0.19024414 6.4420023 -0.054427948
-0.11891601 6.3511419 -0.053646088
-0.58790529 6.4362359 -0.054581299
-0.74488282 6.4366703 -0.054722898
-1.2220117 6.4379959 -0.05534149
-1.3837793 6.4384451 -0.05561569
-1.547251 6.4388981 -0.055926055
-1.7126514 6.4393582 -0.056272276
-2.2228124 6.4407744 -0.057541501
-2.5771191 6.4417582 -0.058593445
-2.7593896 6.442265 -0.059187315
-2.9454882 6.44278 -0.059827574
-3.1357958 6.4433084 -0.060517576
-3.3306298 6.4438481 -0.061258696
-3.5304394 6.4444036 -0.062056426
-3.73562 6.4449711 -0.062910765
-3.946665 6.4455571 -0.063827969
-4.1640868 6.4461613 -0.064809874
-4.6203122 6.4474273 -0.066987455
-4.8603854 6.4480939 -0.068192288
-5.2972898 6.3642693 -0.069926143
-6.211587 6.4505963 -0.075627744
-6.8429685 6.4523468 -0.079429775
-7.5429101 6.4542875 -0.083839722
-7.9232955 6.4553423 -0.086310424
-8.3270607 6.4564605 -0.088987269
-8.7568846 6.4576516 -0.091888577
-9.2159519 6.4589252 -0.09504272
-9.7079983 6.46029 -0.098482281
-10.237266 6.4617572 -0.10223831
-10.668144 6.3791604 -0.10497367
-12.875484 6.4845624 -0.12174896
-13.692407 6.4868255 -0.12795578
-14.597749 6.4893341 -0.13491531
-15.607763 6.4921341 -0.14276116
-18.659477 6.2211933 -0.16611183
-21.853985 6.1323686 -0.19169028
-26.582685 6.0932159 -0.23031746
-26.583387 -7.680264 -0.23368843
-18.788588 -21.83276 -0.24325767
-16.196079 -21.833605 -0.22958626
-13.212465 -21.95499 -0.21640198
-12.547036 -22.035509 -0.21415275
-11.931479 -22.182224 -0.21271904
-11.381797 -22.441633 -0.21250221
-10.439824 -24.900364 -0.22802703
-10.337852 -26.427284 -0.23965232
0.29123536 -7.8241401 -0.066122584
9.6263618 -28.411573 -0.2533429
9.5890284 -24.366201 -0.22114211
10.290737 -22.849035 -0.21163528
11.760493 -21.75765 -0.20887466
12.394555 -21.664547 -0.21079162
13.098882 -21.66593 -0.21381515
13.837309 -21.687971 -0.21726486
15.34601 -21.671675 -0.22426459
16.145151 -21.67219 -0.22823386
17.838442 -21.678923 -0.23709762
18.734087 -21.679623 -0.24198166
