# .PCD v0.7 - Point Cloud Data file format
VERSION 0.7
FIELDS x y z
SIZE 4 4 4
TYPE F F F
COUNT 1 1 1
WIDTH 1518
HEIGHT 1
VIEWPOINT 0 0 0 1 0 0 0
POINTS 1518
DATA ascii
-1.1372217 6.4396167 0.68357998
-2.4480371 6.3516297 0.71157289
-2.629287 6.3600779 0.71942139
-3.0326512 6.4371033 0.74383801
-3.2249951 6.4376559 0.75267851
-3.4220703 6.4382215 0.7621814
-10.484477 16.687553 2.0601566
-11.061035 16.69672 2.0936437
-19.604633 -6.4442663 2.1572497
-18.409449 -8.6277122 2.1252875
-17.677074 -8.8108702 2.0646939
-18.31599 -21.829287 2.978775
-17.430555 -21.822592 2.9195981
-15.839116 -21.921013 2.827105
-13.806528 -22.35334 2.7464926
-12.763325 -24.462738 2.8843496
-12.683969 -25.811161 3.0063708
-2.615454 -7.4869308 0.82902831
1.9304833 6.43082 0.54935223
1.7626024 6.4312916 0.54559952
1.5968994 6.4317575 0.54221082
1.4331591 6.4322166 0.53917527
0.793374 6.434021 0.5304054
0.63619626 6.4344625 0.52902174
-0.29796386 6.4371042 0.52723449
-0.45389646 6.4375448 0.52801406
-0.76759273 6.438436 0.53050965
-0.92574215 6.4388843 0.53223282
-1.2456152 6.4397936 0.5366565
-1.4077441 6.4402552 0.53936994
-1.5716211 6.4407201 0.54242814
-2.3907275 6.3513293 0.55524719
-2.9708691 6.4367833 0.58003217
-3.3572412 6.4378891 0.5940541
-3.557744 6.4384632 0.60185635
-3.763706 6.4390526 0.61022657
-4.4193406 6.4409323 0.63910323
-4.8936863 6.4422946 0.66192472
-5.4044042 6.4437647 0.68809736
-6.2544923 6.4462094 0.73487103
-6.5647507 6.447103 0.75282025
-6.8907223 6.4480419 0.77212673
-7.3760986 6.5756321 0.80849147
-7.4961667 6.3647485 0.80458373
-20.409336 -7.0787287 1.7674426
-19.161547 -7.1685252 1.6738815
-17.6754 -8.6371555 1.6095957
-17.711304 -21.819984 2.2993686
-16.084936 -21.896465 2.2229569
-13.988139 -22.253969 2.1505978
-12.724121 -25.386454 2.3233707
-12.638251 -26.811531 2.4251649
-2.49979 -7.5481319 0.65056074
-2.1927588 -7.8757706 0.66889054
-1.7381299 -7.6550422 0.64226395
-1.4906445 -7.3863549 0.61652207
-1.4290087 -8.0822163 0.67152935
-1.2381299 -8.1444817 0.67402267
-1.0457617 -8.2075911 0.67695862
7.9095163 -22.95435 1.9864508
8.809907 -22.050463 1.9427872
11.197319 -21.685356 1.9968246
11.87146 -21.690355 2.0230823
14.742798 -21.673931 2.1447256
15.525981 -21.681118 2.1818476
6.1401706 -7.7546349 0.80928206
18.942671 -21.685278 2.3558502
19.886578 -21.686493 2.407428
14.37687 -8.599309 1.3706548
14.465259 -8.1847982 1.3598437
15.169565 -7.6416268 1.3897326
16.315708 -7.2542901 1.4609228
21.112915 20.238058 2.3928635
20.057211 20.177185 2.3277369
19.199057 20.26956 2.2842641
18.3048 20.284283 2.2354734
5.2509327 6.415925 0.6783331
4.9978662 6.4166293 0.6654579
4.5188522 6.4179649 0.6422081
4.2914209 6.4185972 0.63172227
3.6499462 6.4203882 0.6042552
3.2510693 6.4215035 0.58889174
3.0217528 6.3439646 0.5749225
2.8337255 6.3388743 0.56809735
1.8185595 6.4311337 0.54681516
1.6521533 6.4316015 0.54330611
1.0046142 6.433424 0.532749
0.37602049 6.4351988 0.52741224
0.064970702 6.4360776 0.52661407
-0.55790526 6.437839 0.52870464
-0.71485835 6.4382858 0.53000396
-0.87267578 6.4387341 0.53162032
-1.0315478 6.4391842 0.53355831
-1.1916845 6.439641 0.53582442
-2.0185986 6.4419932 0.55234098
-2.1596143 6.3506699 0.54882079
-2.6905029 6.3601146 0.56501722
-2.9079297 6.436604 0.57787991
-3.0973389 6.4371448 0.58447069
-3.6941161 6.4388537 0.60735852
-4.1201024 6.4400744 0.62551892
-4.5734472 6.4413757 0.64635026
-4.811914 6.4420605 0.65788251
-5.0591941 6.442771 0.67023236
-5.3160887 6.4435096 0.68346006
-5.5834908 6.4442797 0.69763535
-6.4591846 6.4467993 0.74666429
-7.1170702 6.4486938 0.78578782
-20.496904 -6.9240489 1.7701244
-18.437344 -7.7556167 1.6365402
-18.611219 -8.3629446 1.6694043
-17.903618 -8.5701494 1.6240185
-19.863995 -21.834045 2.4150991
-18.009459 -21.824444 2.3151033
-16.342602 -21.874502 2.2340543
-15.586196 -21.94746 2.2024457
-14.86105 -22.034071 2.1745033
-13.167197 -22.945269 2.1644895
-12.862114 -23.721987 2.2078283
-12.64977 -26.283169 2.3865395
-2.545537 -7.4831061 0.64670944
-2.044585 -7.8278122 0.66194409
-1.5712451 -7.4737625 0.62485719
7.7722702 -23.16205 1.9989257
8.1941652 -22.596071 1.9665771
9.1379051 -21.846758 1.9375237
9.692934 -21.688057 1.9436355
10.312788 -21.65638 1.9625293
11.64397 -21.689039 2.0141242
12.317759 -21.672243 2.0395789
13.019838 -21.672733 2.0685995
13.742612 -21.673235 2.0996993
14.487915 -21.673752 2.1330092
15.26228 -21.680889 2.1693389
6.0828466 -7.8111157 0.81004775
17.742378 -21.683018 2.292295
19.565971 -21.686081 2.3897555
20.537895 -21.687334 2.4438133
14.648159 -8.4452639 1.3834094
15.187593 -7.8052244 1.3971151
14.575795 -7.0514593 1.3247904
23.471968 -8.0374451 2.029907
21.451429 20.232485 2.4126222
19.507349 20.264486 2.3013844
17.663208 20.216597 2.1964726
4.5967236 6.4177465 0.64588225
3.7187939 6.4201965 0.60704434
3.3164501 6.4213195 0.59131438
3.0848095 6.3437877 0.57714581
2.7126219 6.3392138 0.56415176
2.2163231 6.430017 0.55646604
2.0442529 6.4305005 0.5520764
1.8747705 6.4309764 0.54807174
1.7076416 6.4314451 0.54443997
1.379458 6.4323692 0.53824902
1.2179638 6.4328232 0.53567076
0.42821777 6.43505 0.52766633
0.27245605 6.4354906 0.5270108
0.11699218 6.4359303 0.52666169
-0.03834961 6.4363685 0.52661926
-0.34942871 6.4372506 0.52745771
-0.81972653 6.4385839 0.53104383
-1.1379101 6.4394884 0.5350284
-1.298999 6.4399447 0.53751493
-1.9615185 6.4418311 0.55094951
-2.630039 6.3599424 0.56309491
-3.4228954 6.4380774 0.59657043
-3.8330371 6.4392514 0.6131233
-4.0470018 6.4398642 0.62230223
-4.7311182 6.4418273 0.65393341
-5.4927197 6.4440174 0.69277954
-5.7676563 6.444808 0.70762694
-6.0547853 6.4456348 0.7235539
-6.3553414 6.4465003 0.7406581
-6.6706104 6.4474082 0.75904053
-7.0021338 6.4483628 0.77882552
-8.0067625 6.3674655 0.83699977
-19.187065 -7.3529773 1.6811795
-19.123623 -8.4081335 1.7092147
-18.136045 -8.5019531 1.6388155
-20.18828 -21.833408 2.4329925
-19.233236 -21.834908 2.3807302
-16.603891 -21.853676 2.2455652
-15.836079 -21.921909 2.2126503
-14.415415 -22.131592 2.1610067
-12.687461 -25.825275 2.3541825
-2.4541259 -7.6130753 0.65445095
-2.2951269 -7.7560949 0.66179013
-2.1038866 -7.7966013 0.66072112
-1.6540868 -7.5636821 0.63347197
-1.3661035 -8.1026955 0.67230481
7.2681885 -26.529751 2.2505999
10.102534 -21.664141 1.9557748
11.418471 -21.687737 2.0053637
12.087016 -21.672085 2.0303063
12.782554 -21.672567 2.0586579
13.498198 -21.673063 2.0890479
14.997036 -21.674107 2.1564639
15.789096 -21.681343 2.1944649
15.205913 -7.9706297 1.4046801
16.123745 -7.4833579 1.4543759
20.784302 20.243464 2.373836
19.703804 20.140312 2.3052878
18.89934 20.274496 2.2677693
17.949165 20.211887 2.2116468
4.9163523 6.4168577 0.66139477
4.2178955 6.4188023 0.62841231
3.9998975 6.4194102 0.61883789
3.7883055 6.4200025 0.60990143
3.5826123 6.4205761 0.60156494
3.3823485 6.4211364 0.59379482
2.7733836 6.3390427 0.56611449
2.4505029 6.4293613 0.56295091
1.9312451 6.4308176 0.54937041
1.7633642 6.4312887 0.54561508
1.5976416 6.4317551 0.54222393
1.4338915 6.4322152 0.53918839
1.2718604 6.432672 0.53649777
0.95216304 6.4335718 0.53211468
0.63689941 6.4344616 0.5290274
0.48046386 6.4349036 0.52795595
0.16902831 6.4357824 0.52674359
0.013666992 6.4362216 0.52659988
-0.92503905 6.4388819 0.53222501
-1.0843066 6.4393344 0.53426957
-1.570874 6.4407177 0.542413
-1.7366943 6.4411912 0.54582411
-1.9047314 6.4416699 0.54960054
-2.0752001 6.4421558 0.55375642
-2.7505662 6.3602881 0.56696272
-2.9700291 6.4367795 0.5800032
-3.7627685 6.4390502 0.61018831
-3.9746532 6.4396567 0.61915833
-4.1929832 6.4402843 0.62876689
-4.4183154 6.4409299 0.63905591
-4.6512842 6.4415979 0.65007323
-5.1429586 6.4430127 0.67450166
-5.4032178 6.4437594 0.68803465
-5.957212 6.445354 0.71809387
-6.2531247 6.4462061 0.73479354
-6.5633054 6.4470983 0.75273484
-6.8892331 6.4480381 0.77203685
-7.3760934 6.5770555 0.80856824
-20.410503 -7.0766668 1.767477
-19.148418 -7.6929221 1.6883954
-18.372856 -8.4325218 1.6540023
-18.617601 -21.832876 2.3476107
-17.715195 -21.819946 2.2995663
-16.867889 -21.832636 2.2573385
-14.630595 -22.06996 2.1664641
-13.990976 -22.253159 2.1506667
-13.46437 -22.608622 2.1529717
-13.058164 -23.181431 2.1768787
-12.813374 -24.088413 2.2323549
-2.5004003 -7.5472631 0.65051007
-2.1308594 -8.4324875 0.7116183
-1.7392968 -7.6563091 0.64238495
-1.4917237 -7.3875179 0.61663222
-1.4298632 -8.0819387 0.67151821
7.2081199 -24.744673 2.1087129
7.9076805 -22.957129 1.9866177
9.3208542 -21.794443 1.9394103
12.547504 -21.672401 2.0489388
13.256215 -21.672895 2.0786371
13.986216 -21.673403 2.1104519
14.739341 -21.673925 2.1445251
16.328501 -21.681805 2.2207634
6.1391258 -7.7550449 0.80925459
18.938501 -21.685272 2.3556218
19.882271 -21.686489 2.4071898
15.203188 -8.1264868 1.4104507
15.169819 -7.6438284 1.3898321
16.015903 -7.5912066 1.4501355
16.314457 -7.2558346 1.4608835
21.117456 20.237984 2.3931265
20.061459 20.177116 2.3279793
18.308735 20.284216 2.2356877
17.405033 20.244579 2.1843719
5.2521043 6.4159217 0.67839187
4.9989796 6.416626 0.66551191
4.5198874 6.4179602 0.64225692
4.2924266 6.4185963 0.63176757
4.0721436 6.41921 0.62197143
3.8584716 6.419807 0.61282498
2.8345556 6.338872 0.56812572
2.6530907 6.3393807 0.56226683
2.3331201 6.4296899 0.55962843
2.1591747 6.4301782 0.55497235
1.9879931 6.4306579 0.55071092
1.8193115 6.4311328 0.54683137
1.4885107 6.4320617 0.54016602
1.3259424 6.4325194 0.53736019
1.0053369 6.4334226 0.5327574
0.84688962 6.4338684 0.53094631
0.68942869 6.4343138 0.52945572
0.37672362 6.435195 0.52741593
-0.089682616 6.4365149 0.52667344
-0.55720216 6.4378381 0.52869993
-0.87197262 6.4387317 0.53161329
-1.352544 6.4400964 0.53841031
-1.5157909 6.4405603 0.54135102
-1.8482177 6.4415088 0.54829544
-2.33146 6.3511605 0.55354446
-2.5071826 6.3516626 0.55870008
-2.6896825 6.3601122 0.56499082
-2.9070947 6.4366002 0.57785171
-3.0964844 6.4371409 0.58443999
-3.2903612 6.4376974 0.59153044
-3.6931787 6.4388514 0.60731947
-3.9030321 6.4394517 0.61608517
-4.3420506 6.4407115 0.63553238
-4.8108153 6.4420567 0.65782851
-6.1525145 6.4459152 0.7290681
-7.1155272 6.4486914 0.78569287
-18.970034 -6.9203191 1.6521444
-18.443886 -7.7560196 1.6370441
-18.614496 -8.361989 1.6696167
-19.868368 -21.834038 2.4153378
-18.925312 -21.833891 2.3640888
-17.145908 -21.825619 2.2708626
-15.58957 -21.947117 2.2025843
-14.864238 -22.033674 2.1746271
-13.168681 -22.942053 2.1643202
-12.862773 -23.717045 2.2075012
-12.748403 -24.923208 2.2904553
-2.679702 -7.2926626 0.63567883
-1.5723486 -7.4749632 0.62497222
-1.4934814 -8.0612469 0.6707803
-1.1112256 -8.1860962 0.67591459
7.3155518 -28.502445 2.4076049
7.7703953 -23.164883 1.9990948
9.1354151 -21.847469 1.9374985
10.309956 -21.656485 1.9624399
10.967935 -21.674692 1.9875048
12.314643 -21.672241 2.0394521
13.739311 -21.673231 2.0995529
15.258803 -21.680889 2.1691759
16.055414 -21.68157 2.207377
6.0826511 -7.8126159 0.81010574
17.738462 -21.683012 2.2920969
18.63142 -21.684877 2.3391478
14.425581 -7.8613639 1.3441595
15.187846 -7.8074365 1.3972186
16.220942 -7.3718271 1.457795
23.473276 -8.0407467 2.0300968
21.456079 20.232409 2.4128892
17.667027 20.216534 2.1966841
5.339077 6.4156799 0.68290788
4.835825 6.4170799 0.65742308
4.5977783 6.4177442 0.64593184
4.1451416 6.4190063 0.62517607
3.9293115 6.4196091 0.61581743
3.5158837 6.420763 0.59893692
2.896167 6.3386998 0.57018876
2.7134326 6.3392124 0.56417787
2.5344188 6.3397117 0.55861467
2.2171044 6.4300146 0.55648637
1.8755322 6.430974 0.54808867
1.3801904 6.4323668 0.53826201
1.2186865 6.4328222 0.53568208
0.89982909 6.4337192 0.53151715
0.58515137 6.4346066 0.52863842
-0.037656248 6.436367 0.52661908
-0.19307129 6.4368067 0.52688324
-0.50480956 6.4376903 0.52833509
-0.81900877 6.4385815 0.5310359
-0.97751462 6.4390306 0.53286511
-1.1371973 6.439486 0.53501832
-1.4609375 6.4404049 0.54032773
-1.9607617 6.4418283 0.55093199
-2.1320848 6.4423165 0.55521345
-2.273335 6.3509946 0.55191129
-2.4479833 6.3514929 0.55692732
-2.6292236 6.3599401 0.56306916
-3.032583 6.4369602 0.58217984
-3.2249169 6.4375086 0.58909881
-4.0460401 6.4398618 0.62225997
-5.2277975 6.4432554 0.6788702
-5.4915233 6.4440145 0.69271576
-5.7663913 6.4448047 0.70755631
-6.6691747 6.4474034 0.75895643
-7.3764305 6.4725351 0.80292189
-8.0049753 6.3674607 0.83688444
-19.418676 -6.9066935 1.6863018
-19.187325 -7.350678 1.6811324
-19.124603 -8.4060659 1.7092239
-20.192715 -21.833399 2.4332364
-19.237446 -21.834921 2.380954
-14.418262 -22.130775 2.1610827
-13.807915 -22.355583 2.149857
-12.947871 -23.420341 2.189549
-12.767461 -24.470694 2.2582772
-12.687959 -25.81926 2.3537462
-2.7234375 -7.2306595 0.63217252
-2.591372 -7.4180036 0.64289564
2.1007373 6.4302063 0.40036482
1.9304442 6.4306846 0.39737791
1.5968701 6.4316244 0.39221129
1.4331299 6.432086 0.39001617
1.2711182 6.4325428 0.38807037
1.1106104 6.4329953 0.38636747
0.47975096 6.4347754 0.38189787
0.32385254 6.435216 0.38134873
0.16832519 6.4356556 0.38102293
-0.29795897 6.436976 0.38137862
-0.45388183 6.437417 0.38194227
-0.61036134 6.43786 0.38273191
-0.76757812 6.4383054 0.38374832
-1.0849952 6.4392066 0.38647506
-1.4077148 6.4401221 0.39015594
-1.737417 6.4410596 0.3948375
-1.9054492 6.4415369 0.39757019
-2.0759227 6.4420223 0.40057585
-2.3906739 6.3511939 0.4016403
-2.5675244 6.3516965 0.40547529
-3.1616795 6.4371848 0.42445678
-3.763623 6.4389024 0.44141051
-3.9755175 6.439508 0.44790083
-4.1938672 6.4401331 0.45485306
-4.4192333 6.4407773 0.46229798
-4.6522365 6.4414425 0.47026947
-4.893569 6.4421325 0.47880521
-5.1439648 6.4428492 0.48794433
-5.4042625 6.4435949 0.49773681
-7.4959421 6.3645506 0.58199596
-7.8763084 6.3668871 0.59941649
-10.317846 6.4564452 0.72036421
-10.896768 6.4581103 0.74967968
-12.792988 6.3797669 0.84607923
-28.887054 -7.7294507 1.7698251
-19.164711 -7.7018881 1.2224329
-18.819042 -8.0957899 1.2124963
-18.613661 -21.832998 1.6980505
-17.711464 -21.820175 1.6633145
-16.864702 -21.833385 1.6328125
-15.34042 -21.975389 1.5861627
-14.62849 -22.071924 1.5671868
-13.988853 -22.255117 1.5557611
-12.816235 -24.100136 1.6155133
-12.728062 -25.394279 1.6811774
-12.642827 -26.821239 1.7549304
-2.3228028 -7.6255884 0.4717938
-2.1791747 -7.8269892 0.48085907
-1.6028368 -7.9422655 0.47953933
-1.4150146 -8.0030413 0.4810054
-1.2259619 -8.064414 0.48277527
7.2936082 -27.480368 1.6827502
7.5114598 -23.636326 1.4678555
7.9081979 -22.950537 1.4367034
8.3419485 -22.436159 1.4166974
8.8091259 -22.0485 1.4052197
9.8964987 -21.671728 1.4100467
11.197475 -21.685673 1.4444662
12.5506 -21.672382 1.4822347
13.989536 -21.673384 1.526744
14.742778 -21.673906 1.5514077
15.525776 -21.680843 1.5782651
16.331987 -21.68153 1.6065451
18.036879 -21.682983 1.6692709
18.942865 -21.685482 1.7041711
19.886763 -21.686703 1.7414837
14.631518 -7.3705835 0.96963501
15.854643 -7.5126581 1.0383717
8.9885006 6.4093394 0.65337795
8.5461769 6.4105711 0.63228697
7.0194287 6.41082 0.56263274
6.6888819 6.4117417 0.54838455
6.0747118 6.4134569 0.52282208
5.7882667 6.4142575 0.51134777
5.513999 6.4150229 0.50065184
4.9977489 6.4164658 0.48136047
4.2913132 6.4184437 0.45695862
3.8574266 6.4196591 0.44326156
3.6498485 6.4202414 0.43709013
3.0216746 6.3438244 0.41587341
2.8336573 6.3387365 0.41093734
2.6522412 6.3392444 0.40670088
2.4744287 6.3397446 0.40278304
2.3322899 6.4295545 0.40479353
1.9871826 6.4305258 0.39834747
1.6521143 6.4314694 0.39300367
1.487749 6.431931 0.39072403
1.1641943 6.4328427 0.38691086
1.0045947 6.4332943 0.38536727
0.53206539 6.4346275 0.38213164
-0.090375975 6.436388 0.38097396
-0.24584961 6.4368272 0.38124007
-0.55789059 6.4377112 0.38244292
-0.71484864 6.4381566 0.38338211
-1.031538 6.439054 0.38595366
-1.1916602 6.4395089 0.38759169
-1.3532519 6.4399681 0.38947204
-2.0185595 6.4418578 0.39953932
-2.1595702 6.3505359 0.39699262
-2.5079346 6.3515282 0.40415618
-2.6904442 6.3599768 0.40870818
-2.9078662 6.4364624 0.41801298
-3.4899364 6.4381223 0.43342102
-3.6940281 6.4387045 0.43933669
-3.9038866 6.4393029 0.44567794
-4.1200147 6.4399204 0.45247176
-4.8117919 6.4418993 0.47588211
-5.059072 6.442606 0.48481506
-5.5833349 6.4441061 0.50463527
-5.8622217 6.4449058 0.51563001
-6.1536865 6.4457397 0.52742708
-6.4589987 6.4466147 0.5401004
-6.7795358 6.4475341 0.55372632
-7.378335 6.368021 0.5768376
-7.7454491 6.3652658 0.59335202
-8.2471237 6.4504991 0.61967409
-8.6720648 6.4517198 0.63971406
-9.1256886 6.453021 0.66149473
-10.133965 6.4559178 0.71114516
-11.308838 6.4592929 0.77079529
-11.974248 6.4612069 0.80528396
-12.619814 6.4212852 0.83803356
-20.033325 -7.3106475 1.2621511
-19.146479 -7.5154276 1.2173539
-18.921322 -21.834011 1.7099621
-18.009516 -21.824518 1.6746854
-17.142265 -21.825844 1.6425546
-16.342949 -21.874966 1.6160858
-15.586581 -21.948006 1.5932238
-13.635322 -22.485966 1.5563918
-13.1696 -22.949429 1.5660146
-12.865624 -23.728449 1.5975152
-12.654277 -26.292524 1.7269708
-2.5065038 -7.3683591 0.46063703
-2.3697021 -7.5598655 0.46889585
-2.2278709 -7.7586823 0.47775313
-2.0440917 -7.8259172 0.47871566
-1.7909423 -7.6025686 0.46227369
-1.4780322 -7.9826369 0.48048171
7.3112059 -28.472616 1.7398211
7.7709713 -23.158178 1.4457241
10.312778 -21.656363 1.4196408
10.971088 -21.675146 1.4378128
14.487885 -21.673731 1.5429556
16.058813 -21.681295 1.5968606
18.635689 -21.685087 1.6922449
20.53809 -21.687548 1.767799
14.424253 -8.3161774 0.98542082
15.10312 -8.2284727 1.0179324
15.21393 -7.818759 1.0123833
9.1433344 6.4089074 0.66084516
7.7665281 6.3289514 0.59295559
7.4888134 6.4095101 0.58339661
6.7976804 6.4114389 0.55303788
5.8827782 6.4139929 0.51509994
5.0813913 6.416234 0.48440841
4.5966063 6.4175892 0.46720108
4.3666358 6.4182324 0.45944077
4.1440477 6.4188561 0.45219192
3.928247 6.4194617 0.44542539
3.5149071 6.42062 0.43321913
3.3163621 6.4211755 0.42772979
3.0847313 6.3436475 0.41748199
2.8952684 6.338563 0.41242933
2.7125733 6.3390756 0.40808365
2.5335889 6.3395786 0.40406021
2.2162645 6.4298816 0.40252241
2.044204 6.430366 0.39934736
1.5425732 6.431777 0.39145842
1.2179443 6.4326916 0.38748077
1.0578858 6.4331446 0.38585722
0.89909667 6.4335914 0.38447112
0.74134278 6.4340367 0.38331604
0.58443844 6.4344797 0.38239104
0.42820799 6.4349217 0.38169128
-0.03834961 6.4362402 0.38093352
-0.19375975 6.4366794 0.3811264
-0.34942383 6.4371214 0.38154083
-0.50550783 6.4375634 0.38217834
-0.81971675 6.4384546 0.38413405
-0.97820801 6.4389024 0.38545746
-1.4616406 6.4402757 0.39085922
-1.6261425 6.4407434 0.39315596
-2.1328173 6.4421835 0.40163207
-2.4487255 6.3513584 0.40287367
-2.8453858 6.4362841 0.41649413
-3.2257276 6.4373679 0.42615113
-3.4228222 6.4379306 0.43153211
-4.0469089 6.4397116 0.45014435
-5.2288084 6.4430919 0.49110502
-6.0546241 6.4454565 0.52338302
-7.3514209 6.4491735 0.57878739
-7.6186423 6.364902 0.58756131
-8.5267477 6.4513011 0.63281953
-9.9547071 6.4554029 0.70220226
-11.098545 6.4586902 0.75999558
-13.054087 6.3805184 0.85995513
-18.956524 -7.2646227 1.2015034
-19.363686 -7.9617381 1.239132
-18.577621 -8.1680756 1.2010962
-17.874603 -8.3793955 1.1683837
-20.188759 -21.833918 1.7599978
-19.233389 -21.835041 1.7221618
-17.426987 -21.823008 1.6528882
-16.604248 -21.854139 1.6244231
-15.101567 -22.004963 1.5795587
-14.416166 -22.132734 1.5632919
-13.293525 -22.737717 1.5588495
-12.771338 -24.484653 1.6344088
-12.691441 -25.833378 1.7034658
-2.5512645 -7.305759 0.45799804
-2.416045 -7.4949603 0.46606672
-2.2759473 -7.6912594 0.47471786
-1.8788769 -7.6966386 0.46890181
-1.5409131 -7.9622898 0.47999069
-1.3527099 -8.0232296 0.48155561
7.2631297 -26.511242 1.626888
7.2884326 -24.28767 1.5007907
8.0431004 -22.751511 1.4282137
8.9689989 -21.939342 1.4027841
9.5063038 -21.740448 1.4043386
11.41854 -21.687885 1.4506292
14.235737 -21.673553 1.5347015
14.997026 -21.674082 1.5599225
16.60474 -21.681763 1.616325
19.250132 -21.685881 1.7162045
20.207729 -21.68712 1.7543969
14.206635 -8.3444405 0.97512954
14.87062 -8.2583456 1.0067283
15.208032 -7.9717431 1.0162454
15.959477 -7.4071264 1.0413363
8.8391647 6.4097543 0.6462149
8.2914991 6.3234777 0.61716521
6.9083643 6.411129 0.55780959
6.5833054 6.4120374 0.5439024
5.9786668 6.4137254 0.51894182
5.1661277 6.4159961 0.48752594
4.6753659 6.4173694 0.46992049
4.4427781 6.4180198 0.46198013
3.9997997 6.4192615 0.44763991
3.788208 6.4198523 0.4411743
3.5825243 6.4204297 0.43514419
3.1870263 6.4215379 0.42429137
2.9599462 6.3439975 0.41432479
2.7733154 6.3389049 0.40950119
1.9311962 6.4306836 0.39739013
1.7633252 6.4311557 0.39467484
1.5976025 6.431622 0.39222229
1.4338526 6.4320836 0.39002502
0.79404783 6.433888 0.38367629
0.48045409 6.4347739 0.38190046
0.32455567 6.4352145 0.3813507
-0.14171386 6.436533 0.38103637
-0.29726562 6.4369736 0.38137618
-0.45318359 6.4374142 0.38193983
-0.76686519 6.438303 0.38374251
-0.9250195 6.4387522 0.3849887
-1.084287 6.4392052 0.38646835
-1.244873 6.4396605 0.38818556
-1.5708398 6.4405856 0.39235809
-2.0751562 6.4420199 0.40056318
-2.7505078 6.3601475 0.41011518
-2.9699707 6.4366379 0.41954818
-3.1608105 6.4371824 0.42443344
-3.3562744 6.4377403 0.42968687
-3.9745605 6.4395056 0.44787046
-4.1928759 6.4401293 0.45482054
-4.8924561 6.4421287 0.47876495
-5.142827 6.4428463 0.48790345
-5.9570508 6.4451771 0.51943541
-6.2529492 6.4460239 0.53151411
-6.8890281 6.4478488 0.55845428
-7.2322898 6.448833 0.57349271
-7.4942918 6.3645458 0.58191711
-7.8745604 6.3668809 0.59933549
-8.3845119 6.4508934 0.62611294
-8.8185549 6.4521399 0.6467073
-9.2824507 6.4534702 0.66910553
-10.315361 6.456439 0.7202397
-10.894062 6.4581027 0.74954098
-11.522241 6.4599071 0.7818054
-12.789507 6.3797569 0.8458932
-28.885405 -7.7256536 1.769671
-20.252398 -7.0218449 1.2686383
-19.78351 -7.3987622 1.2500896
-19.165102 -7.6996264 1.2224017
-18.822372 -8.0947924 1.2126509
-10.764179 -7.7394919 0.78465897
-17.715361 -21.820137 1.6634582
-16.088749 -21.896662 1.6081655
-15.3437 -21.974985 1.5862546
-14.631362 -22.0711 1.5672381
-13.465708 -22.610895 1.5575577
-13.060566 -23.185671 1.5749776
-12.816909 -24.095043 1.6152667
-12.642983 -26.8141 1.7545507
-2.3234277 -7.6247091 0.47175384
-1.2268115 -8.0641375 0.48276702
7.2056003 -24.735983 1.5248507
7.5098095 -23.640049 1.4680371
7.9063621 -22.953325 1.4368253
8.8069582 -22.049984 1.4052707
11.194458 -21.685534 1.4443753
11.86851 -21.690491 1.4633734
12.547475 -21.672382 1.4821447
16.328306 -21.681528 1.6064154
6.1383643 -7.7540879 0.58531922
18.032875 -21.682978 1.6691009
19.882465 -21.686699 1.7413119
15.202144 -8.1259279 1.0202086
14.637348 -7.3755221 0.97007382
15.853217 -7.5141001 1.0383316
8.990571 6.4093332 0.65347683
8.5480804 6.4105649 0.63237774
7.7181492 6.3925977 0.59313488
7.3694382 6.4098425 0.57806045
7.0209618 6.4108152 0.56270033
6.3758249 6.4126158 0.53519881
5.7895265 6.4142542 0.51139802
5.5152097 6.4150205 0.50069851
5.2519674 6.4157567 0.49071729
4.9988523 6.4164634 0.48140058
4.5197802 6.4178038 0.46457899
3.8583739 6.4196568 0.44329008
3.6507568 6.420238 0.43711609
3.2518702 6.4213572 0.42600158
3.0225244 6.3438206 0.41589552
2.47521 6.3397422 0.40279844
2.3330712 6.4295521 0.40481031
2.159126 6.4300427 0.40144241
1.8192822 6.4309983 0.39555433
1.6528467 6.4314671 0.39301345
1.164917 6.4328418 0.38691801
0.84687012 6.4337387 0.38406447
0.3767041 6.4350672 0.38150954
0.065678708 6.435946 0.38092971
-0.24515136 6.4368262 0.38123733
-0.71413571 6.4381552 0.38337782
-0.87195802 6.438602 0.38454545
-1.0308251 6.4390512 0.38594574
-1.3525195 6.4399657 0.38946241
-1.5157715 6.4404283 0.39158934
-2.0177929 6.4418554 0.39952558
-2.6896191 6.3599744 0.40868941
-2.9070361 6.43646 0.41799179
-3.096416 6.4369993 0.42275864
-3.290288 6.4375525 0.42788526
-3.489038 6.4381199 0.43339646
-3.6930907 6.4387021 0.43930832
-3.9029393 6.4393015 0.44564772
-4.3419433 6.4405565 0.4597142
-4.5722804 6.4412146 0.46750349
-4.810698 6.4418955 0.47584242
-5.05792 6.4426022 0.4847734
-5.3147802 6.4433384 0.49433836
-5.8609376 6.444901 0.51557863
-6.7780662 6.4475303 0.55366361
-7.378335 6.36941 0.57688993
-8.6700735 6.4517136 0.63962048
-9.1235933 6.4530149 0.6613937
-10.131523 6.4559107 0.71102339
-12.619809 6.4229846 0.83807403
-20.034775 -7.3087378 1.2621951
-18.340855 -8.2390566 1.1900005
-17.146044 -21.825806 1.6426913
-15.589971 -21.94766 1.5933233
-14.204844 -22.193256 1.5595165
-13.637631 -22.484262 1.5563711
-12.654424 -26.285566 1.7266001
-2.5070996 -7.3675237 0.46060166
-2.3703222 -7.5589991 0.46885878
-2.2285204 -7.7577677 0.47771195
-2.0448925 -7.8254981 0.47870392
-1.4788721 -7.9823656 0.48047546
-1.2902539 -8.0434799 0.48213837
7.3862157 -23.919146 1.4816126
7.7690868 -23.16102 1.4458505
8.6443214 -22.16103 1.4078516
9.1350441 -21.846605 1.401474
10.309946 -21.656464 1.4195743
10.968081 -21.675005 1.437727
13.739292 -21.673208 1.5187566
16.05521 -21.681293 1.5967343
14.421304 -8.3165627 0.98528212
15.213862 -7.8208055 1.0124375
15.747582 -7.6204772 1.0354112
23.466703 -8.0384932 1.4681023
8.6930122 6.410162 0.63924694
8.1563034 6.3238559 0.61082578
7.7682471 6.3289466 0.59303373
7.4904537 6.4095068 0.58347028
7.135571 6.4104953 0.56771529
6.1748581 6.4131775 0.52690428
5.8840575 6.4139891 0.51515031
5.0825243 6.4162302 0.48444992
4.5976515 6.4175863 0.46723694
4.1450438 6.4188538 0.45222425
3.3172412 6.4211731 0.4277539
3.0855811 6.3436451 0.41750199
2.8960986 6.3385606 0.41244978
2.5343699 6.3395762 0.40407929
1.8754932 6.430841 0.39646393
1.7083447 6.4313121 0.39383575
1.5433056 6.4317746 0.3914682
1.380161 6.4322348 0.389355
0.7420361 6.4340343 0.38332123
0.2731494 6.4353585 0.38121825
-0.037656248 6.4362388 0.3809343
-0.1930664 6.436677 0.38112471
-0.66149414 6.4380054 0.38303816
-0.81899899 6.4384518 0.38412809
-1.2982471 6.4398117 0.38880613
-1.4609082 6.4402733 0.39085007
-1.6253905 6.4407406 0.39314482
-2.132041 6.4421825 0.40161666
-2.2732861 6.3508582 0.39922866
-2.4479346 6.351356 0.40285659
-2.6291699 6.3598008 0.40729964
-2.8445556 6.4362817 0.41647369
-3.0325243 6.4368162 0.4211238
-3.2248485 6.4373646 0.42612731
-3.4219189 6.4379282 0.43150711
-3.6241503 6.4385056 0.43728256
-3.8320067 6.4390988 0.44347641
-4.0459375 6.4397092 0.45011365
-4.2665086 6.4403405 0.4572235
-4.729917 6.4416647 0.47298643
-4.9741111 6.4423618 0.48171479
-5.7662354 6.4446301 0.51181287
-6.0533009 6.4454527 0.52332991
-6.3537693 6.4463134 0.53569686
-7.0004196 6.4481678 0.56329757
-8.0047169 6.3672557 0.6053552
-9.9523287 6.4553952 0.70208418
-11.095757 6.4586816 0.75985211
-13.050473 6.3805075 0.85976207
-18.954004 -7.2612972 1.2012935
-19.363705 -7.95929 1.2390763
-18.580914 -8.1670895 1.2012511
-17.877642 -8.37848 1.1685215
-19.237562 -21.835052 1.7223245
-13.29583 -22.736019 1.558825
-12.950258 -23.424648 1.5841516
-12.691938 -25.827377 1.7031631
1.2710888 6.4324107 0.24005599
0.95141113 6.4333138 0.23809753
0.63617676 6.4342041 0.23671706
0.47975096 6.4346471 0.23623809
0.32385254 6.4350877 0.23589782
0.16832031 6.4355273 0.23569672
-0.14240234 6.4364061 0.23570602
-0.29795408 6.4368467 0.23591705
-0.925708 6.4386239 0.23815414
-1.0849805 6.4390759 0.23906951
-1.7373779 6.4409251 0.2442427
-1.9054149 6.4414024 0.24593398
-2.0758789 6.4418859 0.24779296
-2.5674706 6.3515601 0.2508226
-2.970747 6.4365001 0.2595413
-3.1616063 6.4370422 0.26256439
-4.1937647 6.4399791 0.28136611
-4.419126 6.4406199 0.28597197
-4.6521239 6.4412842 0.290903
-5.1438327 6.4426842 0.30183622
-5.4041162 6.4434252 0.30789244
-6.2541356 6.4458485 0.32882035
-6.5643702 6.4467344 0.33685166
-7.4957027 6.3643527 0.3600125
-7.8760595 6.3666844 0.3707875
-8.3861322 6.450686 0.38735732
-8.8202925 6.4519262 0.4001013
-9.2842627 6.4532504 0.41396117
-10.896333 6.4578552 0.46373549
-11.524726 6.4596505 0.48370206
-12.210078 6.4616089 0.50577348
-12.792407 6.3794808 0.52336442
-13.822978 6.4817114 0.5589627
-14.74416 6.4843445 0.58971065
-16.931723 6.4905982 0.66388685
-18.029394 6.4167652 0.7006529
-19.668545 -7.3581877 0.76884568
-18.944208 -7.6132774 0.74749786
-18.541967 -7.9765944 0.73900938
-17.71162 -21.820364 1.0289363
-16.085752 -21.897552 0.9947778
-14.629238 -22.073067 0.96951401
-13.98957 -22.256256 0.96244854
-13.061455 -23.193144 0.97454113
-12.819756 -24.106791 0.99963605
-2.2869725 -7.507987 0.28735122
-1.9303857 -7.6426435 0.2885994
7.2896533 -27.465475 1.0403483
7.2042136 -24.721186 0.94274002
7.5098095 -23.631147 0.90782058
8.3408937 -22.433325 0.87626249
9.8964987 -21.671711 0.8722586
11.197632 -21.685991 0.89356154
11.871626 -21.690659 0.90532315
12.5506 -21.672363 0.91691524
13.259428 -21.672853 0.93020612
14.742759 -21.673883 0.9597224
16.331781 -21.681252 0.9937973
6.1386476 -7.7527227 0.36204758
19.886948 -21.686914 1.0772971
15.189937 -8.1172771 0.63055801
15.69564 -7.4373116 0.63589627
12.455044 6.3994079 0.51267302
11.752212 6.4013758 0.48995864
10.51647 6.4048352 0.45081481
9.4613323 6.407793 0.4183647
8.9881983 6.4091187 0.40416685
8.0200243 6.3240318 0.37392974
7.716538 6.3926673 0.36687225
7.3676124 6.4096546 0.35753432
7.0192332 6.4106297 0.3480348
6.6886864 6.4115577 0.33922181
6.3742819 6.4124398 0.33102965
6.0745358 6.413281 0.32341048
5.7881198 6.4140854 0.31631255
5.5138526 6.414856 0.30969542
4.7538719 6.4169898 0.29238418
4.5186377 6.4176512 0.28735992
4.2912159 6.4182897 0.28266829
3.8573291 6.4195089 0.27419662
3.6497607 6.420094 0.27037886
3.4477782 6.4206614 0.26682022
3.2509227 6.4212155 0.26350495
3.0216162 6.3436837 0.25725296
2.8335986 6.3385973 0.25420091
2.3322313 6.4294186 0.25040129
2.1583056 6.4299083 0.24831878
1.6520849 6.4313364 0.24310821
1.3251611 6.4322596 0.24044235
1.1641748 6.4327145 0.23933914
0.84614742 6.4336119 0.23757415
0.22036621 6.4353795 0.23574874
-0.24583983 6.4366989 0.23583068
-0.40161133 6.4371395 0.23613326
-0.55788082 6.4375815 0.23657486
-1.0315088 6.4389243 0.23874633
-1.1916357 6.4393787 0.23976013
-1.3532226 6.4398365 0.24092361
-1.5164795 6.440299 0.24223983
-2.0185156 6.4417233 0.24715118
-2.1595263 6.3504004 0.2455751
-2.5078759 6.3513913 0.25000641
-2.9077978 6.4363208 0.25857803
-3.2910936 6.4374108 0.26470014
-3.6939452 6.4385571 0.27176833
-4.1199121 6.4397693 0.27989379
-4.3428516 6.4404025 0.28439453
-4.5732226 6.4410596 0.28921461
-4.8116746 6.4417381 0.29437408
-5.5831885 6.4439368 0.31216049
-5.8620605 6.4447312 0.31896117
-7.7451949 6.3650646 0.36704344
-8.24685 6.4502892 0.38332
-9.125371 6.4527965 0.40918699
-9.6112347 6.4541845 0.42386457
-10.697329 6.4572864 0.45747298
-15.41542 6.4862633 0.61231536
-19.458359 -7.6378441 0.76532269
-18.785053 -7.9018946 0.74612534
-19.19607 -8.6257477 0.77050167
-19.864931 -21.835052 1.0807545
-14.861875 -22.035303 0.97309768
-14.202724 -22.195215 0.96474224
-13.636684 -22.488216 0.96288025
-13.171992 -22.953613 0.96891767
-12.86913 -23.734919 0.98849654
-12.756489 -24.945747 1.025799
-12.65877 -26.30187 1.0686886
-2.3333788 -7.4439812 0.28561386
-2.1930809 -7.6375427 0.29092515
-2.0435987 -7.8240294 0.29606369
-1.7575439 -7.4607987 0.2806311
7.3071041 -28.456682 1.075655
7.3862643 -23.910072 0.91621155
7.7696924 -23.154314 0.89417756
9.6921434 -21.686335 0.86966395
10.312768 -21.656342 0.87819105
12.317739 -21.672199 0.91266614
13.742582 -21.673187 0.93957347
15.021362 -8.6604395 0.63481855
14.983832 -8.1634817 0.62472332
15.284125 -7.8548331 0.62915283
15.591498 -7.5428367 0.6341269
14.401098 6.4013767 0.57699704
13.326577 6.3131762 0.53989148
12.705249 6.3987069 0.52082562
11.318032 6.4025912 0.47608352
10.709457 6.4042969 0.45685485
10.147788 6.405869 0.43936232
8.6907759 6.4099522 0.39536911
7.1338034 6.4103098 0.35113737
6.4778466 6.4121485 0.33370697
5.8826122 6.4138207 0.31863251
5.6043897 6.4146018 0.3118608
5.0812745 6.4160705 0.29964751
4.8345065 6.4167624 0.29414427
3.7186182 6.4198999 0.27162826
3.5148289 6.4204721 0.26798385
3.316294 6.4210315 0.26458937
3.0846727 6.3435068 0.25824967
2.3911474 6.4292541 0.25113907
2.2162158 6.4297462 0.24899657
1.7075634 6.4311805 0.24361572
0.89907712 6.4334617 0.23782973
0.74132323 6.4339085 0.23711547
0.42819822 6.4347925 0.23611037
0.27244627 6.4352331 0.23581634
-0.038344726 6.4361119 0.2356427
-0.19375488 6.4365516 0.23576003
-0.34940916 6.4369922 0.2360173
-0.50549316 6.4374337 0.23641174
-0.81969726 6.438324 0.23762146
-0.97818357 6.4387732 0.23844025
-1.2989404 6.4396811 0.24051772
-1.6261084 6.4406104 0.24320175
-1.7926317 6.4410825 0.24478211
-2.1327734 6.4420481 0.24844451
-2.2740185 6.3507276 0.24696854
-2.4486718 6.3512216 0.24921401
-2.6299317 6.3596668 0.2519632
-3.2256494 6.4372239 0.26361281
-3.625 6.4383602 0.27051437
-4.0468163 6.4395604 0.27845427
-4.4952197 6.440836 0.28756455
-4.7308884 6.4415073 0.29260758
-4.975122 6.442203 0.29800782
-5.2286768 6.4429269 0.3037909
-5.4924316 6.4436779 0.30998793
-6.0544481 6.4452796 0.32375777
-7.0017233 6.4479809 0.34848753
-7.6183982 6.3647032 0.36345869
-8.0062399 6.3670554 0.37450898
-8.970088 6.4523535 0.40455016
-9.4447069 6.4537096 0.41880721
-10.503608 6.4567332 0.45140442
-11.744424 6.460278 0.49074659
-13.053481 6.3802271 0.53194672
-14.116479 6.4825497 0.56872207
-15.0712 6.4852796 0.60070401
-19.186777 -7.8890014 0.75952756
-18.306738 -8.0489788 0.73216826
-18.312103 -21.829445 1.0431832
-16.604589 -21.854607 1.0048836
-15.101987 -22.005581 0.97714245
-12.951138 -23.432224 0.98021817
-2.1028662 -7.7928391 0.2955156
7.258081 -26.492811 1.0056956
7.6307077 -23.364548 0.89988661
9.5059128 -21.739584 0.86869109
11.418628 -21.688036 0.89737272
13.498178 -21.673019 0.9348042
15.788696 -21.680794 0.98195571
17.451097 -21.682198 1.0190099
18.332954 -21.684896 1.0396336
19.250326 -21.686089 1.0616612
20.207933 -21.687334 1.0852815
15.487954 -7.64783 0.632406
14.718423 6.4004879 0.58761901
12.215796 6.4000769 0.50490844
10.907651 6.4037414 0.46308744
10.331 6.4053564 0.44503859
9.3014011 6.4082408 0.41353974
7.8902879 6.3243957 0.37022629
6.5831199 6.4118543 0.33645034
6.2736959 6.4127221 0.32845244
5.6962256 6.4143429 0.31407484
5.1660008 6.4158311 0.3015776
4.4426708 6.4178638 0.2857753
4.2177 6.4184971 0.28118759
3.7881298 6.4197044 0.27290511
3.3822021 6.4208469 0.26569855
3.1869578 6.4213963 0.26246169
2.7732568 6.338768 0.25331283
2.2744579 6.4295812 0.24969329
1.7632959 6.4310226 0.24414124
1.5975732 6.431489 0.24262343
1.2718115 6.4324093 0.24006133
1.1113135 6.4328623 0.2390071
0.79404783 6.4337583 0.23733917
0.63687986 6.4342027 0.23671906
0.32454589 6.4350867 0.23589966
0.16902344 6.4355249 0.23569778
-0.14170898 6.4364047 0.23570663
-0.60964352 6.4377279 0.23675171
-1.0842627 6.4390745 0.23906569
-1.2448437 6.4395285 0.24012786
-1.5708106 6.440454 0.24270889
-2.0751123 6.4418845 0.24778427
-2.2162256 6.350564 0.24625701
-2.3898387 6.3510556 0.24844116
-2.5666602 6.3515573 0.25081238
-2.7504492 6.3600097 0.25369263
-2.9698975 6.4364963 0.25952804
-3.55667 6.4381652 0.26929063
-3.7625976 6.4387512 0.27303374
-4.1927781 6.4399767 0.28134659
-4.8923292 6.4419675 0.29615813
-5.4029393 6.4434228 0.30786574
-5.6739893 6.4441953 0.31435546
-6.5629296 6.4467297 0.33681425
-6.8888278 6.4476585 0.34545028
-7.4940524 6.3643479 0.35996717
-8.3842382 6.4506822 0.38730192
-8.8182564 6.4519215 0.40004089
-9.7795315 6.4546652 0.42900282
-10.893622 6.4578466 0.46365064
-11.521757 6.4596424 0.48360839
-12.20688 6.4616003 0.50566953
-12.788936 6.3794713 0.52324861
-13.819053 6.4817004 0.55883056
-14.739799 6.4843321 0.58956283
-16.926151 6.4905834 0.66369963
-28.888432 -7.7264581 1.0948379
-19.669966 -7.3562961 0.76886809
-18.54521 -7.9755979 0.73910183
-19.199444 -8.8118992 0.77342999
-10.764151 -7.7394681 0.48538956
-20.517769 -21.833065 1.096926
-19.549541 -21.835669 1.073037
-16.868622 -21.833569 1.0101542
-16.089155 -21.897207 0.9948405
-15.344131 -21.975605 0.98128784
-14.632109 -22.072243 0.96954799
-13.46706 -22.613153 0.96360654
-12.732475 -25.396332 1.0401171
-2.1455858 -7.7031021 0.29276139
-1.4021581 -7.9253392 0.29466796
7.2898779 -27.478214 1.0408521
7.2030711 -24.727333 0.94294429
7.5081592 -23.634884 0.90792769
7.9050536 -22.949526 0.88867366
8.3389206 -22.43541 0.8763063
10.524585 -21.654682 0.88149822
11.194614 -21.685848 0.89350688
11.868579 -21.690641 0.9052484
12.547475 -21.672358 0.9168576
13.986176 -21.673359 0.94438231
15.522065 -21.680569 0.97622889
6.1376123 -7.7531328 0.36203581
18.03264 -21.68269 1.0325134
19.88266 -21.686909 1.0771905
15.189985 -8.1194239 0.6305992
15.694242 -7.4387407 0.63587403
12.458374 6.3993979 0.51277965
11.755259 6.4013672 0.49005798
11.111372 6.4031701 0.46952161
8.9902687 6.4091125 0.40422851
7.716538 6.3912582 0.36684203
7.3692236 6.4096494 0.3575798
7.0207663 6.410625 0.34807739
6.6901417 6.4115524 0.3392601
5.7893796 6.4140821 0.31634292
5.2518311 6.4155908 0.30355042
4.9987254 6.4163013 0.29778883
3.6506689 6.4200916 0.27039582
3.4486766 6.4206591 0.26683471
3.2518115 6.4212132 0.26351929
3.0224657 6.3436813 0.25726593
2.8344285 6.3385949 0.25421354
2.4751611 6.3396082 0.2491658
2.1590772 6.4299059 0.24832839
1.8192431 6.4308667 0.24468596
1.4884521 6.4317989 0.24170348
1.3258837 6.4322567 0.24044815
0.68939942 6.4340539 0.236911
0.37669432 6.4349389 0.23599838
0.22106934 6.4353781 0.23575012
0.065673828 6.4358177 0.23563889
-0.089677729 6.4362574 0.23566604
-0.24514648 6.436698 0.23583023
-0.71411622 6.4380245 0.23715301
-0.87193358 6.4384713 0.23787567
-1.1909131 6.4393759 0.23975495
-1.3524902 6.4398336 0.24091765
-1.5157373 6.4402966 0.24223343
-1.6808691 6.4407663 0.2437062
-1.8481348 6.4412389 0.24534148
-2.0177491 6.4417224 0.24714263
-2.1587598 6.350399 0.2455661
-2.3313622 6.3508897 0.24768981
-2.5070801 6.3513889 0.24999663
-2.6895604 6.3598361 0.25281006
-2.9069676 6.4363194 0.25856474
-3.0963526 6.4368553 0.26151305
-3.4889598 6.4379735 0.26809433
-4.1189303 6.4397655 0.27987486
-4.341836 6.4403992 0.28437454
-4.810576 6.4417343 0.29435056
-5.3146434 6.443171 0.30579162
-5.5819678 6.443933 0.31213105
-5.8607712 6.4447274 0.31893051
-6.7778659 6.4473424 0.34248763
-8.2449951 6.4502845 0.38326597
-11.305503 6.4590244 0.47670424
-12.62208 6.4241405 0.51852906
-14.420424 6.4834189 0.57886583
-16.522505 6.4894285 0.64990693
-17.781385 6.4930286 0.69305599
-18.788368 -7.900878 0.74622601
-18.925575 -21.83416 1.0578914
-18.013578 -21.824657 1.0360626
-17.146191 -21.825991 1.0161835
-14.205571 -22.194397 0.96477097
-13.638988 -22.486515 0.96288007
-2.3339891 -7.4431381 0.28559205
-2.1937256 -7.636652 0.29089934
-2.0443993 -7.8236094 0.29605421
-1.2777441 -7.965477 0.29536071
7.3073483 -28.470438 1.0761431
8.6435499 -22.159061 0.87082124
9.1346922 -21.845739 0.86692137
11.641098 -21.689325 0.90122968
13.016586 -21.672686 0.92559463
13.739292 -21.673187 0.93950391
15.258412 -21.680346 0.97063899
18.631773 -21.685284 1.0467423
19.562115 -21.686493 1.0692786
15.021547 -8.662715 0.63486725
15.282759 -7.8562264 0.62913358
15.590093 -7.5442657 0.63410336
23.461079 -8.0365715 0.90797532
15.389555 6.3986082 0.61020076
14.405297 6.4013634 0.57713455
13.330297 6.3131661 0.54001039
12.708667 6.3986974 0.5209378
10.15022 6.4058628 0.43943831
8.6927195 6.4099474 0.39542663
8.1560497 6.3236508 0.37785447
7.4902196 6.4093089 0.36092573
6.7989697 6.4112487 0.34214064
6.4792333 6.4121456 0.33374375
6.1746922 6.4130001 0.32593521
5.8839011 6.4138169 0.3186647
5.6056199 6.4145985 0.31189054
5.0823975 6.4160666 0.29967362
4.3675537 6.4180746 0.28422469
3.7195458 6.4198971 0.27164474
3.3171728 6.4210291 0.26460341
2.89604 6.3384213 0.2551367
2.7133155 6.3389368 0.25244811
2.5343213 6.3394394 0.24995773
2.0449364 6.4302292 0.24704085
1.8754541 6.4307055 0.24524811
1.5432763 6.431643 0.24215865
1.2186377 6.4325595 0.23969726
0.89979976 6.4334593 0.23783371
0.42890134 6.4347911 0.23611328
0.11768554 6.4356713 0.23566131
-0.037651367 6.4361105 0.23564178
-0.19306152 6.4365487 0.23575974
-0.5047949 6.4374313 0.23641022
-0.8189795 6.4383216 0.23761871
-0.9774707 6.4387708 0.23843612
-1.1371533 6.4392247 0.23939957
-1.2982129 6.4396787 0.24051131
-1.4608788 6.4401417 0.24177535
-1.6253564 6.4406075 0.24319534
-2.1319971 6.4420457 0.24843597
-2.2732372 6.3507252 0.24695754
-2.447876 6.3512206 0.24920195
-2.6291113 6.3596654 0.25195068
-3.2247705 6.4372215 0.2635977
-3.4218407 6.4377832 0.26692533
-3.8319139 6.4389477 0.27432922
-4.0458446 6.439558 0.27843568
-4.7298045 6.441505 0.29258469
-5.227529 6.4429235 0.30376509
-5.4912252 6.4436741 0.30995956
-6.0531297 6.4452758 0.32372344
-6.6687889 6.4470325 0.33959669
-8.0044622 6.3670506 0.37446532
-9.4425192 6.4537034 0.41874099
-9.9519625 6.4551573 0.4342964
-10.501044 6.4567261 0.45132369
-13.049863 6.3802171 0.53182542
-14.112416 6.4825377 0.56858486
-15.06666 6.4852657 0.60055006
-17.34166 6.4917712 0.67794114
-18.472397 6.411212 0.71589279
-19.188198 -7.8871417 0.75955015
-18.309937 -8.0479889 0.73225963
-19.23769 -21.83519 1.0654408
-17.430996 -21.823156 1.0225766
-16.608135 -21.854326 1.0049895
-15.105186 -22.00518 0.97719783
-14.419761 -22.133057 0.96713638
-13.810678 -22.360056 0.96221006
-12.695903 -25.835457 1.053913
1.5968018 6.4313598 0.093278348
1.1105615 6.432734 0.091888428
0.79331541 6.4336314 0.091246791
0.63615721 6.4340758 0.091008909
0.32384276 6.4349594 0.090694122
0.012963867 6.4358387 0.090592191
-0.7675488 6.4380479 0.091263883
-0.92568845 6.4384947 0.091561429
-1.0849512 6.4389453 0.091913752
-1.4076562 6.4398594 0.092789151
-2.075835 6.4417505 0.095266417
-2.216953 6.350431 0.094680935
-2.3905761 6.3509216 0.095518336
-2.5674121 6.3514233 0.096431427
-2.7511961 6.3598719 0.097539976
-2.9706738 6.4363575 0.099783935
-3.1615381 6.4368992 0.10094634
-3.5575049 6.4380212 0.10353821
-3.9753418 6.4392066 0.10652161
-4.4190183 6.440465 0.10994491
-4.6520066 6.441124 0.11184097
-5.1436963 6.4425192 0.1160434
-5.4039841 6.4432578 0.11837265
-7.2334275 6.4484482 0.13640426
-7.4954782 6.3641562 0.13840576
-7.8758054 6.3664818 0.14255203
-8.3858595 6.4504747 0.14892288
-9.7814941 6.4544382 0.16496032
-10.895908 6.4576011 0.17828506
-11.524267 6.4593859 0.18596131
-13.822333 6.4814048 0.21489395
-18.032465 6.4178624 0.26942155
-28.893095 -7.7310638 0.42101088
-19.195463 -7.7142391 0.2911998
-19.545786 -21.836174 0.41251785
-18.613882 -21.833261 0.40385696
-13.990288 -22.257397 0.37005171
-13.063838 -23.197378 0.3747493
-12.823286 -24.113398 0.38443115
-12.651948 -26.840584 0.41768035
-1.9836279 -7.8534393 0.11401764
7.2857175 -27.450636 0.39979553
7.201694 -24.712606 0.36232543
7.5081787 -23.625996 0.3489511
8.8075628 -22.044601 0.33415726
11.197798 -21.686306 0.34354919
13.259409 -21.672832 0.35763517
13.989507 -21.67334 0.36310944
14.742759 -21.673862 0.36899015
15.525386 -21.680298 0.37535369
16.331568 -21.680977 0.3820819
6.1378956 -7.7517691 0.13917953
18.038334 -21.684713 0.39703932
18.943218 -21.685894 0.40531585
14.960981 -7.9949303 0.23877822
15.235122 -7.6746478 0.24012756
26.793892 6.3662853 0.38765335
20.178461 6.3677683 0.29784453
18.371929 6.2890658 0.27333999
17.300873 6.3928919 0.25962326
16.103579 6.3962646 0.24390243
15.042397 6.3992553 0.23010467
12.454516 6.3991308 0.19709793
11.751714 6.4011106 0.18836638
10.516059 6.4045935 0.17331696
9.9688234 6.4061337 0.16679931
9.4609909 6.4075656 0.1608429
7.7149267 6.3913331 0.14102356
7.0190182 6.4104404 0.13380493
6.3740869 6.4122605 0.12726699
5.7879539 6.4139123 0.12160888
5.5137057 6.4146872 0.11906525
4.5185304 6.4174948 0.11047821
4.0708737 6.4187584 0.10698974
3.0215478 6.343545 0.09890274
2.8335302 6.3384595 0.097731017
2.6521239 6.3389707 0.096723177
2.4743211 6.3394737 0.095791318
2.1582568 6.4297738 0.095469207
1.3251318 6.4321275 0.092440642
0.84612793 6.4334826 0.091337889
0.68869627 6.4339271 0.091082148
0.5320459 6.4343686 0.090880126
0.3759912 6.4348121 0.090732113
0.22036621 6.4352512 0.090636902
0.064975582 6.4356909 0.090594023
-0.40161133 6.4370117 0.090784602
-0.5578711 6.4374533 0.090953521
-0.71481931 6.4378977 0.091178127
-0.87262696 6.4383445 0.091455683
-1.3531982 6.4397044 0.092626646
-1.8488525 6.4411097 0.094327696
-2.0184765 6.4415879 0.095019527
-2.1594825 6.3502674 0.094413906
-2.3320947 6.3507566 0.095230713
-2.6903272 6.3597007 0.097200774
-3.0971386 6.4367175 0.10054641
-3.2910204 6.4372654 0.10176712
-3.4897852 6.4378304 0.10307769
-3.6938574 6.4384079 0.10448471
-4.1198192 6.4396152 0.10760818
-5.0588083 6.4422789 0.11529953
-5.8618994 6.4445567 0.12262832
-6.1533399 6.4453845 0.12543365
-6.7791405 6.4471593 0.13168716
-7.3814597 6.3707166 0.13724716
-9.1250629 6.4525733 0.15731475
-9.6109028 6.4539523 0.16295685
-10.133203 6.4554358 0.16912201
-10.696918 6.457037 0.17587525
-11.307935 6.4587708 0.18330657
-11.973237 6.4606605 0.19150695
-14.423945 6.4831152 0.22259872
-17.786324 6.4926648 0.26652238
-19.865381 -21.835556 0.4155255
-16.343641 -21.875889 0.38440916
-14.862305 -22.035913 0.37413391
-14.203452 -22.196352 0.37092879
-13.174389 -22.957764 0.3725836
-12.872626 -23.741354 0.38014969
-12.663261 -26.311201 0.41102219
7.3030224 -28.440798 0.41332564
7.1954832 -25.455341 0.37235138
7.7683835 -23.150473 0.34372634
8.1910591 -22.587488 0.33820358
8.6449461 -22.155622 0.33476439
10.312768 -21.656322 0.33763593
10.971401 -21.675774 0.34197083
12.317719 -21.672176 0.35089096
13.01979 -21.672665 0.35588455
13.742563 -21.673166 0.36123472
14.487865 -21.673683 0.36697632
15.261703 -21.680079 0.3732051
16.058393 -21.680746 0.37978011
15.134174 -7.7777686 0.23951507
25.021851 6.3712778 0.36344695
22.677055 6.3607297 0.3315222
20.756283 6.3661399 0.30560255
19.113276 6.3707676 0.28359589
17.737095 6.3916636 0.26538771
15.384116 6.3982921 0.23453079
14.400405 6.401063 0.22182617
13.325952 6.3128834 0.20754653
11.979985 6.4004674 0.19119079
10.709038 6.4040489 0.17563935
7.1335888 6.4101181 0.13499847
6.1731882 6.412827 0.1252954
5.6042428 6.414432 0.11989715
5.0811472 6.4159079 0.11520202
4.5963817 6.417274 0.11111069
4.1438622 6.4185519 0.10754257
3.71854 6.4197521 0.10442993
3.514751 6.4203272 0.10302917
3.3162158 6.4208875 0.10172409
3.0846045 6.3433652 0.099283747
2.8951416 6.338285 0.098085321
2.5334814 6.3393078 0.096094206
2.3910985 6.4291162 0.096553497
2.2161767 6.4296103 0.095729977
1.874663 6.4305758 0.094285734
1.5425049 6.4315147 0.093097992
1.2178857 6.4324317 0.092152558
1.0578564 6.4328842 0.091766052
0.89905763 6.4333324 0.091436155
0.74130368 6.4337778 0.091161802
0.58441895 6.4342222 0.090941615
0.42818847 6.4346642 0.090775758
0.11697754 6.4355454 0.090603329
-0.03834961 6.4359837 0.090595551
-0.81967771 6.4381943 0.091356352
-0.9781689 6.4386425 0.09167099
-1.2989209 6.4395504 0.092469789
-1.4615868 6.440012 0.092955932
-1.6260742 6.4404774 0.093501434
-2.1327295 6.4419117 0.09551727
-2.2739747 6.3505921 0.094948426
-2.4486182 6.3510861 0.095812984
-2.8452539 6.4360023 0.099052429
-3.0332372 6.4365344 0.10015792
-3.4226658 6.4376392 0.10262787
-3.624912 6.4382114 0.10400146
-3.8327684 6.4388013 0.10547516
-4.2673097 6.440033 0.10874588
-4.4951072 6.4406796 0.11055756
-5.2285447 6.4427609 0.11679504
-5.49229 6.4435081 0.11917755
-5.7671924 6.4442892 0.12173156
-6.0542822 6.4451022 0.12447174
-6.6700387 6.4468493 0.13057555
-9.444375 6.4534802 0.16101287
-9.95397 6.4549265 0.16699569
-10.503213 6.4564853 0.17354508
-12.449936 6.4620152 0.19744597
-14.11581 6.4822388 0.21864684
-16.139561 6.4879856 0.24485397
-18.477758 6.4108372 0.27532363
-19.316454 -7.4025631 0.29118255
-20.189697 -21.83493 0.41860306
-19.233618 -21.835312 0.40959275
-18.312168 -21.829519 0.40107605
-17.427294 -21.823383 0.39311919
-16.60495 -21.85507 0.38635024
-15.102427 -22.006191 0.37569183
7.2530518 -26.474453 0.38638687
7.2834129 -24.270956 0.35667571
8.4854736 -22.276865 0.33555222
8.9674072 -21.935472 0.33356446
12.086977 -21.672018 0.34929398
17.450865 -21.681913 0.39177474
18.33313 -21.685097 0.39971039
15.335219 -7.5724106 0.24074295
28.691498 6.329061 0.41357529
25.885424 6.368845 0.3752327
19.636421 6.3692956 0.2905812
18.193228 6.390377 0.27142775
16.888676 6.3940539 0.25419617
11.533012 6.4017258 0.18567215
10.907231 6.4034901 0.17803603
10.33061 6.4051147 0.17109756
9.3010788 6.4080176 0.15898681
8.8385792 6.4093199 0.15368102
5.6960788 6.4141736 0.12074813
5.4255905 6.4149351 0.11826386
5.165874 6.4156675 0.11594375
4.4425635 6.4177084 0.10986892
3.5823584 6.4201365 0.10348709
3.3821239 6.4207029 0.10215057
3.1868896 6.4212523 0.10090591
2.9598193 6.3437181 0.098533936
2.7731981 6.3386292 0.097388454
2.5930028 6.339138 0.096407317
