# .PCD v0.7 - Point Cloud Data file format
VERSION 0.7
FIELDS x y z
SIZE 4 4 4
TYPE F F F
COUNT 1 1 1
WIDTH 1491
HEIGHT 1
VIEWPOINT 0 0 0 1 0 0 0
POINTS 1491
DATA ascii
1.8633691 6.3396463 0.39108366
1.5572363 6.4299197 0.39155501
1.3939941 6.4303827 0.38942108
1.2324414 6.4308391 0.38753387
1.0723437 6.4312921 0.38588974
0.75572264 6.432188 0.38330626
0.59883785 6.432631 0.38235977
0.4426074 6.433074 0.38164061
-0.023808593 6.4343963 0.3808203
-0.17913085 6.4348369 0.38099197
-0.3346875 6.4352789 0.38138518
-0.64722168 6.4361672 0.38284424
-1.1223876 6.4375176 0.38675049
-1.2832519 6.4379754 0.38852555
-1.4457031 6.4384394 0.39054519
-1.6099365 6.4389067 0.39281723
-1.7761865 6.4393792 0.39534608
-2.2894726 6.4408441 0.40456679
-2.6464112 6.4418631 0.41217926
-4.2445216 6.4385076 0.45641524
-4.4715085 6.439157 0.46397719
-4.7062745 6.4398293 0.47207105
-5.2020507 6.4412527 0.49002457
-6.0240574 6.4436111 0.52206773
-6.3230858 6.4444718 0.53434557
-7.6809616 6.4483757 0.59355819
-7.9919825 6.3871465 0.60550183
-8.9222755 6.4507022 0.651622
-9.3934765 6.4520588 0.67446411
-9.8992043 6.453516 0.69938904
-11.03354 6.4567838 0.75661451
-12.373408 6.4606452 0.8261348
-20.678442 -7.2974339 1.2978222
-18.923052 -8.2616272 1.2220453
-20.297232 -21.834799 1.7644012
-19.335024 -21.833261 1.7260638
-17.527544 -21.829418 1.6568991
-15.963364 -21.974224 1.6074982
-14.056669 -22.627832 1.5766013
-13.257324 -26.80224 1.7697332
-3.0474122 -7.4783325 0.47794294
-2.9111669 -7.6684232 0.48545897
-2.7705371 -7.864903 0.49352142
-2.5120118 -7.7205987 0.48052168
-2.211328 -7.3986521 0.45702818
-1.9810644 -8.0199709 0.4889282
6.6747751 -27.222033 1.6588759
6.6362009 -24.493404 1.5019064
8.2999897 -21.976868 1.3903695
8.82374 -21.760115 1.3897269
10.025635 -21.659885 1.4126049
10.681084 -21.687321 1.4307891
12.006249 -21.672585 1.4663669
12.699365 -21.673071 1.4867035
13.412519 -21.673574 1.5085076
14.147236 -21.674089 1.5318341
16.506357 -21.682377 1.6128186
17.348984 -21.6831 1.6435686
18.226425 -21.685564 1.6765798
19.139091 -21.68675 1.7118857
20.091543 -21.68799 1.7497525
13.981289 -8.2675142 0.96133071
14.564355 -8.1445417 0.98761398
15.179727 -7.5515075 1.003442
8.8948536 6.4077287 0.64881635
7.5586424 6.3236613 0.5832727
7.2040524 6.3286614 0.56752807
6.9500484 6.4091568 0.55954099
6.311748 6.410944 0.53246212
5.7311034 6.41257 0.50901198
4.947207 6.4147673 0.4794493
4.471787 6.4161015 0.46286619
4.2459178 6.4167352 0.45538634
3.8148241 6.4179459 0.44188079
3.6084764 6.4185257 0.43579757
3.4076366 6.4190912 0.43012619
2.6507812 6.4212198 0.4111473
1.9262109 6.3394685 0.39213836
1.4554003 6.4302092 0.39019653
1.2932422 6.4306669 0.38821822
0.97331053 6.4315715 0.3849858
0.50150388 6.4329081 0.3818852
0.34561524 6.4333487 0.38130447
0.034794923 6.4342303 0.38081419
-0.12048828 6.4346695 0.38090163
-0.27592772 6.4351115 0.38121077
-0.58804685 6.4359989 0.38249984
-0.74507809 6.4364448 0.38348281
-0.90299803 6.4368939 0.38469681
-1.5477197 6.4387298 0.3919293
-1.7131786 6.4391994 0.39435974
-1.8808056 6.4396768 0.39705384
-2.749536 6.4169106 0.41318083
-2.9045508 6.3508768 0.41332123
-3.7325292 6.4370403 0.44038925
-4.1607227 6.4382658 0.45369262
-4.3849559 6.4389091 0.46106169
-4.6166992 6.4395733 0.46895033
-4.8566651 6.4402604 0.47739822
-5.9147167 6.4432974 0.51765609
-6.208569 6.4441423 0.52960694
-6.5165038 6.4450274 0.54244828
-6.8399558 6.4459562 0.55626005
-7.1804929 6.4469352 0.57113355
-9.7039747 6.4529519 0.68971997
-13.232773 6.6582928 0.87673581
-13.480381 6.3800454 0.88268018
-20.002235 -7.9522734 1.2739593
-18.471928 -8.3973207 1.2009245
-18.751631 -21.826488 1.7030652
-17.853174 -21.824802 1.6688226
-17.025723 -21.869411 1.6403592
-15.504443 -22.03104 1.5944296
-14.252539 -22.483561 1.5755234
-13.78336 -22.949965 1.5844336
-13.480253 -23.723993 1.6149408
-13.269838 -26.223778 1.7394476
-3.0977783 -7.4081326 0.47524017
-2.9630907 -7.5959516 0.48255935
-2.6302929 -7.8406463 0.48946396
-2.3212109 -7.5161633 0.46557403
-2.0528123 -7.9968729 0.48863906
6.5895214 -25.229536 1.5432996
7.6570215 -22.510872 1.407272
8.1177635 -22.101288 1.3935074
8.6171389 -21.819191 1.3884271
9.171133 -21.675968 1.3929935
10.432705 -21.67882 1.4239017
12.435508 -21.672886 1.4788611
13.140849 -21.673382 1.5000992
13.867314 -21.673891 1.5228589
17.027197 -21.682821 1.6316998
17.891514 -21.685127 1.6638757
19.727236 -21.687517 1.7351499
13.745878 -8.2981663 0.95029891
14.38208 -8.2154989 0.98029125
15.065497 -7.666647 1.0004662
15.369726 -7.3601108 1.0085784
-20.243847 -7.4253488 0.78945172
-19.802216 -21.834936 1.0792097
-18.856543 -21.828243 1.0560759
-16.334599 -21.934824 1.0012928
-13.822666 -22.874207 0.97850126
-13.378159 -24.764162 1.0305066
-13.277983 -26.06362 1.0709327
-2.9349902 -7.4639111 0.2936357
-2.6498096 -7.8281775 0.30257905
-2.6068702 -8.3603535 0.32062256
6.6987205 -28.787601 1.0821284
6.5855465 -25.497599 0.96415067
7.1778612 -23.120598 0.8863467
10.358633 -21.675678 0.87955272
13.060351 -21.673306 0.9264375
13.784238 -21.673811 0.94040495
14.534814 -21.680416 0.95563763
5.4844236 -7.7686248 0.34816176
16.104374 -21.681755 0.98882794
16.931776 -21.682461 1.0072044
19.619698 -21.687586 1.070726
20.592089 -21.686893 1.0949049
14.400732 -8.7470675 0.61687833
14.363515 -8.2567444 0.6065715
14.58788 -7.923676 0.60779279
14.882334 -7.6244626 0.61221462
14.353613 6.3995962 0.57537901
13.475195 6.402061 0.54620284
12.51206 6.3189325 0.51319611
10.679639 6.4024944 0.45588377
9.6017475 6.4055228 0.42258561
8.2462502 6.4093313 0.38237959
7.3728027 6.3239861 0.35562789
7.1025391 6.3959918 0.34993485
5.8684864 6.4120121 0.31823578
5.3247266 6.4135418 0.30519027
4.5851464 6.4156256 0.28870833
4.3556151 6.4162736 0.28392547
3.7088182 6.4180961 0.27139097
3.5053515 6.4186697 0.2677606
3.3071191 6.419229 0.26437682
3.11375 6.4197745 0.26122802
2.9248145 6.4203091 0.25830153
2.1778028 6.3386259 0.24538329
1.7003613 6.4293842 0.24348418
1.535498 6.4298501 0.2420285
1.3724902 6.4303117 0.2407289
1.2111328 6.4307694 0.2395819
1.0512304 6.431221 0.23858444
0.8925488 6.4316716 0.23773193
0.73490232 6.432117 0.23702468
-0.19969726 6.4347672 0.23570235
-0.35529295 6.4352093 0.23596358
-0.98391598 6.436995 0.23840728
-1.4672998 6.4383683 0.24176544
-2.6704638 6.4417925 0.25530869
-2.814033 6.3504801 0.25430724
-3.1895506 6.3515506 0.26021942
-3.4288721 6.4360256 0.26698944
-3.6312206 6.4366031 0.27056959
-3.8392041 6.4371953 0.27441132
-4.2740235 6.4384365 0.28293365
-4.9822803 6.4404583 0.29811797
-5.2360792 6.4411845 0.30391219
-5.500083 6.4419379 0.310121
-5.7752633 6.4427252 0.3167778
-6.0626755 6.4435468 0.32391784
-6.3635449 6.444406 0.33158478
-6.6791797 6.4453092 0.33982772
-7.0110984 6.446259 0.34869781
-7.3610497 6.4472589 0.35825852
-7.7309227 6.4483185 0.36857757
-8.4267721 6.3652725 0.38663971
-8.9825144 6.450655 0.40488234
-9.9685936 6.4534783 0.43477324
-10.519004 6.4550552 0.45185179
-11.114775 6.4567618 0.47061369
-12.470376 6.4606452 0.51419938
-13.235737 6.4569831 0.53917372
-14.14084 6.4809256 0.56950682
-15.098467 6.4836698 0.6015985
-17.382193 6.4902167 0.67931134
-20.36751 -7.2609386 0.79166108
-19.464184 -7.47297 0.76333863
-19.286568 -7.9438877 0.76366943
-18.284872 -21.82069 1.0423012
-17.42037 -21.838459 1.0227683
-16.624804 -21.905155 1.0068094
-15.149795 -22.099779 0.98097944
-14.50791 -22.298731 0.97398299
-13.61746 -23.31892 0.98866606
-13.409452 -24.290365 1.015831
-2.7171631 -7.7927337 0.3021521
-2.416831 -7.5094981 0.28882614
-1.9370898 -7.9509215 0.29961395
7.4360743 -22.740116 0.8759439
7.8819237 -22.26968 0.86489487
8.895957 -21.738512 0.85995221
9.4822063 -21.664471 0.86582488
10.767646 -21.687971 0.88651413
11.419697 -21.672153 0.89687389
12.096875 -21.672626 0.90871197
12.792607 -21.673115 0.92141032
13.508457 -21.673618 0.9350192
17.464277 -21.684767 1.0193837
18.345243 -21.685921 1.0399483
19.262968 -21.687119 1.0619954
20.221035 -21.688368 1.0856383
13.825108 -7.673255 0.57890427
14.770663 -7.7379093 0.61049497
15.068154 -7.4360471 0.61519593
12.209678 6.3981986 0.50467759
10.902549 6.4018683 0.4628903
9.7929878 6.4049859 0.42841521
9.2973928 6.4063787 0.41337875
8.8351564 6.4076777 0.39958769
8.4025097 6.4088922 0.38690382
7.9962792 6.4100347 0.37521103
6.5807028 6.4100065 0.33634049
6.2714844 6.4108768 0.3283487
5.9764452 6.4117093 0.32090941
5.6942968 6.4125018 0.31397796
5.1643357 6.4139948 0.30148712
4.9145703 6.4146976 0.29585785
4.6738181 6.4153767 0.29060104
4.4413571 6.4160309 0.28569275
4.2164745 6.4166641 0.28110686
3.9985645 6.4172797 0.27682647
3.7870898 6.4178762 0.27282852
3.3813574 6.4190192 0.2656253
3.1861913 6.4195709 0.26238966
2.6267772 6.4211502 0.25400099
2.2424903 6.3384442 0.24615738
1.4338086 6.4301386 0.24120072
1.2718652 6.4305964 0.23999664
1.1114355 6.4310513 0.23894286
0.95230466 6.4315009 0.23803619
0.79429686 6.4319487 0.23727523
0.63719726 6.432394 0.23665512
0.32501954 6.433279 0.23583481
-0.60876465 6.4359283 0.23668319
-0.76590818 6.4363751 0.23731063
-1.2436621 6.4377313 0.24005553
-1.9031396 6.4396086 0.2458467
-2.0735106 6.440093 0.24770355
-2.9290917 6.3508072 0.25605574
-3.3142724 6.3598347 0.26256743
-3.5542138 6.4363837 0.2691893
-3.7600098 6.4369693 0.27292985
-3.9717333 6.4375739 0.27693969
-4.1898923 6.4381962 0.28123444
-4.4150729 6.4388394 0.28583434
-4.6478662 6.4395046 0.29075852
-4.8889647 6.4401922 0.29603195
-5.3991747 6.4416509 0.30772766
-6.5582128 6.4449639 0.33664474
-7.2267137 6.4468765 0.35456452
-7.5888228 6.4479117 0.36458954
-7.9722457 6.449008 0.37542158
-8.268486 6.36482 0.38202149
-8.8113136 6.4501667 0.39979765
-9.2746239 6.4514923 0.41363493
-10.30624 6.4544463 0.4452208
-10.884179 6.4561005 0.46332061
-11.511464 6.4578986 0.48324659
-12.19558 6.4598589 0.50527328
-13.592529 6.3800688 0.54974258
-15.751323 6.4855413 0.62365949
-18.219267 6.4926167 0.70813048
-20.163935 -7.5316329 0.78805983
-19.804237 -7.9468875 0.78126782
-18.823999 -8.0862017 0.75007826
-11.356236 -7.748939 0.50321668
-18.629154 -21.824598 1.0505502
-17.738228 -21.826138 1.0297154
-13.742382 -23.048195 0.98245162
-13.464731 -23.873936 1.0035034
-13.364433 -25.092436 1.0408586
-3.0357275 -7.325377 0.29031324
-2.0081835 -7.9280791 0.2994287
6.5850973 -24.887045 0.94251919
7.2793746 -22.967014 0.88209075
9.8672848 -21.652819 0.8711856
11.178057 -21.690351 0.89336836
12.527734 -21.67293 0.91651428
13.235762 -21.673428 0.92977124
13.965029 -21.673937 0.94396526
5.5490332 -7.7623205 0.34934387
16.304375 -21.681927 0.99321836
18.008593 -21.685478 1.0320197
18.912041 -21.686659 1.0534935
14.354619 -8.1390772 0.60415328
14.659648 -7.8507318 0.60883772
14.955254 -7.5505047 0.61336666
15.081904 6.3975506 0.59980237
14.129706 6.4002237 0.5679118
11.778173 6.3994083 0.4907611
11.1325 6.4012222 0.47015762
10.538466 6.4028921 0.45146561
9.9895992 6.4044342 0.43444884
7.6495895 6.3232083 0.36336151
6.701416 6.409667 0.33950987
6.3864746 6.4105549 0.33129668
5.5246677 6.4129801 0.30990249
5.0077343 6.4144354 0.2979373
4.7636814 6.4151225 0.29254454
4.5281835 6.4157867 0.2875067
4.300498 6.4164276 0.28280228
2.6952147 6.4209576 0.25495359
2.4843848 6.3433747 0.24941833
2.3075976 6.3382587 0.24695693
1.9671777 6.3392205 0.24300872
1.4953711 6.429965 0.2416954
1.1718261 6.4308805 0.23932342
0.85382813 6.4317803 0.23754516
0.69638669 6.4322271 0.23687209
0.53977537 6.4326701 0.23633926
0.22819336 6.4335527 0.23569244
0.072871089 6.4339948 0.23557617
-0.23781249 6.434876 0.23575333
-0.3934961 6.435318 0.23604919
-0.54966307 6.435761 0.23648331
-0.86417967 6.4366531 0.23777282
-1.0229346 6.4371052 0.23863204
-1.1829052 6.4375591 0.23963775
-1.3443555 6.4380178 0.24079208
-1.5074414 6.4384818 0.2420993
-1.6724023 6.4389505 0.24356353
-1.8394727 6.4394269 0.24519028
-2.1809032 6.4403982 0.24894805
-2.3558006 6.4408965 0.25109193
-2.5338085 6.4414029 0.25342178
-2.8591356 6.3506083 0.25498503
-3.0457764 6.3511395 0.25788376
-3.2408447 6.3596244 0.26132751
-3.4779785 6.4361663 0.26784423
-3.6816649 6.4367461 0.27148697
-3.8910887 6.4373441 0.27539322
-4.1067529 6.4379597 0.27957886
-4.796948 6.4399295 0.29399857
-5.8445163 6.4429226 0.31848052
-6.1351318 6.4437528 0.3257466
-6.7589698 6.4455376 0.34194091
-7.0951266 6.4464993 0.35097381
-8.1139259 6.3643765 0.37754455
-10.0996 6.4538541 0.43881592
-10.66061 6.4554605 0.45628706
-11.930127 6.4590983 0.49669251
-14.365956 6.4815717 0.577021
-15.349902 6.4843912 0.61007798
-16.454033 6.4875565 0.64754665
-17.703472 6.491137 0.69035381
-18.88188 6.4107256 0.73006165
-19.602797 -7.6595221 0.77053756
-18.068071 -21.822851 1.0372823
-17.222441 -21.854233 1.0187186
-16.435982 -21.924459 1.0032086
-15.684672 -22.009399 0.98948741
-13.865767 -22.780809 0.97639632
-13.535479 -23.496578 0.99278516
-13.385468 -24.589455 1.0250082
-13.303833 -25.909445 1.0663525
-2.6734521 -7.8157358 0.3024275
-1.8908691 -7.9657803 0.29974699
6.6121969 -25.942688 0.98017913
7.1226268 -23.204166 0.8886714
7.9982615 -22.18042 0.86325181
9.0304394 -21.700056 0.86053085
10.271777 -21.671638 0.87805313
11.584043 -21.672268 0.89969909
14.434589 -21.680332 0.95359814
5.4692869 -7.7999716 0.34874633
15.997119 -21.681665 0.98649275
16.820459 -21.682365 1.0047008
17.676914 -21.685045 1.0242925
18.566641 -21.686209 1.0452126
14.037148 -7.6827011 0.58586639
14.843105 -7.66432 0.61160564
15.469766 6.3964629 0.61288512
12.036914 6.3986835 0.4990927
10.757031 6.402277 0.45831206
10.191846 6.4038653 0.44068846
9.668232 6.4053349 0.42460799
8.7265139 6.4079828 0.39638105
6.8244238 6.4093218 0.34277114
6.1979198 6.4110847 0.32647535
5.359365 6.4134455 0.3059999
4.1624413 6.4168167 0.28003037
3.9461718 6.4174271 0.27582017
3.3330858 6.4191556 0.26480988
2.9495702 6.4202399 0.25867721
2.7641895 6.4207621 0.25593567
2.5825975 6.4212747 0.2533969
2.3752344 6.3436823 0.24800032
2.0305955 6.3390412 0.24370147
1.86333 6.3395147 0.24191986
1.7223339 6.4293218 0.24368896
1.557207 6.4297891 0.24221298
0.9134863 6.431612 0.23783615
0.75571287 6.4320583 0.23710953
0.59882814 6.4325027 0.23652358
0.44259766 6.4329462 0.23607849
0.1314746 6.4338284 0.23560363
-0.49064451 6.4355927 0.23630294
-0.64720702 6.436038 0.23682418
-1.2832227 6.4378433 0.24033859
-1.4456738 6.4383063 0.24158767
-1.9446582 6.4397268 0.24628632
-2.115664 6.4402127 0.24818496
-2.2894237 6.4407086 0.25026107
-2.4662304 6.4412112 0.25251937
-2.7897656 6.3504105 0.25394684
-2.974834 6.3509378 0.25676405
-3.1641552 6.3514786 0.25980163
-3.604126 6.4365253 0.27008131
-3.8113377 6.4371161 0.27388671
-4.2444186 6.4383526 0.28233308
-4.9494138 6.4403644 0.29737976
-5.7381687 6.4426188 0.31587034
-6.3229003 6.4442902 0.33053848
-6.6364794 6.4451871 0.33870086
-6.9661765 6.4461298 0.34748518
-7.6807323 6.4481745 0.36716476
-7.9936132 6.3884516 0.37464094
-8.37082 6.3651128 0.3850064
-9.8988228 6.4532781 0.43262663
-10.443643 6.4548392 0.44949919
-11.0331 6.4565277 0.46802473
-12.37287 6.4603653 0.51102769
-13.140527 6.4625649 0.53613371
-16.021709 6.4863162 0.63283372
-18.568613 6.4936175 0.72020352
-19.387192 -7.9129834 0.76664978
-11.340844 -7.8371415 0.50470823
-20.297714 -21.835304 1.0914892
-19.33514 -21.833395 1.0677503
-18.404066 -21.820992 1.0451194
-16.727339 -21.894672 1.0087765
-15.963808 -21.974844 0.99442643
-14.585132 -22.261501 0.97438931
-13.66144 -23.223598 0.98646802
-13.261909 -26.811508 1.0951391
-3.0032713 -7.3700027 0.29137313
-2.8683445 -7.5556173 0.29588881
6.6708884 -27.206116 1.025592
6.9693847 -23.464748 0.89618343
7.8235545 -22.331263 0.86631316
8.2992678 -21.974922 0.86002564
9.4011517 -21.667461 0.8647415
10.025791 -21.660194 0.87385207
10.681171 -21.687469 0.88509476
12.699355 -21.673048 0.91967803
13.41251 -21.67355 0.93316543
15.693984 -21.681406 0.97993451
16.506132 -21.682098 0.99767655
17.348768 -21.682817 1.0166917
18.226601 -21.685764 1.0371475
15.028476 -7.4762669 0.61454743
13.911631 6.4008365 0.5606578
12.890986 6.3124943 0.52551848
12.304589 6.3979316 0.50775391
11.614726 6.3998685 0.48551926
8.8945608 6.4075089 0.40134749
8.0486517 6.4098883 0.37670699
7.2038379 6.3284707 0.35106322
6.6227832 6.4098883 0.33744138
6.3115821 6.4107647 0.32937378
4.9470801 6.4146051 0.29658112
4.705205 6.4152875 0.29127684
4.4716797 6.4159465 0.28632399
4.24582 6.4165812 0.28169662
3.8147459 6.4177985 0.27334258
3.4075584 6.4189458 0.26607147
3.2117674 6.4194989 0.26280531
2.8337011 6.4205656 0.25694519
2.6507225 6.421082 0.25433198
2.0943944 6.3388605 0.24441741
1.7851952 6.4291449 0.24428985
1.6193066 6.4296136 0.24275161
1.455371 6.4300776 0.24137191
1.2932129 6.4305363 0.24014847
0.97330076 6.4314423 0.23814788
0.81514645 6.43189 0.23736724
0.50149411 6.4327788 0.23623
-0.27592772 6.4349833 0.23581359
-0.43171874 6.4354253 0.23614258
-0.58803219 6.4358697 0.23661025
-0.7450586 6.4363151 0.23721969
-1.2223339 6.4376712 0.23990631
-1.8807665 6.4395452 0.24561371
-2.223496 6.4405193 0.24945587
-2.3991113 6.4410195 0.25164521
-2.7506397 6.4194975 0.25569671
-2.9044969 6.3507366 0.25567687
-3.0921679 6.3512726 0.25862733
-3.2884424 6.3597612 0.2621263
-3.5273778 6.4363065 0.26871338
-3.9433496 6.4374933 0.27639297
-4.1606202 6.4381132 0.28064939
-4.6165867 6.4394145 0.29008681
-4.8565378 6.4400992 0.29531264
-5.1054735 6.4408112 0.30090714
-6.2083983 6.4439631 0.3276068
-7.1802783 6.4467425 0.35329452
-7.5397215 6.4477701 0.36321747
-8.213872 6.3646636 0.38043654
-8.7522755 6.4499969 0.39805114
-9.7036228 6.4527202 0.42664549
-10.804995 6.4558735 0.46082473
-12.101436 6.4595881 0.50222611
-12.84209 6.4617105 0.52633774
-14.597118 6.482233 0.58475536
-15.608544 6.4851322 0.61882097
-16.745737 6.4883928 0.65750581
-19.693916 -21.834579 1.0765392
-17.85334 -21.824989 1.0323498
-15.504863 -22.03166 0.98634994
-14.829844 -22.191418 0.97718978
-14.253955 -22.48579 0.97473067
-13.785815 -22.954062 0.98031247
-13.37188 -24.914307 1.0352383
-2.7821972 -7.6742053 0.29886216
-2.629668 -7.8387747 0.30271101
-1.8446192 -7.9807053 0.2998918
6.5853415 -25.213526 0.95408338
6.8286915 -23.782351 0.90589917
7.656045 -22.508013 0.8704266
9.7840719 -21.653328 0.86994445
10.432841 -21.679131 0.88084441
11.090195 -21.68984 0.8918817
13.867305 -21.67387 0.94204372
14.62041 -21.68049 0.95738614
5.5092087 -7.7588372 0.34839308
16.196142 -21.681833 0.99084133
17.026972 -21.682543 1.0093664
17.89168 -21.685328 1.0292856
19.727421 -21.687725 1.0733745
14.396464 -8.6909122 0.6156804
14.620859 -7.8901548 0.60826844
14.915839 -7.5904803 0.61274076
-19.701786 -7.770824 0.29811797
-19.802353 -21.835073 0.41492277
-17.116537 -21.863167 0.39083648
-16.335005 -21.935368 0.38497496
-15.587875 -22.022055 0.37978226
-13.503457 -23.615078 0.38291672
6.6946192 -28.769951 0.41578582
6.5813379 -25.48131 0.37044936
7.17665 -23.116709 0.34071702
7.6047263 -22.558283 0.33508927
8.0617285 -22.134638 0.33159727
8.5548534 -21.835096 0.33010072
9.7144337 -21.655878 0.33409682
10.35876 -21.675985 0.3381668
11.673232 -21.67231 0.3464984
16.104179 -21.681479 0.38016951
16.931553 -21.68218 0.38724899
17.792831 -21.685394 0.3948465
18.687294 -21.686567 0.4029614
19.619883 -21.68779 0.41166502
14.736289 -7.5496469 0.23306625
27.624863 6.3619304 0.39902923
19.035751 6.3690386 0.28255111
17.589081 6.3609085 0.26328078
15.331055 6.3965201 0.23383346
13.47457 6.4017668 0.20999023
12.509814 6.317801 0.19726974
10.679238 6.4022479 0.1752661
9.6014061 6.4052935 0.16246429
9.1188965 6.4066582 0.15687087
7.8489451 6.4102483 0.14264618
7.3725781 6.3237944 0.13672286
7.1010056 6.3946147 0.13450989
6.7808299 6.4092584 0.13133712
6.4620504 6.4101591 0.12812302
5.3245993 6.4133768 0.11733261
5.0688086 6.4141006 0.11507477
4.8225584 6.4147978 0.11296692
4.5850291 6.4154682 0.11099701
4.3555079 6.4161186 0.10915848
3.7087402 6.4179482 0.10433914
3.5052636 6.4185257 0.10294403
2.3521287 6.3436151 0.095232844
2.0082812 6.3389716 0.093599543
1.8569628 6.393229 0.093713529
1.5354687 6.4297199 0.093051143
1.3724706 6.430181 0.092551112
1.2111132 6.4306388 0.092110291
1.0511913 6.4310904 0.091726221
0.89252925 6.4315424 0.091399074
0.5780859 6.4324322 0.090909116
0.42195311 6.4328766 0.090744473
-0.044345703 6.4341974 0.090571895
-0.19969726 6.434639 0.090618134
-0.3552832 6.435081 0.090719908
-0.66797364 6.4359674 0.091081239
-0.98389643 6.4368644 0.09165924
-1.3046044 6.4377737 0.092461549
-2.3126025 6.4406376 0.096326903
-2.4898241 6.4411407 0.097205199
-2.6704004 6.4416533 0.098155513
-2.8139746 6.3503399 0.097772218
-2.9995751 6.3508682 0.098866731
-3.1894825 6.351408 0.10004364
-3.4287939 6.4358807 0.10264694
-3.8391113 6.4370465 0.10549927
-4.0532031 6.4376554 0.10708221
-4.2739258 6.438283 0.10877701
-4.5018945 6.43893 0.11059158
-4.7377343 6.4396024 0.11253449
-5.2359424 6.4410186 0.11684128
-5.4999413 6.4417691 0.11922958
-5.7751122 6.4425516 0.12178756
-7.3608203 6.4470634 0.13773544
-8.4264936 6.3650603 0.1486412
-8.9821968 6.4504337 0.15565887
-9.9682226 6.4532404 0.16715057
-11.762085 6.4583488 0.18888137
-12.469838 6.4603643 0.19768524
-14.140146 6.4806132 0.2189479
-16.170185 6.4863944 0.24524322
-17.381182 6.4898443 0.26115981
-18.646187 6.4539495 0.27774429
-18.285028 -21.820879 0.40073866
-17.420742 -21.838928 0.39323059
-16.625204 -21.905703 0.38709334
-15.866064 -21.987619 0.38166535
-15.150571 -22.10092 0.37717712
-13.990723 -22.682957 0.37515822
-13.413042 -24.296848 0.39065963
-2.8088281 -7.4706883 0.11234588
6.6652341 -24.292925 0.35458052
7.0183692 -23.356104 0.34328583
8.3622169 -21.929497 0.33038405
8.8956146 -21.737658 0.33061218
9.4821873 -21.664454 0.33288375
10.111914 -21.664501 0.33653367
10.767715 -21.688118 0.34084013
11.419687 -21.672131 0.34482116
12.096865 -21.672604 0.34937057
14.246161 -21.674114 0.36508757
15.799609 -21.681223 0.37762725
16.615644 -21.681913 0.38451079
17.464434 -21.684965 0.39192641
18.345409 -21.686121 0.39983216
28.400742 6.268764 0.40939787
25.863535 6.3669047 0.37492704
23.072069 6.2738471 0.33655256
21.34955 6.3625031 0.31358412
16.87829 6.3921499 0.25404936
11.527411 6.3998513 0.18559036
10.902128 6.401619 0.17796111
9.7926168 6.4047527 0.16470626
9.2970705 6.4061542 0.1589276
7.9960351 6.409832 0.14425354
7.5094724 6.3234076 0.13818726
6.9053903 6.4089055 0.13261399
6.2712989 6.4106989 0.12623642
5.9762793 6.4115348 0.12337615
5.6941504 6.4123321 0.12071151
4.6737108 6.4152179 0.111725
4.4412599 6.4158759 0.10983719
4.2163672 6.4165115 0.10807464
3.9984765 6.4171295 0.10642853
3.7870018 6.4177275 0.10489227
3.5814354 6.4183087 0.10345902
2.9955566 6.4199686 0.099721067
2.8092089 6.420496 0.098648071
2.6267285 6.4210124 0.097653501
2.4179981 6.3434272 0.095557399
2.2424512 6.3383088 0.094638363
1.9040625 6.3392668 0.093171388
1.7630858 6.4290738 0.093838349
1.4337792 6.4300079 0.092732847
1.2718359 6.4304667 0.092269592
1.1114062 6.430922 0.091865234
0.63717771 6.4322648 0.09098541
0.4808203 6.4327092 0.090800777
0.32499021 6.4331512 0.09066955
0.16954102 6.4335928 0.090591274
-0.29651368 6.4349136 0.090675198
-0.92395991 6.4366937 0.09153305
-1.2436377 6.4376006 0.092292018
-1.7351708 6.4389982 0.093869932
-2.2465234 6.4404497 0.096014246
-2.4225488 6.440949 0.09686508
-2.751914 6.3662066 0.097626492
-3.1172705 6.3512015 0.099591218
-3.3141992 6.3596931 0.10094589
-3.5541258 6.4362369 0.1034938
-4.189795 6.4380436 0.10812347
-4.4149656 6.4386835 0.10989227
-5.1389942 6.4407439 0.11598388
-5.6698632 6.4422541 0.12080123
-5.9525194 6.4430571 0.12347534
-6.558032 6.4447794 0.12942779
-6.8835983 6.4457059 0.13274308
-7.2265038 6.4466825 0.13631606
-7.5885887 6.4477129 0.14016952
-8.2682123 6.3646111 0.14686736
-9.7710934 6.4526801 0.16482437
-10.305844 6.4542022 0.17116638
-12.195058 6.4595819 0.19425415
-18.218193 6.492228 0.27223969
-19.643633 -8.4382868 0.3009378
-11.356196 -7.7489109 0.19351745
-18.629232 -21.824675 0.40390852
-16.921001 -21.878748 0.38932371
-16.148272 -21.95446 0.38362792
-14.74459 -22.217188 0.37533766
-14.186694 -22.538601 0.37488204
-13.744834 -23.052301 0.37779051
-13.368642 -25.100363 0.40030456
-13.27457 -26.442434 0.4164772
6.6804295 -27.958876 0.40463224
6.8768163 -23.664988 0.34689391
7.2781539 -22.963169 0.33908033
7.713994 -22.442997 0.33405334
9.8674316 -21.653124 0.3349469
10.520351 -21.683506 0.33924636
11.83917 -21.672426 0.34761581
12.527715 -21.672907 0.35237059
5.5490036 -7.7622771 0.13431686
16.30415 -21.68165 0.38185868
17.139141 -21.682356 0.38905898
18.008749 -21.685678 0.39678422
18.912226 -21.686863 0.40504196
19.854599 -21.688097 0.41389021
26.905273 6.3639627 0.38917464
22.075186 6.3604531 0.32337677
20.243788 6.3656268 0.2987088
16.147186 6.394217 0.24446243
15.081133 6.3972268 0.23059447
14.129024 6.3999162 0.21833435
13.272646 6.4023371 0.20742843
11.132041 6.4009686 0.18075486
10.538056 6.402648 0.1735675
9.0056448 6.4069791 0.15557189
7.285244 6.3240409 0.13579452
6.7012205 6.4094839 0.13052855
6.3862891 6.4103742 0.12737045
6.0860739 6.4112248 0.12443268
5.7991991 6.4120355 0.12169601
4.5280762 6.4156303 0.11053467
4.0799513 6.4168987 0.10703659
3.8660936 6.4175043 0.10546005
3.4562304 6.418664 0.1026152
3.0669823 6.419765 0.10014831
2.6951561 6.4208183 0.098020323
2.4843261 6.3432388 0.095891416
2.307539 6.3381243 0.094945826
2.1359766 6.3386111 0.094152071
1.9671386 6.3390899 0.093427576
1.6597167 6.4293671 0.093468018
1.1717968 6.4307499 0.092010342
1.0122168 6.4312015 0.091640927
0.85380858 6.4316506 0.091327056
0.5397656 6.4325418 0.0908641
0.22818358 6.4334245 0.090615541
0.072871089 6.4338665 0.090570219
-0.082412109 6.4343057 0.090577543
-0.23780273 6.4347477 0.090638734
-0.5496484 6.4356327 0.090918727
-0.70647949 6.4360771 0.091139369
-0.86416501 6.4365239 0.091414489
-1.1828809 6.4374294 0.092131346
-1.6723682 6.4388189 0.093640901
-2.355752 6.4407597 0.096535489
-2.7152147 6.4417801 0.098401792
-2.8590722 6.3504691 0.098032527
-3.0457127 6.3509989 0.099146724
-3.2407713 6.3594828 0.10047089
-3.4779053 6.4360209 0.1029747
-3.681577 6.4365983 0.10437667
-4.3291163 6.4384403 0.10921005
-4.5589356 6.4390922 0.11105423
-5.2996583 6.4411993 0.11741257
-5.8443551 6.4427495 0.12244277
-6.1349511 6.4435773 0.12523605
-7.0949168 6.4463077 0.13493592
-7.4495358 6.4473171 0.13867997
-9.0957222 6.4507575 0.15696289
-11.268007 6.4569416 0.18280594
-11.929639 6.4588251 0.19095565
-15.349121 6.4840579 0.23454437
-16.453138 6.4872012 0.24894898
-19.931181 -21.836523 0.41616026
-18.980394 -21.830305 0.4071936
-17.222807 -21.8547 0.39170775
-16.436386 -21.925005 0.38571349
-15.685122 -22.010017 0.38043702
-14.990278 -22.146828 0.37644073
-14.382378 -22.394466 0.3746399
-13.307841 -25.917259 0.41009262
6.7025876 -29.226885 0.42208326
6.7341013 -23.987045 0.35069886
7.5454588 -22.620808 0.33566099
7.9975586 -22.17845 0.3318643
8.4825096 -21.855783 0.33000579
9.0300875 -21.699203 0.33083329
12.265586 -21.672724 0.35053527
12.966132 -21.673214 0.35550186
5.4680271 -7.7981706 0.13407257
15.996914 -21.681389 0.37927061
16.820244 -21.682085 0.3862735
17.67708 -21.685244 0.39381301
18.566807 -21.686411 0.40185499
19.494101 -21.687626 0.41047743
28.029131 6.3607888 0.40457535
14.476318 6.3989358 0.22278823
13.585722 6.4014521 0.21140152
12.036386 6.3984122 0.19187729
11.369267 6.4002981 0.18365142
10.75662 6.402029 0.17619933
10.191464 6.4036274 0.16942413
8.7262201 6.4077678 0.15239136
7.9001465 6.4101019 0.14320403
7.4202633 6.3236604 0.13723496
7.1008887 6.3535419 0.13412124
6.8242283 6.4091363 0.13178085
6.1977539 6.4109073 0.12551682
5.9059668 6.4117327 0.12270584
4.6160154 6.4153814 0.11125015
4.3854489 6.4160333 0.10939377
3.9460838 6.4172769 0.10604202
3.3330176 6.4190116 0.10180969
2.3751757 6.3435493 0.09534622
2.2004004 6.338428 0.094444275
2.0305665 6.3389091 0.09369354
1.7222949 6.4291887 0.093689419
1.5571777 6.4296589 0.093121491
1.072295 6.4310322 0.091774136
0.75570309 6.4319291 0.091159821
0.59880859 6.4323735 0.090934902
0.44259766 6.4328165 0.090763547
0.28687498 6.4332585 0.090645291
-0.023808593 6.4341397 0.090568691
-0.17912109 6.4345803 0.090610042
-0.80453122 6.4363542 0.091303401
-1.2831982 6.4377127 0.092400208
-1.4456445 6.4381757 0.092881314
-1.7761133 6.4391141 0.09402328
-2.1156201 6.4400773 0.095417783
-2.2893751 6.4405704 0.096215516
-2.4661815 6.4410734 0.097083583
-2.9747655 6.3507986 0.098716885
-3.3622363 6.3598285 0.10126404
-3.81125 6.4369669 0.10529952
-4.0244923 6.4375725 0.10686645
-4.2443213 6.4381976 0.10854644
-4.4712839 6.4388447 0.11034378
-4.7060351 6.4395123 0.11226913
-5.7380176 6.4424467 0.12143783
-6.0237303 6.4432611 0.12415787
-6.9659762 6.4459405 0.1335939
-7.3133883 6.446929 0.13723175
-7.6804881 6.4479742 0.14115921
-7.9952393 6.3897538 0.14406799
-10.443252 6.4545941 0.17281204
-11.67308 6.4580951 0.18778412
-12.372324 6.4600859 0.19646454
-14.964731 6.4829617 0.22956359
-17.211952 6.4893622 0.25892609
-18.56748 6.4932232 0.2768808
-11.342583 -7.8383422 0.19407547
-19.335268 -21.833532 0.41052169
-18.40414 -21.821066 0.40181747
-17.52829 -21.83036 0.39408615
-16.727764 -21.89522 0.38785157
-15.237377 -22.076061 0.37758103
-14.585874 -22.262642 0.37463805
-14.059463 -22.63232 0.37505111
-13.432578 -24.14957 0.38897964
-13.266489 -26.820791 0.42119461
-2.8268261 -7.4462619 0.11211334
6.6670117 -27.1903 0.39409667
6.6313963 -24.475721 0.35693923
7.3786817 -22.811121 0.33747238
8.8230562 -21.758408 0.33049819
9.4011621 -21.667444 0.33246461
10.025928 -21.6605 0.33597428
11.331367 -21.672068 0.34424239
12.006201 -21.672541 0.34874877
13.41249 -21.673527 0.35877746
14.909512 -21.680468 0.37037826
15.693779 -21.681133 0.3767491
16.505928 -21.681818 0.38357452
17.348545 -21.682531 0.39090362
20.091944 -21.68841 0.41616577
14.587626 -7.7014947 0.23219833
29.213085 6.3502593 0.420811
26.21994 6.3658991 0.37979949
23.363485 6.2730231 0.3405284
21.599043 6.3617988 0.31694579
18.12834 6.3048282 0.27017012
15.874121 6.3949881 0.24089675
10.981914 6.401392 0.17892821
10.39959 6.403039 0.17190872
9.3606834 6.4059744 0.15966186
8.4579296 6.4085259 0.14936981
6.9496484 6.408782 0.13307053
6.6225977 6.4097052 0.12973267
6.3114061 6.4105864 0.12663054
5.7307811 6.4122281 0.12105377
5.4589453 6.4129972 0.11854599
5.197988 6.4137344 0.11620773
4.9469628 6.414444 0.11402313
4.7050877 6.4151287 0.11198471
4.0269432 6.4170489 0.10664032
3.2116992 6.4193573 0.10103805
2.6506641 6.4209442 0.097780451
2.441211 6.3433623 0.095674895
2.2652147 6.3382449 0.094744563
2.0943553 6.3387275 0.093968965
1.4553418 6.4299455 0.092798613
1.2931836 6.4304056 0.092327423
1.1325684 6.430861 0.091914669
0.9732812 6.4313126 0.09155868
0.50148433 6.4326506 0.090822294
0.34559569 6.4330926 0.090683743
-0.27591798 6.434855 0.090661161
-0.43170896 6.4352961 0.090788268
-0.58802247 6.4357414 0.090968169
-1.0619971 6.4370866 0.091834716
-1.2223047 6.4375405 0.092234492
-1.5476513 6.4384646 0.0932106
-1.7131152 6.4389334 0.093787841
-1.8807275 6.4394107 0.094429322
-2.0507665 6.4398932 0.095135346
-2.2234521 6.4403839 0.095906675
-2.5779004 6.441391 0.097660825
-2.9044287 6.3505988 0.098299555
-3.0920994 6.3511319 0.099432215
-3.2883642 6.3596182 0.10077774
-3.9432569 6.4373431 0.10626236
-4.1605225 6.4379597 0.10789871
-4.8564157 6.4399395 0.11353454
-5.1053367 6.4406462 0.11568756
-5.9143896 6.4429483 0.12310852
-6.2082276 6.4437847 0.1259523
-6.8395557 6.4455805 0.1322908
-7.5394821 6.4475727 0.13964187
-8.7519827 6.4497795 0.15303421
-9.7032661 6.452487 0.16402695
-10.232695 6.4539948 0.17029434
-12.100923 6.4593134 0.19308196
-12.841518 6.4614215 0.20235336
-13.479131 6.3794475 0.20991164
-14.596392 6.4819121 0.22481094
-15.607738 6.4847927 0.2379045
-19.950581 -7.3794188 0.29942214
-19.808863 -7.8753901 0.30005965
-17.853485 -21.825178 0.39690748
-16.248983 -21.944164 0.38435379
-13.487358 -23.73649 0.38429001
-13.376079 -24.922092 0.39814192
6.6880078 -28.39152 0.41058317
7.2234082 -23.045971 0.33996049
8.1163177 -22.097376 0.33137742
8.6164646 -21.81748 0.33018935
11.090263 -21.689989 0.34291092
11.749413 -21.672359 0.34701005
12.435469 -21.672842 0.35172394
13.14083 -21.673336 0.3567729
5.5085449 -7.7578998 0.1339305
17.026758 -21.682261 0.38809112
18.7904 -21.686703 0.40391248
20.706024 -21.688566 0.42207915
14.769355 -7.5159388 0.2332669
-19.685337 -7.764338 -0.17871307
-17.952152 -21.824385 -0.23865829
-17.116894 -21.863632 -0.23451453
-13.827578 -22.882334 -0.22578949
-13.286958 -26.081249 -0.2471997
6.5771289 -25.464973 -0.22211769
7.1754394 -23.112806 -0.20438591
7.6037598 -22.555416 -0.2010202
8.5545216 -21.834242 -0.19804297
9.1027632 -21.67844 -0.19856811
9.7144232 -21.655865 -0.20044982
10.358915 -21.676296 -0.20289101
13.060322 -21.67326 -0.21370247
5.4831052 -7.7667484 -0.080291443
16.931347 -21.681898 -0.23230575
17.792997 -21.685595 -0.23689757
18.687481 -21.686771 -0.24177153
20.59453 -21.689455 -0.25259498
27.622459 6.3613739 -0.23938407
20.664999 6.364007 -0.18261223
16.427412 6.393074 -0.14887062
15.330273 6.3961921 -0.14028534
14.352226 6.3989739 -0.13271117
13.473955 6.4014716 -0.12597962
12.507587 6.3166656 -0.11833794
11.284756 6.4002786 -0.10956367
8.2457123 6.4089189 -0.088197023
7.8487206 6.4100471 -0.085582882
7.3723536 6.3236017 -0.082027279
6.1581931 6.4108429 -0.075074919
5.8681736 6.4116669 -0.073403932
5.3244629 6.4132109 -0.070394136
5.0686817 6.4139385 -0.069039688
4.5849218 6.4153128 -0.066593096
4.3554001 6.4159636 -0.065490037
4.1332517 6.4165959 -0.064458847
3.9178417 6.4172077 -0.063497007
3.708662 6.4178019 -0.06259796
2.9246874 6.4200287 -0.059579618
2.1777148 6.3383584 -0.05660034
2.0082324 6.3388395 -0.05615402
1.8558886 6.3895392 -0.056190949
1.211084 6.4305081 -0.055261686
0.89250976 6.4314127 -0.054834593
0.57807618 6.4323039 -0.054540709
0.26626953 6.4331889 -0.054375608
0.1109082 6.4336295 -0.054340821
-0.044355467 6.4340701 -0.054337919
-0.1996875 6.4345112 -0.054366454
-0.3552832 6.4349527 -0.054427184
-0.66795897 6.4358392 -0.054643247
-0.82541502 6.4362845 -0.05480133
-1.1435302 6.4371881 -0.055213928
-1.3045801 6.4376445 -0.055471189
-1.6317188 6.438571 -0.056094207
-2.3125489 6.4404998 -0.057790983
-2.4897704 6.4410038 -0.058318481
-2.6703467 6.441514 -0.058888242
-2.813916 6.3502021 -0.058657683
-3.1894042 6.3512664 -0.060020447
-3.4287157 6.4357343 -0.06158432
-3.6310594 6.4363065 -0.062409438
-3.8390281 6.4368973 -0.063294597
-5.4997897 6.4415994 -0.071531527
-6.0623388 6.4431925 -0.074713364
-6.3631983 6.4440446 -0.076482467
-6.6787891 6.4449396 -0.078383103
-7.0106883 6.445878 -0.080429606
-7.3605957 6.4468694 -0.082634583
-7.7304392 6.4479156 -0.08501526
-8.4262209 6.3648505 -0.089187317
-9.9678564 6.4530034 -0.10028221
-10.518208 6.4545612 -0.10422027
-11.113892 6.4562454 -0.10854866
-11.761592 6.4580803 -0.11331832
-12.469282 6.4600835 -0.11859894
-14.139458 6.4803019 -0.13135651
-15.096957 6.4830117 -0.13875739
-16.169312 6.4860454 -0.14713119
-17.380175 6.4894719 -0.15667823
-19.550449 6.2429056 -0.17332412
-21.194696 6.2085671 -0.18651618
-23.111191 6.1685443 -0.20201263
-25.476074 6.1452665 -0.22132759
-28.351528 6.1189823 -0.24495795
-20.169271 -21.836569 -0.25104523
-18.285175 -21.82107 -0.24043541
-17.421118 -21.839397 -0.23593299
-15.866513 -21.988239 -0.22899489
-15.151342 -22.102064 -0.22630745
-14.510776 -22.303154 -0.22471473
-13.9921 -22.685207 -0.22508293
-13.622349 -23.327297 -0.22813781
-13.416631 -24.303358 -0.23444602
-2.715879 -7.7890306 -0.069664918
7.4341793 -22.73431 -0.20200226
7.8799415 -22.264063 -0.19945671
8.3614845 -21.927565 -0.19819649
8.8952541 -21.736807 -0.19835006
9.4821873 -21.664433 -0.19972183
10.112051 -21.664806 -0.20191574
11.419697 -21.67211 -0.20688309
12.792568 -21.673071 -0.2125441
13.508428 -21.673574 -0.21568343
15.011641 -21.680285 -0.22269966
16.615429 -21.681633 -0.23069152
17.46459 -21.685163 -0.23514457
18.345585 -21.686321 -0.23989037
19.26334 -21.687531 -0.24497825
22.842421 -8.0230494 -0.20438187
23.070332 6.2733755 -0.20190269
21.348076 6.3620634 -0.18812393
17.89579 6.2880888 -0.16019249
16.877344 6.3917947 -0.15241149
15.729179 6.3950591 -0.14339882
13.794785 6.4005585 -0.12843154
12.208632 6.3976517 -0.11640411
11.526943 6.3995905 -0.11134445
10.901699 6.4013662 -0.10676727
10.325537 6.4030056 -0.10260727
9.7922754 6.4045219 -0.098816372
8.8345699 6.4072428 -0.09216629
8.4019623 6.4084735 -0.089241862
7.1573048 6.3282208 -0.080682218
6.9051952 6.40872 -0.079562835
6.2711229 6.4105215 -0.075736158
5.9761133 6.4113593 -0.074019164
5.4236426 6.41293 -0.070930935
5.1640821 6.4136677 -0.069539718
4.9143262 6.4143767 -0.06824211
4.6735935 6.4150615 -0.067029491
4.4411426 6.4157205 -0.065896526
4.2162695 6.4163604 -0.064840086
3.7869139 6.4175787 -0.062930144
3.5813572 6.4181619 -0.062070616
3.1860547 6.4192863 -0.060521848
2.9954882 6.419827 -0.059827879
2.8091309 6.4203558 -0.059184723
2.4179492 6.3432913 -0.057332151
2.0718944 6.3386588 -0.056318358
1.9040136 6.3391361 -0.055897977
1.5974317 6.4294119 -0.055948179
1.4337499 6.4298759 -0.055635527
1.2718164 6.430336 -0.055357054
1.1113867 6.4307904 -0.055113982
0.79426754 6.4316912 -0.054729614
0.63717771 6.4321365 -0.054587096
0.16954102 6.433465 -0.05435089
-0.29651368 6.4347858 -0.054400329
-0.60874021 6.4356709 -0.054593351
-0.92393553 6.436564 -0.05491516
-1.0831152 6.437016 -0.055126037
-1.2436084 6.43747 -0.055371244
-1.7351317 6.4388652 -0.056317136
-1.9030566 6.4393401 -0.056706998
-2.0734179 6.4398236 -0.057134245
-2.2464745 6.4403129 -0.057604063
-2.4224951 6.4408135 -0.058113556
-2.6017723 6.4413199 -0.058667142
-2.7530127 6.3687515 -0.058595274
-2.9289598 6.3505292 -0.059060208
-3.1171973 6.3510623 -0.059747923
-3.314121 6.359549 -0.060563199
-3.7598436 6.4366717 -0.062953182
-3.9715526 6.4372721 -0.063877337
-4.8887157 6.4398708 -0.068281174
-5.1388621 6.440578 -0.069584198
-5.3988962 6.4413152 -0.070978999
-5.9523582 6.4428811 -0.074078828
-6.5578365 6.4445963 -0.077649608
-7.226284 6.4464898 -0.081782758
-7.9717431 6.4485989 -0.086593628
-8.2679396 6.3644013 -0.0881221
-8.8107176 6.4497294 -0.09221489
-9.7707424 6.4524455 -0.098886408
-10.305459 6.453959 -0.1026921
-10.883329 6.455595 -0.10686531
-12.944325 6.4614263 -0.12218094
-15.749673 6.484859 -0.14384392
-16.905098 6.4881268 -0.15292236
-19.111958 6.2952666 -0.1699369
-22.351562 6.1844087 -0.19585983
-27.251932 6.1419463 -0.23591225
-11.356157 -7.7488852 -0.11610077
-20.540297 -21.835854 -0.25317314
-19.567652 -21.834433 -0.24761039
-18.629286 -21.824749 -0.24233215
-17.73852 -21.826513 -0.23752959
-14.745346 -22.218327 -0.22520462
-14.1881 -22.540834 -0.22493309
-13.74728 -23.05641 -0.22670577
-13.47185 -23.886562 -0.23160216
6.676455 -27.942186 -0.24262367
8.6885347 -21.795919 -0.19816086
9.867568 -21.653433 -0.20096397
10.520517 -21.683815 -0.20354179
11.178223 -21.690647 -0.2060778
11.83917 -21.672401 -0.20856102
13.235732 -21.673382 -0.21446998
13.96501 -21.673893 -0.21775566
16.303946 -21.681372 -0.22910079
17.138916 -21.682072 -0.23339218
18.008915 -21.685879 -0.23805983
18.912392 -21.687067 -0.24301429
22.073622 6.3600006 -0.19400062
20.24246 6.3652081 -0.17920609
16.146318 6.3938713 -0.14666343
14.128349 6.39961 -0.13098823
11.777197 6.3988786 -0.11319267
11.131601 6.4007144 -0.10844307
10.537665 6.4024014 -0.10413375
9.4796286 6.4054108 -0.096621089
9.005332 6.4067583 -0.093335338
8.5620022 6.4080191 -0.090316996
8.1461916 6.4092007 -0.087537684
7.6491113 6.3228154 -0.083811566
7.2850194 6.3238492 -0.081468582
7.0321679 6.4083586 -0.080348507
6.0858984 6.4110479 -0.074653015
5.5243845 6.4126434 -0.071481019
5.2608299 6.4133916 -0.070053935
5.0074801 6.4141116 -0.068721846
4.7634473 6.414804 -0.0674778
4.3003025 6.416121 -0.065231167
4.0798535 6.4167471 -0.064216919
3.8660057 6.4173565 -0.063270643
3.6582713 6.4179435 -0.062387925
3.4561424 6.41852 -0.061563645
3.2591503 6.4190788 -0.060798261
2.6950977 6.4206805 -0.058807526
2.4842772 6.3431048 -0.057531126
2.3074999 6.3379912 -0.056961972
1.6596875 6.429235 -0.056076508
0.85377926 6.4315214 -0.054791868
0.69635743 6.4319682 -0.054636229
0.072871089 6.4337382 -0.054337006
-0.39347655 6.4350605 -0.054447327
-0.70646483 6.4359479 -0.05467926
-0.86415035 6.4363947 -0.054844055
-1.0228906 6.4368448 -0.055042267
-1.3442968 6.437757 -0.055540923
-1.5073779 6.4382181 -0.055841673
-1.6723291 6.4386868 -0.056179959
-2.1808202 6.4401274 -0.057421111
-2.3556933 6.4406228 -0.057915799
-2.5337059 6.4411273 -0.058453672
-2.7151513 6.4416423 -0.059036408
-3.0456395 6.3508596 -0.059479367
-3.2407031 6.3593402 -0.060274046
-3.4778223 6.4358745 -0.06178024
-3.8909032 6.4370451 -0.063521191
-4.3290086 6.4382854 -0.065521471
-4.5588279 6.4389362 -0.066627733
-6.1347852 6.4433975 -0.075135112
-6.4391403 6.4442606 -0.076934814
-7.4493017 6.4471197 -0.083199464
-7.8243995 6.4481816 -0.085626066
-8.5326948 6.3663969 -0.089903332
-10.098847 6.4533734 -0.10121346
-11.267563 6.4566827 -0.10967399
-11.929131 6.4585538 -0.11455978
-12.652949 6.4606023 -0.11998069
-14.364551 6.4809394 -0.13308762
-15.348345 6.4837236 -0.14071083
-23.630693 6.1576958 -0.20623268
-28.965326 6.0723953 -0.24994613
-18.98045 -21.830379 -0.24430808
-18.068369 -21.823229 -0.23927376
-17.223183 -21.855165 -0.23499054
-16.436802 -21.92555 -0.23142348
-15.685561 -22.010637 -0.22825843
-14.991039 -22.147968 -0.22586319
-13.870668 -22.7889 -0.22530624
-13.393788 -24.604729 -0.23658782
-2.6721778 -7.8120189 -0.069727555
6.6984372 -29.20874 -0.2530809
6.6006832 -25.897497 -0.22570412
6.7325878 -23.981625 -0.21035957
7.1201954 -23.196346 -0.20492187
9.0297365 -21.698355 -0.19848396
10.928652 -21.689199 -0.20512679
12.966123 -21.673193 -0.21329024
15.996699 -21.681112 -0.22754745
16.820028 -21.681807 -0.23174506
20.462715 -21.688995 -0.25182661
14.354424 -7.8563485 -0.13819641
22.829706 6.3531804 -0.20012687
20.900009 6.363338 -0.18450774
19.236797 6.3680668 -0.17113373
17.585918 6.2963042 -0.15775321
16.582823 6.3926311 -0.15009308
15.468154 6.3958001 -0.14135979
14.475605 6.3986235 -0.13366225
13.585088 6.401154 -0.12682839
12.599668 6.3127508 -0.11901947
12.035878 6.3981438 -0.11511733
10.756201 6.4017816 -0.10571113
10.191093 6.403388 -0.1016465
9.1805267 6.40626 -0.094542772
8.7259369 6.4075518 -0.091426469
8.3000975 6.4087625 -0.088560328
7.4200292 6.3234658 -0.08233276
6.8240333 6.4089494 -0.079062425
6.5031738 6.4098625 -0.07711456
5.6266894 6.4123526 -0.072046049
5.1019726 6.4138446 -0.06921272
4.6158886 6.415225 -0.066745684
4.3853416 6.4158792 -0.065631486
4.1622462 6.416513 -0.064591289
3.945996 6.4171271 -0.06362053
3.735996 6.4177237 -0.062714234
3.5318065 6.4183035 -0.061868515
2.9494433 6.4199591 -0.059665833
2.5824804 6.4209991 -0.058447722
2.3751268 6.3434148 -0.057205047
2.0305176 6.3387775 -0.056211699
1.7222656 6.4290566 -0.056208495
1.0722754 6.4309015 -0.055059966
0.59879881 6.4322453 -0.054556426
0.28687498 6.4331303 -0.054382935
0.1314746 6.4335723 -0.054343414
-0.023808593 6.4340115 -0.054337006
-0.17911132 6.4344511 -0.054360807
-0.33465821 6.4348931 -0.054417267
-0.80451655 6.4362259 -0.054777831
-1.2831689 6.437582 -0.055435486
-1.609834 6.438509 -0.056048125
-1.7760742 6.4389801 -0.056408841
-1.9445801 6.4394574 -0.056807861
-2.115576 6.4399433 -0.057246398
-2.4661279 6.4409366 -0.058245543
-3.1640136 6.3511944 -0.059924163
-3.3621581 6.3596854 -0.060752943
-3.6039696 6.4362311 -0.062297437
-4.0243897 6.4374213 -0.064114377
-4.2442236 6.438045 -0.065123133
-4.4711719 6.4386868 -0.066201173
-4.7059226 6.439352 -0.067355573
-5.2016454 6.4407558 -0.069917142
-5.4642186 6.4414997 -0.071335904
-6.6361132 6.4448185 -0.078122713
-6.9657617 6.4457512 -0.080149226
-7.3131738 6.4467349 -0.082332149
-7.680244 6.4477739 -0.084688567
-10.442862 6.4543476 -0.10367851
-11.672597 6.4578276 -0.11265854
-13.139336 6.4619794 -0.12366005
-13.804209 6.3800702 -0.12843665
-14.963974 6.482636 -0.1377227
-16.019989 6.4856229 -0.14595917
-11.344316 -7.8395429 -0.11645607
-19.335375 -21.833666 -0.24630401
-18.404194 -21.82114 -0.24108039
-17.528671 -21.83083 -0.23644279
-16.728174 -21.895769 -0.23270752
-15.964706 -21.976086 -0.22939765
-14.586611 -22.263781 -0.22478493
-13.436152 -24.155989 -0.23344047
-13.271069 -26.830069 -0.25279188
6.6290135 -24.466904 -0.21408203
6.9662986 -23.454348 -0.20663124
7.3774509 -22.80732 -0.20244148
7.8215919 -22.325617 -0.19978157
8.2977924 -21.971039 -0.19834137
9.4011421 -21.667427 -0.19947311
10.681318 -21.687763 -0.20417091
11.331367 -21.672049 -0.2065361
14.909335 -21.680201 -0.22221275
16.505703 -21.68154 -0.23012695
18.226942 -21.686167 -0.23924361
19.139639 -21.687368 -0.24428084
20.092157 -21.68862 -0.24966766
14.35543 -8.0277071 -0.13890518
29.210381 6.3496733 -0.25245437
26.217764 6.3653679 -0.22784774
21.597548 6.3613544 -0.19014488
15.873281 6.39465 -0.14452286
14.837285 6.397593 -0.13645767
13.910302 6.4002299 -0.12931702
10.981484 6.4011407 -0.10734573
10.399209 6.4027972 -0.10313652
9.8605957 6.4043279 -0.099299468
8.8939552 6.4070745 -0.092571259
8.4576559 6.4083157 -0.089615092
8.0481348 6.4094791 -0.086889111
7.5579391 6.3230743 -0.083220288
7.2033982 6.3280888 -0.080974199
6.9494433 6.4085932 -0.079835512
6.6224117 6.409523 -0.077832714
6.3112206 6.4104071 -0.075971827
6.0144138 6.4112506 -0.074240185
5.7306247 6.4120574 -0.072626799
5.4587989 6.4128299 -0.071122281
4.946836 6.4142838 -0.068408504
4.7049704 6.4149723 -0.067184754
4.245625 6.416276 -0.064974748
3.8145604 6.4175014 -0.063048854
3.6082225 6.4180865 -0.062180325
3.211621 6.4192119 -0.060618665
2.8335936 6.4202862 -0.059267271
2.6506152 6.4208059 -0.058663938
2.4411621 6.3432269 -0.057399597
2.2651758 6.3381095 -0.056842193
2.0942969 6.3385944 -0.056377258
1.9260937 6.3390727 -0.055951536
1.7851367 6.4288788 -0.056347352
1.6192383 6.4293499 -0.055992279
1.4553125 6.4298148 -0.055674437
1.2931445 6.4302764 -0.055392455
1.132539 6.4307318 -0.055145111
0.65792966 6.4320779 -0.054603729
0.50146484 6.4325223 -0.054488372
0.34558594 6.4329643 -0.054406431
0.034794923 6.4338455 -0.054335479
-0.12047851 6.4342852 -0.054348603
-0.27591798 6.4347272 -0.054393005
-0.74502927 6.4360561 -0.054716948
-0.90294921 6.4365044 -0.054889679
-1.0619726 6.4369559 -0.055096131
-1.3840917 6.4378705 -0.055611268
-1.5476221 6.4383316 -0.05592224
-1.7130761 6.4388018 -0.056268767
-1.8806884 6.4392767 -0.056652829
-2.0507226 6.4397588 -0.057075806
-2.2233984 6.4402485 -0.057539213
-2.7528565 6.4246659 -0.059026334
-3.288291 6.3594742 -0.060461272
-4.6163621 6.4390984 -0.06691017
-4.8562937 6.4397783 -0.06811554
-5.1052098 6.4404826 -0.069407344
-5.3638673 6.441215 -0.070789486
-6.5159473 6.444478 -0.077396847
-7.1798487 6.4463568 -0.081489488
-7.5392575 6.4473758 -0.08377739
-7.919692 6.4484515 -0.086249694
-8.2133398 6.3642473 -0.087754436
-9.2108345 6.450861 -0.094967723
-10.804155 6.4553704 -0.10629165
-12.840952 6.4611359 -0.12139801
-14.595664 6.4815922 -0.13487159
-15.606918 6.4844537 -0.14272895
-19.113384 6.3634663 -0.17012802
-22.095928 6.1897464 -0.19379105
-17.853638 -21.825365 -0.23813568
-16.24939 -21.94471 -0.23060454
-15.505742 -22.032892 -0.22753166
-13.790728 -22.962231 -0.22620948
-13.380268 -24.929932 -0.23894951
-13.283364 -26.250546 -0.24846031
6.8256249 -23.771698 -0.20886986
7.6541014 -22.502304 -0.20073089
8.1156054 -22.095423 -0.19877312
10.433154 -21.67975 -0.2031887
11.090332 -21.690138 -0.20574401
11.749404 -21.67234 -0.20819625
13.867275 -21.673822 -0.21732017
16.195751 -21.681282 -0.22855033
17.026524 -21.68198 -0.23279198
17.892002 -21.685724 -0.23742965
18.790575 -21.686909 -0.24234009
20.707266 -21.68985 -0.25325224
-19.65081 -7.7507205 -0.65432698
-17.952318 -21.824575 -0.87534505
-17.117275 -21.8641 -0.86012083
-15.588745 -22.023291 -0.83577979
-14.905478 -22.173828 -0.82760048
6.5729294 -25.448742 -0.81415373
6.7814646 -23.862551 -0.76841825
7.1742382 -23.108917 -0.74950689
7.6027832 -22.552546 -0.73720288
8.5541792 -21.833391 -0.72634929
9.7144136 -21.655844 -0.73519772
10.359062 -21.676603 -0.74417573
11.015947 -21.689854 -0.75354642
12.357187 -21.672743 -0.77277428
5.4824414 -7.7658124 -0.29445356
16.931133 -21.681618 -0.85211635
17.793154 -21.685793 -0.86889648
18.687647 -21.686975 -0.88675886
19.620243 -21.688206 -0.90590566
20.595741 -21.690739 -0.92650914
27.620029 6.3608146 -0.87793547
24.891552 6.3686285 -0.79586029
22.568094 6.3581281 -0.72626692
