# .PCD v0.7 - Point Cloud Data file format
VERSION 0.7
FIELDS x y z
SIZE 4 4 4
TYPE F F F
COUNT 1 1 1
WIDTH 1462
HEIGHT 1
VIEWPOINT 0 0 0 1 0 0 0
POINTS 1462
DATA ascii
-14.046972 21.524166 -0.21706215
-14.807378 21.535526 -0.22071746
-18.134418 5.9479175 -0.1611792
-19.420029 5.8545361 -0.17129822
-21.12475 5.8162961 -0.18504173
-25.625412 5.7414465 -0.22177489
-28.697655 5.7063012 -0.24710754
-20.383711 -21.723032 -0.2515763
-18.585415 -21.827763 -0.24209015
-16.844154 -21.834841 -0.2328968
-13.707958 -21.837423 -0.21774696
-12.27894 -21.833965 -0.21155609
-10.92726 -21.83333 -0.20619102
-9.0195847 -21.840313 -0.19955871
-8.408535 -21.840038 -0.1976435
-2.5587549 -7.7406259 -0.068851471
-6.6391501 -21.839247 -0.19277145
-4.9468894 -21.84145 -0.18912978
-4.3956394 -21.841059 -0.18815239
-3.8497362 -21.840672 -0.18728584
-3.3088963 -21.843048 -0.1865747
-2.7716064 -21.843252 -0.18595214
-1.7054346 -21.834457 -0.18496086
-1.1757324 -21.825146 -0.18458846
-0.64823729 -21.828299 -0.18442886
0.40656736 -21.888586 -0.18488456
2.014287 -22.082733 -0.18726882
2.5712061 -22.241293 -0.18908797
3.1716063 -22.633181 -0.19300796
5.8295994 -7.7330618 -0.081786498
27.102339 6.4439111 -0.23526679
24.284018 6.3966246 -0.2120803
20.424683 6.4485607 -0.18088622
17.470152 6.4580088 -0.15729889
16.25708 6.4595814 -0.1477365
15.182451 6.4609737 -0.13934708
14.021469 6.3707604 -0.13007262
12.562778 6.4564404 -0.1192868
11.852124 6.4573617 -0.11398666
10.603168 6.4589806 -0.10485275
9.5372362 6.460361 -0.097285613
8.9404001 6.3760986 -0.092733301
7.4267135 6.4618492 -0.083138429
5.8326511 6.4639134 -0.073528744
5.5559568 6.4642711 -0.071985774
5.2904835 6.4646153 -0.070548095
4.789443 6.4652634 -0.067950897
4.3229346 6.4658666 -0.065686032
3.8445263 6.3981895 -0.063035123
3.6286914 6.3829746 -0.062007599
3.4277539 6.3832345 -0.061189268
3.2821727 6.4827051 -0.061365508
3.0881004 6.4829578 -0.060643919
2.7127831 6.4834423 -0.059354551
2.3522754 6.4839087 -0.058249816
1.8340282 6.4845762 -0.056911621
1.666206 6.4847937 -0.05654373
1.5004345 6.4850082 -0.056213684
1.1741797 6.4854298 -0.055661619
0.85353512 6.4858422 -0.055246428
0.69480956 6.4860473 -0.055089109
0.53689939 6.4862509 -0.054965209
0.37960449 6.486455 -0.05487274
0.22274902 6.4866562 -0.054813385
-0.40400878 6.4874644 -0.054893646
-0.5614453 6.4876685 -0.054994963
-0.71955568 6.4878712 -0.055127103
-0.8785156 6.4880762 -0.05529312
-1.0385351 6.4882812 -0.05549179
-1.5071973 6.4050951 -0.055570066
-1.671333 6.4053073 -0.055905301
-1.8375585 6.4055209 -0.056277618
-8.8171625 28.154221 -0.2491539
-8.8460598 26.027201 -0.23215492
-8.8735981 24.177214 -0.21750304
-10.324995 21.468576 -0.20118812
-10.975459 21.478291 -0.20370232
-11.642774 21.488258 -0.20640029
-12.328413 21.498501 -0.20929557
-13.033979 21.509037 -0.21240027
-15.274531 21.523106 -0.22286537
-20.57062 21.557558 -0.2516593
-18.82999 5.8677721 -0.16656616
-22.317577 5.7895398 -0.19471626
-24.648991 5.7633505 -0.21377754
-27.496849 5.7332373 -0.23720039
-19.623281 -7.6918454 -0.17800201
-19.815405 -21.75613 -0.24852081
-18.920624 -21.808241 -0.24382956
-17.169052 -21.834087 -0.23457488
-11.181826 -21.833448 -0.20716339
-10.524643 -21.833143 -0.20469245
-9.8825684 -21.832842 -0.20238151
-9.2577143 -21.84042 -0.20033485
-6.2872901 -21.8424 -0.1919542
-5.1604099 -21.8416 -0.18953568
-2.4422314 -21.840723 -0.18560126
-1.9097021 -21.838047 -0.18513168
0.20330077 -21.872709 -0.18472816
1.2662647 -21.976454 -0.1859059
2.3557959 -22.179966 -0.18837158
2.9350781 -22.459509 -0.19128983
3.6289647 -23.366293 -0.19969803
5.7578611 -7.7871709 -0.081815794
25.427231 6.4460826 -0.22153595
21.101851 6.4476829 -0.18634444
19.16811 6.3664002 -0.17056823
16.70561 6.4589987 -0.15125962
14.373061 6.3703027 -0.13278472
13.664296 6.4550133 -0.12762757
12.853979 6.4560633 -0.12147918
9.7300587 6.4601121 -0.098636322
9.117856 6.3758688 -0.093957216
8.6673975 6.3776989 -0.090880886
8.350317 6.4606543 -0.08916229
7.567153 6.4616685 -0.084035337
7.2079978 6.4621334 -0.081755519
6.8676414 6.4625731 -0.079640046
6.2362647 6.4633923 -0.075850829
5.9422507 6.4637718 -0.074151151
5.6609569 6.4641356 -0.07256607
4.8829002 6.4651437 -0.068422846
4.6424708 6.4654541 -0.067220308
3.707412 6.3828721 -0.062339172
3.504375 6.3831372 -0.06149704
2.6003711 6.4835873 -0.058995511
2.2439258 6.4840479 -0.057945557
2.07021 6.4842725 -0.057484586
1.7304736 6.4847107 -0.056681518
0.91481441 6.485764 -0.05531555
0.75573242 6.4859691 -0.055145875
0.59753418 6.4861732 -0.055008847
0.44002441 6.4863758 -0.054904785
0.28302246 6.486578 -0.054832917
0.126333 6.4867797 -0.05479202
-0.030214842 6.4869823 -0.054784849
-0.18680175 6.4871836 -0.05480789
-0.34361815 6.4873862 -0.054863282
-0.65867186 6.487793 -0.055072632
-0.97687501 6.488203 -0.055411987
-1.1376415 6.488409 -0.055631559
-1.2997802 6.4886179 -0.055886228
-1.6079882 6.4052243 -0.055771634
-1.7733837 6.4054394 -0.056130216
-8.5298529 28.149929 -0.24840622
-8.9114504 21.633833 -0.19759925
-10.079102 21.464901 -0.20026657
-10.723437 21.474529 -0.20271423
-12.76022 21.504951 -0.2111782
-13.478935 21.515686 -0.21441773
-14.220434 21.526758 -0.21788605
-14.986743 21.538204 -0.22159873
-18.271635 5.8802967 -0.16210464
-19.79104 5.8462133 -0.17427993
-21.558359 5.8065696 -0.18855499
-26.388479 5.7581005 -0.22810066
-12.339287 -7.6903977 -0.12282852
-18.379438 -21.83128 -0.24100967
-17.498667 -21.833323 -0.23630226
-15.83415 -21.837185 -0.22780181
-15.042548 -21.835276 -0.22392532
-14.278955 -21.836504 -0.22034195
-12.820781 -21.838852 -0.21387497
-12.119184 -21.833889 -0.21089622
-10.127729 -21.832958 -0.20325989
-8.8773632 -21.840248 -0.19910377
-8.2690229 -21.839977 -0.19722091
-2.5179248 -7.7620296 -0.068915404
-4.8190136 -21.841356 -0.18889266
-3.7242773 -21.84058 -0.1871096
-3.1844189 -21.843096 -0.18642357
-2.6477344 -21.841719 -0.18581077
-1.0537305 -21.824886 -0.18453094
-0.5264746 -21.829321 -0.18440802
0.00038085936 -21.856857 -0.18458442
1.5969872 -22.016872 -0.18642609
2.1420069 -22.119099 -0.1876767
3.3158057 -22.739061 -0.19406287
26.449877 6.444757 -0.22991294
23.921625 6.4440269 -0.20922913
21.821089 6.4467502 -0.19215736
18.515785 6.4566526 -0.16560616
14.951235 6.4612732 -0.1375528
13.834135 6.3789315 -0.12864959
12.392763 6.4566612 -0.11801346
10.471581 6.4591503 -0.10390503
8.5120506 6.460444 -0.090246886
7.7106638 6.4614816 -0.08496017
7.34375 6.4619565 -0.082611695
6.9963965 6.4624071 -0.080435485
6.3529444 6.4632406 -0.076538086
5.4936619 6.4643531 -0.071645051
5.2306395 6.4646935 -0.070229799
4.733901 6.4653354 -0.067672268
3.7961767 6.398252 -0.062828824
3.5817919 6.3830357 -0.061813507
3.2369287 6.4827662 -0.061193082
3.0438964 6.4830151 -0.060484923
2.8551903 6.4832568 -0.059827574
2.3114746 6.4839611 -0.058134153
2.1366796 6.4841866 -0.057657469
1.6277392 6.4848423 -0.056465302
1.4624072 6.4850574 -0.056142729
1.1368896 6.4854784 -0.055606689
0.97626466 6.4856849 -0.055390317
0.34333009 6.4865012 -0.054856259
0.18654785 6.4867039 -0.054804534
-0.12657714 6.4871068 -0.054795835
-0.44033691 6.4875121 -0.054915007
-0.91539061 6.4881234 -0.055335999
-1.0756738 6.4883289 -0.055543516
-1.2372656 6.4885373 -0.055784758
-1.4003515 6.4887476 -0.056060027
-1.5449463 6.4051437 -0.055644225
-1.709541 6.4053564 -0.055988465
-1.8762841 6.40557 -0.056369323
-8.8527489 25.577961 -0.22858375
-8.879468 23.782454 -0.21439499
-8.9030809 22.196039 -0.20197074
-9.147007 21.30167 -0.19580276
-9.7589111 21.294275 -0.19782318
-10.473852 21.4708 -0.20175208
-11.128086 21.480572 -0.20430602
-12.48959 21.500908 -0.20998916
-14.689018 21.53376 -0.22014122
-15.351318 21.37781 -0.22228263
-22.798252 5.7787571 -0.19862503
-28.20665 5.7173157 -0.24305427
-19.542782 -7.7862511 -0.17766349
-20.527548 -21.714653 -0.25235602
-18.718594 -21.820007 -0.24280906
-17.833193 -21.832546 -0.23807518
-16.973257 -21.834541 -0.23356101
-16.144823 -21.836464 -0.22934432
-15.342846 -21.834789 -0.225373
-11.698291 -21.833691 -0.20919411
-10.374975 -21.833071 -0.20414756
-9.1144037 -21.840353 -0.19986473
-8.501543 -21.84008 -0.19792983
-2.585835 -7.7264318 -0.068809658
-6.7275977 -21.839287 -0.19298515
-6.1556201 -21.842304 -0.19164848
-5.590332 -21.841904 -0.19040512
-5.032002 -21.841509 -0.18928802
-4.4798679 -21.841118 -0.18829338
-3.9331884 -21.840729 -0.18741561
-1.7869238 -21.835888 -0.18502754
-1.2568945 -21.826572 -0.18463761
0.32538575 -21.882246 -0.18481971
0.85579586 -21.932831 -0.18536942
1.9297411 -22.058666 -0.18700409
2.4850292 -22.216757 -0.18879874
3.0766797 -22.563484 -0.192322
5.7903028 -7.7403955 -0.081636049
24.51104 6.3594713 -0.21384887
22.586927 6.4457579 -0.19836661
20.690092 6.4482164 -0.18302619
16.433569 6.4593515 -0.14912322
15.339365 6.4607716 -0.14056854
14.160073 6.3705812 -0.13113068
12.677744 6.4562912 -0.12015228
11.957046 6.4572263 -0.11476517
10.691895 6.4588656 -0.1054927
9.0106783 6.376008 -0.093221888
7.8573875 6.4612913 -0.085912928
7.1277733 6.4622374 -0.081252895
6.7914891 6.4626732 -0.079174347
6.471787 6.4630857 -0.077243194
6.1671481 6.46348 -0.075446777
5.8761816 6.4638586 -0.073773652
5.3305368 6.4645638 -0.070761561
5.0738087 6.4648972 -0.069404602
4.3576365 6.4658213 -0.065848537
4.1345167 6.4661121 -0.064817198
3.8768213 6.3981481 -0.063177638
3.6600049 6.3829346 -0.062138516
3.4582324 6.3831959 -0.061309509
3.3103466 6.4787426 -0.061445922
3.1175733 6.4829187 -0.060751494
2.9272509 6.4831653 -0.060073394
2.7410107 6.4834056 -0.059446257
2.5585155 6.4836411 -0.058864746
2.2035351 6.4841003 -0.057835385
1.8599707 6.4845433 -0.056971893
1.5257422 6.4849753 -0.056261901
1.3615429 6.4851866 -0.055962827
1.0378662 6.4856052 -0.055469207
0.87796873 6.4858103 -0.055273894
0.71911132 6.4860168 -0.055111997
0.56107908 6.4862194 -0.054981992
0.40371093 6.4864244 -0.054885253
0.24679688 6.4866247 -0.054819945
-0.066376954 6.48703 -0.05478714
-0.22300781 6.4872313 -0.054818112
-0.37989745 6.4874325 -0.054881591
-0.8540625 6.4880443 -0.055265501
-1.0139062 6.4882507 -0.05545944
-1.337456 6.488667 -0.055950318
-1.4821826 6.4050632 -0.055521391
-1.6460108 6.4052744 -0.055850983
-8.7022657 28.152504 -0.24885657
-8.8415089 26.333504 -0.23459411
-8.9550581 21.400166 -0.19596413
-9.5192327 21.290695 -0.19695786
-10.226577 21.467104 -0.20081817
-10.87456 21.476784 -0.20330283
-13.64811 21.518209 -0.21519791
-15.843198 21.385153 -0.22477072
-20.518461 21.662863 -0.25198936
-18.603485 5.8728528 -0.16475563
-20.175146 5.8375988 -0.17737281
-26.900185 5.7128525 -0.23224266
-15.649482 -21.837614 -0.22688064
-14.863925 -21.835562 -0.22307433
-13.371201 -21.837965 -0.2162526
-12.657763 -21.839115 -0.21316566
-11.284101 -21.833498 -0.20755805
-10.624463 -21.833187 -0.20506042
-2.4770117 -7.7834721 -0.068982393
-5.8068309 -21.84206 -0.19086953
-4.6914792 -21.841269 -0.18866546
-3.5995214 -21.842937 -0.18695839
-3.0601463 -21.843143 -0.18627182
-1.9912401 -21.838535 -0.18519707
-1.4603906 -21.830149 -0.18477455
-0.40473142 -21.830347 -0.18439452
0.12229492 -21.866381 -0.18467124
1.1841114 -21.966415 -0.18578339
1.7216455 -22.032106 -0.18663551
2.8418651 -22.391069 -0.19061714
28.746529 6.4417782 -0.24879348
19.407114 6.3660913 -0.17249092
16.890717 6.4587584 -0.15271957
14.725966 6.461566 -0.13581161
12.226386 6.4568763 -0.11676925
11.5446 6.4577613 -0.11171478
10.342402 6.4593177 -0.10297943
9.8085546 6.4600096 -0.099188231
9.3123484 6.4606528 -0.095718533
8.4143848 6.4605713 -0.089592434
7.2618308 6.4620643 -0.082093813
6.9187107 6.4625072 -0.079955138
6.5928268 6.4629297 -0.077968292
6.2825685 6.4633312 -0.076122589
5.70333 6.4640818 -0.072801821
4.9205565 6.465095 -0.068615109
4.6788087 6.4654074 -0.067400813
4.000576 6.4662838 -0.064215235
3.5351758 6.3830967 -0.061622314
3.3366551 6.3833532 -0.060829923
3.1919188 6.4828234 -0.061024625
2.9999268 6.4830713 -0.060329285
2.8121581 6.483314 -0.059681851
2.6282713 6.483551 -0.059082337
2.0966895 6.4842381 -0.057552643
1.9252343 6.4844604 -0.05712555
1.7562109 6.4846778 -0.056737516
1.5893701 6.4848938 -0.056387328
1.2613086 6.4853158 -0.05579605
0.78008789 6.4859385 -0.055169217
0.46415526 6.4863439 -0.054918211
0.30708495 6.4865475 -0.054841764
-0.0061816406 6.4869518 -0.054783173
-0.16275878 6.4871531 -0.054802246
-0.6344043 6.487761 -0.055051573
-0.95230955 6.4881701 -0.055380095
-1.1128759 6.4883776 -0.055596311
-1.4382616 6.4887962 -0.056129761
-1.5828027 6.4051929 -0.055719603
-1.9151367 6.4056211 -0.056462552
-8.8296576 27.129679 -0.24094626
-8.8592329 25.142281 -0.22512923
-8.8851757 23.398808 -0.21137649
-9.2816839 21.287148 -0.19612281
-9.9816113 21.463444 -0.19990706
-11.281635 21.482862 -0.20492476
-13.367211 21.514015 -0.21390495
-14.867446 21.536423 -0.22101104
-20.940922 21.4613 -0.25322989
-19.543135 5.8517747 -0.17228805
-19.397739 -21.780453 -0.24631584
-18.517788 -21.830957 -0.24176216
-16.779203 -21.834991 -0.2325608
-15.957681 -21.836899 -0.2284265
-14.39458 -21.836317 -0.22087829
-13.651128 -21.837515 -0.21749274
-11.542041 -21.833618 -0.20856804
-10.876162 -21.833307 -0.20600082
-10.226118 -21.833002 -0.20360824
-9.5921822 -21.836226 -0.20142303
-8.9717283 -21.84029 -0.19940506
-8.3616066 -21.840017 -0.19750077
-2.5450439 -7.7478113 -0.068872832
-5.4607325 -21.841814 -0.19013892
-3.2670605 -21.843063 -0.1865229
-2.7300487 -21.843271 -0.18590751
-0.60733885 -21.828642 -0.18442191
-0.080546871 -21.850536 -0.18453361
2.0571094 -22.094929 -0.18740699
2.6148682 -22.253725 -0.18923302
3.2198682 -22.668617 -0.19335571
24.277485 6.4435654 -0.21213165
22.120913 6.4463611 -0.19458747
18.737846 6.4563646 -0.16737808
17.370396 6.458137 -0.15651062
13.962011 6.3753123 -0.12962402
11.153364 6.4582677 -0.10884506
9.4989405 6.4604111 -0.097016297
8.9051514 6.3761435 -0.092497863
8.5538034 6.4423547 -0.090434417
7.7688279 6.4614062 -0.08533752
7.3987403 6.4618869 -0.082960963
7.0485106 6.4623399 -0.080759272
6.4001074 6.4631786 -0.076817781
5.8107615 6.4639425 -0.073404841
5.5349755 6.4643002 -0.071870424
5.2703223 6.4646411 -0.070440821
4.7707419 6.4652882 -0.067857206
4.0839548 6.4661765 -0.064587705
3.8282518 6.3982115 -0.062965699
3.612915 6.3829966 -0.061942138
3.4123828 6.3832541 -0.061125793
3.266953 6.4827247 -0.061307065
2.8838866 6.4832201 -0.059924927
2.5168653 6.483695 -0.058736723
2.3385644 6.4839268 -0.0582106
2.1633251 6.4841528 -0.057727661
1.487666 6.4850245 -0.056190643
1.3238574 6.4852352 -0.055898741
1.1616504 6.4854455 -0.055642545
1.0008349 6.4856515 -0.05542114
0.8411963 6.485858 -0.055233307
0.68254393 6.486063 -0.055079192
0.52468258 6.4862671 -0.054956663
0.21060058 6.4866724 -0.05481033
0.054008789 6.4868736 -0.054785307
-0.25921386 6.4872775 -0.054830473
-0.41619629 6.4874816 -0.054901123
-0.57368165 6.4876828 -0.055003356
-0.89088863 6.4880919 -0.055306699
-1.0509912 6.488297 -0.055508725
-1.2123584 6.4885058 -0.055745084
-1.3752099 6.4887156 -0.056015473
-1.6841357 6.4053245 -0.055932462
-8.875288 28.155085 -0.24931304
-8.8996334 22.427568 -0.203778
-9.6629543 21.292843 -0.19747505
-11.02667 21.479057 -0.20390449
-11.695352 21.489044 -0.20661765
-13.089667 21.509871 -0.21265045
-13.818632 21.52076 -0.21598975
-16.055532 21.420918 -0.22608031
-20.617636 21.525923 -0.25163826
-18.112617 6.0896788 -0.16137886
-18.946459 5.8651586 -0.16750015
-22.476908 5.7859669 -0.19601074
-24.973185 5.7898474 -0.21649811
-27.583933 5.6975145 -0.23786651
-19.74482 -21.760241 -0.2481491
-17.103184 -21.834242 -0.23423073
-15.463857 -21.834595 -0.22596145
-14.686704 -21.835846 -0.22224197
-13.934272 -21.837061 -0.21876587
-12.492793 -21.834063 -0.21244407
-9.2095699 -21.840395 -0.20017678
-8.5948725 -21.840122 -0.19821793
-7.9916501 -21.839853 -0.1964035
-6.2429881 -21.842367 -0.19185485
-5.6765575 -21.841967 -0.19058754
-5.1172071 -21.84157 -0.18945487
-4.0167089 -21.840788 -0.18753998
-3.4745069 -21.842985 -0.18678856
-2.9360743 -21.843187 -0.18613136
-0.80999511 -21.826939 -0.18445961
0.2443164 -21.875912 -0.1847589
0.77422851 -21.924623 -0.18527572
1.307876 -21.981543 -0.1859671
1.8465674 -22.047373 -0.18684784
2.3991747 -22.192314 -0.18851134
3.6968799 -23.512949 -0.20101288
14.478007 -7.8697848 -0.13916625
22.682085 -7.7433295 -0.20243423
24.888109 6.358983 -0.21694313
20.962055 6.447865 -0.18521698
16.613506 6.4591184 -0.15053543
15.49915 6.4605627 -0.14181152
14.301035 6.3703966 -0.13222367
12.794307 6.45614 -0.12103011
12.063359 6.4570885 -0.1155542
11.395292 6.4579539 -0.11061767
10.215405 6.4594836 -0.10207199
9.6906834 6.4601622 -0.098359831
9.0816402 6.3759165 -0.093708798
7.1809225 6.4621692 -0.081586152
6.8419433 6.462606 -0.079484403
6.5197997 6.4630237 -0.077530056
5.9199657 6.4638009 -0.074023433
5.6396189 6.4641623 -0.072447814
5.3708057 6.4645128 -0.07097809
5.1125441 6.4648461 -0.069606781
4.8639255 6.4651685 -0.068326719
4.1682911 6.4660678 -0.064971156
3.9092431 6.3981066 -0.063318327
3.4888475 6.3831568 -0.061434478
3.3102782 6.4198217 -0.061000824
2.9561815 6.4831271 -0.060174864
2.5862987 6.4836059 -0.058951262
2.0568504 6.4842882 -0.057449341
1.7174706 6.4847264 -0.056653287
1.5511035 6.4849424 -0.056311492
0.90243161 6.4857788 -0.055301819
0.74342769 6.4859862 -0.055134125
0.42782226 6.4863915 -0.054898527
0.27084962 6.4865942 -0.054828644
-0.042353515 6.4869981 -0.054784849
-0.51306641 6.487606 -0.054960325
-0.82962888 6.4880123 -0.055238187
-1.3124218 6.4886351 -0.055906981
-1.4631299 6.4310594 -0.055697478
-1.6207471 6.4052405 -0.05579849
-8.5876608 28.150793 -0.24855743
5.1910496 6.4645739 -0.25680998
4.4630613 6.4655237 -0.24335258
4.0172267 6.4661059 -0.23579742
3.7550292 6.3826599 -0.22938088
3.2069335 6.4826536 -0.22402886
3.0145996 6.482904 -0.22145836
2.8265233 6.4831491 -0.21907288
2.6423438 6.4833884 -0.21686187
2.4617479 6.4836216 -0.21482062
2.1100585 6.4840794 -0.21121253
1.769204 6.4845214 -0.20820053
1.4371679 6.4849524 -0.20574623
1.2738867 6.4851632 -0.20471832
1.112124 6.4853735 -0.20381774
0.9516992 6.4855795 -0.20304343
0.63400388 6.4859924 -0.20186156
0.47634766 6.486196 -0.20145218
0.16250977 6.4866004 -0.20098709
-0.46446776 6.4874072 -0.20146309
-0.62213379 6.4876108 -0.20187674
-0.78054196 6.4878135 -0.20241097
-1.1003613 6.488225 -0.20384376
-1.5700341 6.4050403 -0.20427161
-9.1061373 28.158281 -0.91668701
-8.861352 25.299364 -0.83033687
-9.2343359 21.287277 -0.718723
-9.8550539 21.295507 -0.72684652
-10.573095 21.472075 -0.74136657
-12.597114 21.5023 -0.77192485
-13.310776 21.512953 -0.78360885
-14.807236 21.535299 -0.8095336
-5.1841893 6.4803391 -0.25705925
-5.3176856 6.3279552 -0.25603074
-5.7075925 6.1621079 -0.26017073
-6.5767236 6.142612 -0.27875176
-6.8953419 6.1354637 -0.28589615
-7.2309179 6.1279359 -0.29359344
-7.9604635 6.1115699 -0.31086585
-8.3588715 6.1026316 -0.32057953
-8.8668604 6.151113 -0.33426985
-9.2750874 6.1081858 -0.34399664
-12.211103 6.0760913 -0.42247757
-12.883286 6.0272422 -0.44057411
-13.769131 6.0411386 -0.4657495
-14.675381 6.0208068 -0.49133927
-15.687671 5.9980979 -0.5202378
-16.827139 5.9725351 -0.55308592
-18.121 5.9435096 -0.59073055
-21.325674 5.8716159 -0.68514448
-23.224033 5.7952585 -0.74141616
-28.697323 5.7062402 -0.90631318
-18.584921 -21.827183 -0.88798183
-17.699453 -21.833279 -0.87059999
-16.844473 -21.835253 -0.85421789
-15.222568 -21.835018 -0.824485
-14.453227 -21.83626 -0.81112671
-13.707988 -21.837458 -0.79864889
-12.984902 -21.838623 -0.78699601
-12.279433 -21.834839 -0.77595913
-10.927686 -21.834185 -0.75629628
-9.6398335 -21.833561 -0.73929173
-9.0194483 -21.839979 -0.73192149
-6.0683446 -21.842041 -0.70218992
-5.5041795 -21.84164 -0.69770455
-3.308955 -21.843441 -0.68432593
-2.7716503 -21.843645 -0.68203932
-2.2371826 -21.839844 -0.68003583
-0.64824218 -21.828461 -0.67644262
-0.12143066 -21.847761 -0.67675269
1.4726807 -22.002266 -0.68305123
2.0143895 -22.083952 -0.68689626
5.8296094 -7.7330699 -0.29997322
27.099916 6.4433374 -0.862827
20.423286 6.4481201 -0.66339803
18.850765 6.4558053 -0.61720216
17.469116 6.4576244 -0.57689786
16.256166 6.4592185 -0.541834
15.18165 6.4606333 -0.51106721
13.342602 6.4551229 -0.4591175
12.562212 6.4561486 -0.43749967
11.851611 6.4570837 -0.4180558
11.201118 6.4579382 -0.40049225
10.602754 6.458724 -0.38456032
10.049858 6.4594493 -0.37005302
8.9400826 6.375874 -0.3401345
8.1921234 6.4606433 -0.32317024
7.0747995 6.4621081 -0.29679984
6.4239011 6.4629602 -0.28225967
5.83249 6.4637341 -0.26967803
5.5558057 6.4640965 -0.26402113
4.7893209 6.4650974 -0.24922203
4.552114 6.4654074 -0.24492584
4.3228221 6.4657068 -0.24091537
3.6286082 6.3828235 -0.22742514
3.4276707 6.3830857 -0.22441986
3.0880225 6.4828086 -0.22242492
2.3522265 6.4837656 -0.21364364
2.1767528 6.4839926 -0.21185806
1.8339893 6.484437 -0.20873642
1.6661669 6.4846554 -0.20738776
1.3364697 6.4850826 -0.20509818
1.0132372 6.4855018 -0.20332611
0.69479978 6.4859128 -0.20205139
0.5368945 6.4861169 -0.2015956
0.37959471 6.4863195 -0.20125876
0.22274414 6.4865222 -0.20104049
-0.090395503 6.4869251 -0.20095322
-0.24705078 6.4871287 -0.20108551
-0.56143552 6.4875326 -0.20170295
-0.71953613 6.4877367 -0.20219138
-0.87849605 6.4879403 -0.2027996
-1.0385107 6.4881468 -0.20352997
-8.8504438 26.040112 -0.85191923
-8.8777151 24.188456 -0.7981149
-9.0268307 21.349312 -0.71798831
-9.6145754 21.291916 -0.72364843
-10.324897 21.468369 -0.73789746
-11.642652 21.488047 -0.75702256
-13.033848 21.50882 -0.77902246
-14.511855 21.530888 -0.804268
-15.979062 21.402338 -0.82733321
-5.131865 6.5383763 -0.2574617
-5.3979931 6.2331553 -0.25541121
-5.8764014 6.1583214 -0.26366645
-6.1606784 6.1519446 -0.26968056
-7.0997753 6.1308775 -0.29056481
-7.4466796 6.1230955 -0.29862654
-7.8135986 6.1148643 -0.30733353
-8.2027826 6.1061325 -0.31675276
-8.6988478 6.1548839 -0.33007506
-9.5715036 6.1015368 -0.35159767
-11.290507 6.0967417 -0.3974587
-11.880459 6.0497398 -0.41296446
-12.658906 6.0660448 -0.43480673
-14.3154 6.028883 -0.48114234
-19.009106 5.9235864 -0.61674267
-22.529839 5.8446021 -0.72097105
-24.648754 5.7632971 -0.7840929
-27.496552 5.7331772 -0.87003523
-18.920092 -21.807655 -0.89427745
-15.525244 -21.83453 -0.82987219
-13.26041 -21.838179 -0.79138541
-12.547578 -21.834965 -0.78006828
-9.8829393 -21.833679 -0.74235386
-8.6419477 -21.839813 -0.72753149
-8.0379877 -21.839548 -0.72085106
-7.4446726 -21.839285 -0.71470487
-2.4473145 -7.7898912 -0.25292227
-5.7202291 -21.841797 -0.69937164
-5.1603613 -21.841398 -0.69517112
-4.0589991 -21.84062 -0.68809539
-3.5165379 -21.843365 -0.68531829
-2.9778125 -21.843567 -0.6828714
-0.85093749 -21.826757 -0.67660463
3.6309667 -23.379272 -0.73286176
5.7565088 -7.7853441 -0.29989082
28.255922 6.4418163 -0.89769179
17.978491 6.456954 -0.59171784
16.704659 6.4586301 -0.55476135
13.663642 6.4547009 -0.46808371
12.853398 6.4557652 -0.44553497
12.117216 6.4567332 -0.42529517
11.444643 6.4576182 -0.40704048
9.7296972 6.4598718 -0.36175781
9.1175241 6.3756394 -0.34462005
8.6670895 6.3774753 -0.33331427
8.350029 6.4604368 -0.32702035
7.9468846 6.4609642 -0.31724778
7.5669088 6.461462 -0.30821341
7.207778 6.4619346 -0.29985037
6.236084 6.4632053 -0.27819535
5.94208 6.4635925 -0.27195853
5.1321044 6.4646506 -0.25567314
4.6423535 6.4652891 -0.24654418
4.1853366 6.4658871 -0.23857932
3.9256053 6.3979297 -0.23250717
3.7073193 6.3827219 -0.2286377
3.504292 6.3829856 -0.22555122
3.1621044 6.4827123 -0.22341736
2.9707811 6.4829612 -0.22089179
2.6003172 6.4834433 -0.21637572
2.0701659 6.4841309 -0.21083495
1.8991015 6.484354 -0.20929077
1.7304394 6.4845724 -0.20788971
1.3993018 6.4850025 -0.20549767
1.2363867 6.4852123 -0.20449822
1.0749512 6.4854212 -0.20362823
0.75571775 6.4858336 -0.20225975
0.5975244 6.4860387 -0.20175719
0.44000974 6.4862413 -0.20137428
0.28301269 6.486444 -0.20110999
0.12632813 6.4866467 -0.20096351
-0.18679687 6.4870505 -0.20102096
-0.50083983 6.4874535 -0.20154816
-0.81727052 6.4878612 -0.20255081
-0.97685546 6.4880662 -0.20323417
-1.1376171 6.4882727 -0.20404151
-1.2997509 6.4884815 -0.20497513
-1.4634765 6.4886913 -0.20603645
-1.7733495 6.4053001 -0.20586807
-8.8389645 26.820456 -0.87472564
-8.8676462 24.87203 -0.81792098
-8.8928614 23.160309 -0.76846641
-8.9152098 21.642946 -0.72504598
-10.079014 21.464695 -0.73452842
-12.062407 21.494314 -0.76346916
-13.478788 21.515467 -0.78643078
-15.657138 21.382149 -0.8209033
-5.3479834 6.2924438 -0.25579703
-5.5028272 6.1667013 -0.25600907
-5.7704296 6.1606979 -0.26146469
-6.0498633 6.1544299 -0.26731795
-6.3422608 6.147871 -0.27360329
-6.6489205 6.1409912 -0.28035638
-7.6700191 6.1180844 -0.30390486
-8.4895992 6.1258092 -0.32427862
-8.9698877 6.1488013 -0.33685914
-9.3848286 6.1057239 -0.34680548
-10.472016 6.1151037 -0.37562904
-11.623803 6.0554953 -0.40597731
-12.376162 6.0723877 -0.42701042
-13.063877 6.023191 -0.44559538
-15.938745 5.9924645 -0.52745366
-18.358139 5.9081335 -0.59737211
-19.873041 5.8704343 -0.64186645
-21.763412 5.8617954 -0.69816357
-23.867191 5.8145995 -0.76090932
-12.339292 -7.690402 -0.45034942
-19.260098 -21.787851 -0.90077263
-16.65148 -21.835703 -0.8505922
-14.278965 -21.836538 -0.8081668
-13.539013 -21.837729 -0.79588479
-12.82082 -21.838886 -0.78443116
-11.439262 -21.834429 -0.7635268
-10.775864 -21.834108 -0.75420415
-10.12811 -21.833794 -0.7455225
-9.4976072 -21.840193 -0.73770797
-7.6715965 -21.839384 -0.71700615
-6.5073242 -21.84235 -0.70596045
-5.3748436 -21.841553 -0.69673496
-4.8189597 -21.841156 -0.69280958
-3.7242529 -21.840384 -0.68627346
-3.1844873 -21.843489 -0.68376076
-2.1141455 -21.839247 -0.67963922
-1.0537305 -21.82505 -0.67682594
0.00038085936 -21.857275 -0.67703748
0.52894044 -21.900434 -0.67857099
1.0607079 -21.953964 -0.68082517
3.3162889 -22.742365 -0.71190345
26.447582 6.4441967 -0.84319168
18.514633 6.4562473 -0.60736614
15.996552 6.4595618 -0.5343734
11.696284 6.4572873 -0.41384155
9.9279633 6.459609 -0.36688575
9.4235106 6.4602718 -0.35390174
7.7104149 6.4612741 -0.31160346
7.3435254 6.4617553 -0.30298972
6.9961863 6.4622107 -0.29500923
6.3527589 6.4630542 -0.28071266
5.7675095 6.4638195 -0.26833382
5.4935155 6.4641781 -0.26276922
4.733779 6.4651709 -0.24820189
4.4984717 6.4654784 -0.24397491
4.0504637 6.4660621 -0.23634025
3.7960839 6.398098 -0.23043838
3.043828 6.4828663 -0.22184028
2.6703711 6.4833517 -0.21719009
2.489243 6.4835873 -0.21512313
2.1366358 6.484045 -0.21146828
1.9645849 6.4842687 -0.20986792
1.7950244 6.4844885 -0.20841178
1.2988428 6.4851317 -0.20486763
0.97624022 6.485549 -0.20315391
0.8167578 6.4857554 -0.20248443
0.65824217 6.4859605 -0.2019355
0.18654296 6.4865699 -0.20100577
-0.12657714 6.4869723 -0.20097327
-0.28328612 6.487175 -0.20113356
-0.44033203 6.4873767 -0.20141044
-0.5978955 6.4875803 -0.20180617
-0.75619137 6.487783 -0.20232017
-1.2372411 6.4884009 -0.20459992
-8.9905615 28.156555 -0.91554183
-8.85707 25.590448 -0.83880734
-8.9069185 22.205593 -0.74109441
-9.1472168 21.302153 -0.71808594
-13.932343 21.522234 -0.79414856
-14.688862 21.533533 -0.80741471
-15.351142 21.377577 -0.81523448
-5.1633739 6.5035458 -0.25721937
-5.297451 6.3514853 -0.25618666
-5.9409471 6.1568737 -0.26501915
-6.5292335 6.1436768 -0.27770033
-6.8453856 6.1365833 -0.28476563
-7.1782422 6.1291161 -0.29237249
-7.5295801 6.1212354 -0.30057967
-8.7992773 6.1526303 -0.33258033
-9.2031441 6.1097999 -0.34217033
-9.7379436 6.1315722 -0.35645056
-10.260322 6.1198535 -0.37005699
-10.766996 6.074718 -0.38293707
-12.103413 6.0785069 -0.41952673
-12.774502 6.0340891 -0.43761703
-14.529922 6.0240707 -0.4872196
-15.442123 5.9698377 -0.51282471
-16.643036 5.976665 -0.54775482
-17.911158 5.9482164 -0.58459741
-22.947294 5.8165307 -0.73327732
-25.241486 5.7536387 -0.80192059
-28.20635 5.7172546 -0.89146787
-19.559092 -7.7927518 -0.65216482
-19.605078 -21.767756 -0.90742171
-16.973564 -21.834955 -0.85666072
-16.145126 -21.83687 -0.84118629
-14.569648 -21.836069 -0.81311905
-13.820815 -21.837275 -0.80050552
-12.386093 -21.834887 -0.777583
-11.028994 -21.83423 -0.75770938
-10.375381 -21.833916 -0.74878979
-9.1142673 -21.840023 -0.73304898
-7.9000049 -21.839487 -0.71938545
-6.1555614 -21.842102 -0.70291996
-4.4798193 -21.840918 -0.69061124
-2.3189843 -21.84024 -0.68030941
-1.7869287 -21.835962 -0.67863709
-1.2568994 -21.826641 -0.67720968
-0.72913575 -21.827784 -0.67650014
-0.20229003 -21.841444 -0.67657357
0.85581052 -21.93334 -0.6799109
1.3902001 -21.992188 -0.68257451
1.9298437 -22.059883 -0.68592209
2.4851708 -22.217997 -0.69250286
3.0771289 -22.566738 -0.70548099
5.7895899 -7.7394395 -0.29938698
27.550287 6.4427466 -0.876405
22.58523 6.4452744 -0.72751516
20.688656 6.4477711 -0.67123783
19.0373 6.4410238 -0.62252456
16.432642 6.4589877 -0.54691309
12.677158 6.4559984 -0.44066757
11.297373 6.4578123 -0.4030773
10.691464 6.4586072 -0.3869071
9.613203 6.4600229 -0.35876074
7.8571286 6.4610825 -0.31509688
7.1275535 6.4620395 -0.29800704
6.4715967 6.4628978 -0.28330246
6.1669726 6.4632959 -0.27671453
5.8760157 6.4636779 -0.27058005
5.5975194 6.4640403 -0.2648629
5.3303952 6.4643908 -0.2595298
5.0736766 6.4647264 -0.25455397
4.5879931 6.4653611 -0.24556664
4.134419 6.4659534 -0.23772804
3.8767333 6.3979931 -0.23171821
3.4581542 6.3830442 -0.22486816
3.3091357 6.476366 -0.22527504
3.1174998 6.4827709 -0.22281738
2.7409472 6.4832602 -0.21802925
2.2034862 6.4839587 -0.21212257
2.0304198 6.4841833 -0.21046546
1.8599316 6.4844041 -0.2089553
1.6917773 6.4846225 -0.20758544
1.0378418 6.4854684 -0.20344482
0.5610742 6.4860864 -0.20165779
0.40369627 6.4862876 -0.20130324
0.24679199 6.4864917 -0.20106575
-0.22299804 6.4870968 -0.2010572
-0.37989256 6.4872985 -0.20128876
-0.53723633 6.4875021 -0.20163901
-1.0138818 6.4881139 -0.20340912
-1.3374268 6.4885302 -0.20520866
-1.4821484 6.4049277 -0.20363601
-1.6459765 6.405138 -0.20484641
-8.8459377 26.346676 -0.86086857
-8.8737545 24.457296 -0.80589747
-8.8982563 22.793852 -0.75793862
-8.9570017 21.404787 -0.71877211
-10.22648 21.4669 -0.73653901
-10.874457 21.476574 -0.74566174
-12.221797 21.496696 -0.76596248
-13.647964 21.517988 -0.78928787
-15.167348 21.540678 -0.81603897
-15.843022 21.384922 -0.82438564
-5.3781199 6.2568688 -0.25556457
-6.1162305 6.1529417 -0.26873046
-7.0481982 6.1320348 -0.28938073
-7.3922067 6.1243176 -0.29735038
-8.5870657 6.1236215 -0.32668999
-9.4963913 6.1032224 -0.34966406
-10.545938 6.0796776 -0.37705672
-12.544828 6.0686035 -0.43165922
-13.319487 6.0512242 -0.45315778
-15.069023 5.9868894 -0.50225693
-16.110746 5.9548373 -0.53203666
-18.680567 5.8971863 -0.60678411
-22.099838 5.8204784 -0.70789677
-24.278418 5.771605 -0.77298468
-26.89991 5.7127929 -0.85181516
-19.67724 -7.6290927 -0.6537196
-19.055204 -21.799788 -0.89684975
-18.173222 -21.832182 -0.87988824
-17.300352 -21.834202 -0.86289328
-16.460112 -21.836142 -0.84702468
-14.86395 -21.835598 -0.81820023
-13.37124 -21.837999 -0.79316717
-11.960889 -21.834682 -0.7711646
-9.3531637 -21.84013 -0.73593163
-5.806777 -21.841854 -0.70005804
-5.2458591 -21.841459 -0.69578522
-4.6914306 -21.841068 -0.69196415
-3.5995848 -21.84333 -0.68572968
-2.5241942 -21.841234 -0.68104231
-1.9912548 -21.838652 -0.67926365
-0.93184078 -21.826078 -0.67668611
1.1841503 -21.967005 -0.68142688
2.2704346 -22.156855 -0.68991041
2.8422754 -22.394264 -0.69923323
3.4993017 -23.094839 -0.72353667
28.743813 6.4411731 -0.91242951
25.824066 6.4450192 -0.82444686
23.402153 6.4441991 -0.75187141
19.405834 6.3656712 -0.63261604
18.189146 6.456676 -0.59786057
16.889751 6.4583874 -0.56011128
14.725224 6.4612341 -0.49809682
13.794809 6.4542761 -0.47175667
11.544106 6.4574866 -0.40972495
10.342002 6.4590659 -0.37769142
6.9185009 6.4623117 -0.29324836
6.2823825 6.4631457 -0.27919066
5.9863281 6.4635324 -0.27288735
5.7031736 6.4639034 -0.26701531
5.4318018 6.4642577 -0.26153755
5.1711912 6.4645996 -0.25642747
4.9204297 6.4649267 -0.25165534
4.6786866 6.4652429 -0.24720161
4.0004783 6.4661279 -0.23552284
3.5350926 6.3829455 -0.22601074
3.1918504 6.4826732 -0.22382247
2.8120947 6.4831686 -0.21889465
2.447871 6.4836402 -0.21466903
2.2707763 6.4838705 -0.21279998
2.0966454 6.4840965 -0.21108481
1.7561718 6.4845395 -0.20809592
1.5893359 6.4847546 -0.20681076
1.4244434 6.4849691 -0.20566215
1.2612841 6.4851794 -0.20464408
1.0996387 6.4853878 -0.20375365
0.78006834 6.4858017 -0.20234641
0.62174314 6.4860082 -0.201827
0.46414551 6.4862108 -0.2014257
0.30708006 6.486412 -0.20114303
0.1503662 6.4866161 -0.2009777
-0.31952149 6.4872203 -0.20118636
-0.79286128 6.4878306 -0.20245674
-0.95229 6.4880357 -0.20312065
-1.1128515 6.4882407 -0.20390922
-1.2747705 6.488451 -0.2048233
-1.5827686 6.405056 -0.20436531
-1.7478368 6.4052682 -0.20565689
-1.9151025 6.4054818 -0.20708953
-8.8891945 23.409359 -0.77563125
-8.9119434 21.864513 -0.7313599
-9.2815962 21.286945 -0.71932602
-9.9815331 21.46324 -0.7332077
-10.623476 21.472826 -0.74207753
-11.281523 21.482656 -0.75160873
-11.957124 21.492741 -0.76184034
-14.86731 21.536196 -0.81060719
-15.534526 21.38032 -0.81861722
-5.1946826 6.4685922 -0.2569783
-5.3279004 6.3160596 -0.25595185
-5.4627442 6.1676025 -0.25520515
-5.7286277 6.1616354 -0.26060301
-6.6008787 6.1420689 -0.27928817
-6.920742 6.1348939 -0.2864736
-7.2577147 6.1273336 -0.29421362
-7.6136031 6.1193504 -0.30256531
-8.3908348 6.1019139 -0.3213678
-9.8552151 6.128943 -0.35948333
-12.266123 6.0748558 -0.42398849
-12.943466 6.0258908 -0.44224876
-14.749873 6.0191369 -0.49346039
-21.470772 5.8683605 -0.68945968
-25.96912 5.7674437 -0.82399964
-20.310776 -21.726645 -0.92126501
-19.397207 -21.779863 -0.90340191
-18.517895 -21.831089 -0.88673222
-16.779526 -21.835405 -0.85299832
-13.651147 -21.837549 -0.79771703
-12.225639 -21.834808 -0.77514362
-11.542485 -21.83448 -0.76501662
-8.9715967 -21.83996 -0.73135817
-8.3614798 -21.839689 -0.72437948
-7.7625632 -21.839424 -0.71794707
-2.5424559 -7.7399101 -0.25234917
-5.4606833 -21.84161 -0.69737744
-3.8075292 -21.840439 -0.68671292
-2.1958447 -21.839643 -0.67990059
-1.1347363 -21.824492 -0.67693472
-0.60734862 -21.828808 -0.67641681
-0.080537111 -21.850956 -0.67684388
0.44763184 -21.89225 -0.67825943
1.5144043 -22.007366 -0.68329942
2.6150048 -22.254963 -0.69409686
3.2203319 -22.6719 -0.70931631
24.275541 6.443048 -0.77797735
20.291372 6.4482946 -0.65950674
18.736664 6.4559555 -0.6138615
16.168169 6.4593344 -0.53930014
13.959457 6.3741431 -0.4753443
13.279282 6.4552073 -0.45735428
11.15291 6.4580016 -0.39920133
10.558286 6.4587827 -0.38338745
10.008681 6.4595041 -0.36898154
9.4985933 6.4601731 -0.35582054
8.9048386 6.3759203 -0.33924246
8.1607027 6.4606848 -0.32240784
7.3985009 6.4616833 -0.3042714
7.0482907 6.462142 -0.29619575
6.7160058 6.4625769 -0.28870192
6.0985694 6.4633861 -0.27525839
5.8105955 6.4637632 -0.26922333
4.3053465 6.4657297 -0.24061622
3.8281591 6.3980551 -0.23094635
3.4123046 6.3831067 -0.22419502
3.2668798 6.4825768 -0.22485565
3.073164 6.4828272 -0.22222702
2.6984766 6.4833155 -0.21752211
2.5168114 6.483551 -0.21542984
1.9908154 6.4842334 -0.21010314
1.6532372 6.4846716 -0.20728889
1.3238281 6.4850988 -0.20502029
0.52467287 6.4861326 -0.2015657
0.21060058 6.4865379 -0.20102775
-0.10253906 6.4869418 -0.20095985
-0.25920898 6.4871435 -0.20110114
-0.73182613 6.4877515 -0.20223358
-1.0509619 6.4881616 -0.20359161
-1.3751806 6.4885788 -0.20544952
-1.5198193 6.4049754 -0.20390411
-8.8796873 24.054636 -0.79424489
-10.374858 21.469116 -0.73859465
-11.69523 21.488832 -0.75781989
-13.818491 21.520535 -0.79219449
-15.280068 21.445652 -0.81568217
-16.052744 21.4172 -0.82906693
-5.1424756 6.5266819 -0.25738007
-5.2771387 6.3749399 -0.25634331
-5.4080124 6.2211351 -0.25533387
-6.4821191 6.1447325 -0.27666137
-6.7958493 6.1376953 -0.28364685
-7.1260352 6.1302881 -0.29116896
-7.8429785 6.1142054 -0.30803832
-8.2339935 6.105433 -0.31751481
-9.1808538 6.1440711 -0.34218651
-10.677954 6.0767159 -0.38056237
-11.997188 6.0808887 -0.41662338
-13.509619 6.0469589 -0.45847449
-14.38685 6.0272813 -0.48316649
-16.374891 5.9489112 -0.53965741
-17.611435 5.9211707 -0.57552648
-19.126678 5.9209471 -0.62019199
-20.658457 5.8528147 -0.66509253
-27.58362 5.6974535 -0.87244993
-19.542915 -7.7025762 -0.65067023
-20.671844 -21.705614 -0.92846298
-17.103485 -21.834656 -0.85912877
-16.270376 -21.836582 -0.84350765
-15.463896 -21.834629 -0.82877856
-13.204624 -21.838268 -0.79049408
-10.474751 -21.833961 -0.75011742
-8.5947409 -21.839794 -0.72699481
-2.6099658 -7.7036924 -0.25194815
-5.1171632 -21.841366 -0.69486386
-4.5641308 -21.840977 -0.6911459
-4.016665 -21.84059 -0.68785942
-2.9361279 -21.843584 -0.68269974
-0.80999023 -21.827099 -0.67656732
-0.28304687 -21.835136 -0.67640591
1.846621 -22.047964 -0.68533331
2.3992968 -22.19355 -0.69145924
14.457822 -7.8588138 -0.50971985
24.88603 6.3584557 -0.79562378
16.612568 6.4587522 -0.55210209
12.793725 6.4558458 -0.44388458
12.062832 6.4568067 -0.42381027
10.215005 6.4592333 -0.37436378
9.0813084 6.3756871 -0.34369782
8.3178368 6.4604783 -0.32623467
7.9165769 6.4610033 -0.31651938
7.5383053 6.4615002 -0.30754149
7.1806979 6.4619689 -0.29922819
6.841743 6.4624133 -0.29151711
6.2127686 6.4632373 -0.27769515
4.6240282 6.4653149 -0.24621443
4.3923826 6.4656153 -0.24211708
4.1681833 6.4659095 -0.23829147
3.9091504 6.3979502 -0.23223777
3.6913671 6.3827415 -0.22838989
3.4887695 6.3830051 -0.22531967
3.3090672 6.417479 -0.22364898
3.1470897 6.4827318 -0.2232151
2.9561131 6.4829798 -0.22070175
2.7692773 6.4832239 -0.21837227
1.8859326 6.4843712 -0.20917793
1.3866016 6.4850183 -0.20541549
0.90241212 6.4856458 -0.20282951
0.58526856 6.4860544 -0.20172279
0.42781737 6.4862571 -0.20134987
-0.042353515 6.4868641 -0.20093635
-0.35579589 6.487268 -0.20124587
-0.67093259 6.4876733 -0.20202857
-0.82960933 6.4878769 -0.20259979
-0.9892773 6.4880819 -0.20329207
-1.1501318 6.4882884 -0.20410934
-1.4642236 6.4358678 -0.20444404
-8.5875978 28.150536 -0.91164535
4.6970215 6.4650536 -0.42782226
4.462954 6.4653611 -0.42059121
3.7549412 6.3825059 -0.39644721
3.5506346 6.3827758 -0.3910279
3.2068603 6.4825048 -0.38719574
3.0145311 6.4827561 -0.38275436
2.8264551 6.4830027 -0.3786296
2.2843604 6.4837122 -0.3680304
2.1100147 6.4839392 -0.36504608
1.769165 6.4843822 -0.35984093
0.95167476 6.4854455 -0.35092756
0.63398439 6.4858556 -0.34888557
0.47634277 6.4860606 -0.34817755
0.31924316 6.4862633 -0.34767342
0.16250488 6.4864659 -0.34737274
0.0059570312 6.4866672 -0.34727508
-0.15060058 6.4868689 -0.3473796
-0.30733886 6.4870715 -0.3476854
-0.4644531 6.4872742 -0.34819534
-1.1003369 6.4880896 -0.35231033
-1.9019922 6.4053283 -0.3577188
-2.019541 6.2448254 -0.35137597
-2.3551366 6.2372961 -0.35693663
-2.5271533 6.2334375 -0.3601017
-3.2810643 6.2764039 -0.37916306
-3.4740136 6.2720752 -0.38385421
-3.6523826 6.234304 -0.38682577
-3.8545849 6.2297692 -0.39220068
-4.2998338 6.2535486 -0.40629989
-4.9638329 6.2048841 -0.42540938
-5.4943604 6.2267504 -0.44458151
-5.7619042 6.2207479 -0.45395193
-6.0090137 6.1814356 -0.46152884
-6.2995019 6.1749191 -0.47225904
-6.6393113 6.2010641 -0.48637113
-7.6574459 6.1782227 -0.52675229
-8.3935347 6.1279392 -0.55637908
-8.8668213 6.1510901 -0.57774282
-12.211035 6.0760593 -0.73019934
-12.883218 6.0272083 -0.76147491
-13.769043 6.0411034 -0.80497909
-15.687558 5.9980602 -0.89915818
-18.120863 5.9434667 -1.0209857
-19.604599 5.9101758 -1.096226
-25.624899 5.741334 -1.4058827
-28.595243 5.6859508 -1.5608717
-22.007153 -20.289263 -1.6025045
-20.382587 -21.721828 -1.5947224
-18.584423 -21.826601 -1.5347379
-15.222592 -21.835052 -1.4250222
-14.453252 -21.836294 -1.4019325
-13.708003 -21.837492 -1.3803641
-12.984936 -21.838657 -1.3602265
-9.6402149 -21.834394 -1.2778108
-6.0682859 -21.841835 -1.2136346
-5.5041261 -21.84144 -1.2058814
-4.3955517 -21.840658 -1.1927253
-3.8496678 -21.840273 -1.1872847
-2.7716992 -21.844038 -1.1788392
-1.7054346 -21.834599 -1.1725178
-1.1757373 -21.825285 -1.1701525
-0.12144043 -21.848179 -1.1697019
0.40658203 -21.889425 -1.1720904
0.93754882 -21.94207 -1.1757811
1.4727148 -22.002853 -1.1806027
2.0145068 -22.085175 -1.1872827
2.5714843 -22.243774 -1.1987934
3.1725194 -22.63973 -1.2239056
4.7433543 -25.002699 -1.3624431
6.2697997 -26.100893 -1.437111
6.9299903 -26.063364 -1.443833
9.6060886 -25.802248 -1.4740008
10.242983 -25.605804 -1.4764729
10.952197 -25.571606 -1.4893063
11.675112 -25.538576 -1.503354
13.103662 -25.352104 -1.5278534
16.075083 -24.88327 -1.5859817
14.424897 -7.7030692 -0.87547928
27.097513 6.4427648 -1.4911561
22.272173 6.4452076 -1.2413043
20.4219 6.4476795 -1.1465225
15.180844 6.4602942 -0.88326645
14.020073 6.3701243 -0.82443511
13.341972 6.4548168 -0.79348904
12.561641 6.4558568 -0.75612801
11.851098 6.4568052 -0.7225278
10.602329 6.4584665 -0.66463536
10.049473 6.4592028 -0.6395663
9.5365229 6.4598851 -0.61666286
8.9397602 6.3756456 -0.58785045
8.55021 6.4145923 -0.57225221
8.1918507 6.4604282 -0.55853993
7.4262447 6.4614439 -0.52700216
7.0745897 6.4619102 -0.51296574
6.1212888 6.4631724 -0.47657615
5.555654 6.4639206 -0.45631331
5.0350046 6.4646068 -0.43868339
4.7891989 6.4649315 -0.43073517
4.3227196 6.4655457 -0.41638076
4.1006885 6.4658384 -0.40990707
3.6285253 6.3826733 -0.39306608
3.4275877 6.3829355 -0.38787505
3.2820165 6.4824057 -0.38899192
3.0879588 6.4826598 -0.38442329
2.8982861 6.4829087 -0.38017997
2.712661 6.4831519 -0.37624502
2.3521729 6.483623 -0.36924851
2.0040576 6.4840755 -0.36333823
1.8339453 6.4842992 -0.36076546
1.3364453 6.4849463 -0.35447869
0.85350585 6.4855723 -0.3502095
0.53688473 6.4859815 -0.34842566
0.37958983 6.4861865 -0.34784317
0.22273925 6.4863877 -0.3474645
-0.40399414 6.487196 -0.34797552
-0.71952635 6.4876013 -0.34945405
-0.87847656 6.4878049 -0.35050505
-1.1997558 6.4882164 -0.35324591
-1.3624706 6.4884253 -0.35494429
-1.5071386 6.4048243 -0.35225785
-2.2897851 6.2387619 -0.35578904
-2.6345994 6.2310276 -0.36218229
-2.8386621 6.2863278 -0.36927244
-3.0213671 6.2822299 -0.37320694
-3.2081151 6.2780404 -0.37744743
-3.5952148 6.2693567 -0.38691351
-3.981909 6.2269115 -0.39570242
-4.2161818 6.2554259 -0.40386245
-4.6380568 6.2121911 -0.4150492
-4.8717432 6.2069507 -0.42243126
-5.141367 6.2346716 -0.43263945
-5.3943796 6.2289939 -0.44115111
-5.6577148 6.2230859 -0.45027244
-6.1862302 6.1774597 -0.46804428
-6.5198584 6.2037439 -0.48181534
-7.5175438 6.1813622 -0.52105361
-8.2367964 6.1314549 -0.54973501
-8.6988134 6.1548595 -0.57049119
-9.1449118 6.1448498 -0.5898509
-10.136093 6.122611 -0.63397431
-10.633281 6.0776877 -0.65569919
-11.290454 6.0967126 -0.68694997
-11.88041 6.0497069 -0.71375626
-13.445175 6.0483704 -0.78929335
-14.315317 6.0288477 -0.83158934
-15.203286 5.9751549 -0.87453598
-16.285229 5.9508824 -0.92824435
-19.008974 5.9235401 -1.0659475
-20.632118 5.8871226 -1.1486658
-22.529633 5.8445506 -1.2460954
-28.66494 5.2584982 -1.56024
-28.766096 4.5625939 -1.5593028
-18.9196 -21.80707 -1.545661
-13.260444 -21.838213 -1.3678014
-12.548091 -21.835844 -1.3483007
-11.856421 -21.835497 -1.3302211
-11.182719 -21.835161 -1.3133769
-9.2574263 -21.839752 -1.2699372
-8.6418209 -21.839487 -1.2574303
-8.0378656 -21.83922 -1.2458814
-5.7201805 -21.841591 -1.2087653
-4.6068263 -21.840805 -1.1950185
-4.0589552 -21.84042 -1.1892889
-2.9778662 -21.84396 -1.1802733
-2.4422607 -21.840956 -1.176585
-1.9097167 -21.838188 -1.1736099
-1.3791553 -21.828861 -1.1709788
-0.85094237 -21.826923 -1.1694342
1.8046435 -22.043423 -1.1840869
2.9359179 -22.46595 -1.2129805
4.5056543 -25.014801 -1.3607651
5.7465525 -24.939262 -1.370158
7.3386865 -26.036856 -1.4482445
8.0066547 -25.988203 -1.4558617
8.6785593 -25.928469 -1.4638205
9.3476076 -25.838606 -1.4710591
10.678345 -25.585484 -1.4842807
12.826352 -25.390312 -1.5229198
13.550478 -25.288525 -1.5359818
15.027749 -25.060747 -1.5644108
16.547724 -24.798903 -1.5960951
22.657534 -7.7823248 -1.2825723
28.253296 6.4412193 -1.5514042
25.422974 6.4450035 -1.4041201
19.165609 6.3655663 -1.0811791
17.977398 6.4565611 -1.0226442
15.57918 6.4597607 -0.90291595
13.662983 6.4543896 -0.80898637
11.444155 6.457346 -0.70348835
10.826651 6.458169 -0.67491364
9.7293358 6.45963 -0.62522972
9.117197 6.375411 -0.59560817
8.3497505 6.4602184 -0.56519538
7.5666699 6.461257 -0.5326907
7.2075586 6.4617333 -0.51823699
6.8672266 6.4621849 -0.50483567
5.6606493 6.4637814 -0.4599916
5.390996 6.4641366 -0.4506256
4.8826513 6.464808 -0.43372771
4.642241 6.4651241 -0.42610824
4.1852293 6.4657264 -0.41234404
3.9255176 6.3977747 -0.4018473
3.3078368 6.3857031 -0.38501418
3.1620264 6.4825635 -0.38614142
2.9707129 6.4828148 -0.38177353
2.6002588 6.4832983 -0.37397048
2.4204443 6.4835339 -0.3705062
2.070122 6.4839902 -0.36439338
1.8990625 6.4842138 -0.36172524
1.7304003 6.4844337 -0.35930312
0.91478026 6.4854932 -0.35064855
0.59750974 6.4859033 -0.34870452
0.44000489 6.4861069 -0.34804237
-0.03020996 6.4867139 -0.34728071
-0.34360352 6.4871178 -0.34778512
-0.50083005 6.4873204 -0.34834281
-0.65864742 6.4875231 -0.34910598
-0.81725585 6.4877257 -0.3500756
-0.97683102 6.4879308 -0.35125747
-1.1375928 6.4881372 -0.35265249
-1.6079199 6.404952 -0.3535395
-2.0577831 6.2439671 -0.35196829
-2.5673387 6.2325363 -0.36087096
-2.769419 6.2878819 -0.36783859
-2.950659 6.2838159 -0.37165847
-3.1358104 6.2796617 -0.37577948
-3.3252246 6.2754126 -0.38021651
-4.1335349 6.2572789 -0.40148926
-5.2959375 6.2312012 -0.43780816
-5.5551953 6.2253866 -0.44668937
-5.8253417 6.219326 -0.45620948
-6.0749607 6.179956 -0.46394187
-6.7121825 6.19943 -0.48917052
-7.7429976 6.1763034 -0.53025842
-8.1269531 6.1676888 -0.54620123
-8.4895697 6.1257834 -0.56046861
-9.3847952 6.1056981 -0.59940708
-9.9341555 6.1271424 -0.62486398
-11.053745 6.1020236 -0.67596596
-11.623755 6.0554662 -0.70168227
-12.376088 6.0723557 -0.738038
-14.899072 6.0157504 -0.8602159
-17.111109 5.9661217 -0.97016311
-18.361387 5.9091821 -1.0326655
-19.872871 5.870388 -1.1093789
-28.622055 5.5255919 -1.5606297
-19.7754 -7.5405869 -1.1330715
-19.259575 -21.78726 -1.5568224
-18.380171 -21.832134 -1.5278863
-17.49934 -21.83416 -1.4980365
-15.042598 -21.835344 -1.4195464
-12.82082 -21.838921 -1.3557855
-11.439712 -21.835291 -1.319711
-10.776279 -21.834957 -1.3035915
-9.4974804 -21.839857 -1.2750118
-8.2687693 -21.839321 -1.2502081
-7.671484 -21.839062 -1.2392334
-5.3747897 -21.841347 -1.2042046
-4.8189206 -21.840956 -1.1974212
-3.1845458 -21.843882 -1.1818154
-2.6477587 -21.841953 -1.1779112
0.52895015 -21.900936 -1.172851
2.7034667 -22.295223 -1.2023621
3.3167772 -22.745684 -1.2306093
4.2683201 -25.025976 -1.3591588
4.8863525 -24.99477 -1.3634771
5.5070753 -24.956013 -1.3682089
7.7491941 -26.007738 -1.4528661
8.4203758 -25.954746 -1.4608332
10.405967 -25.598446 -1.4793698
14.740605 -25.107119 -1.5586991
15.490762 -24.983912 -1.5738037
26.445278 6.4436374 -1.4572215
23.917847 6.4430075 -1.3261342
21.817924 6.4458127 -1.2179751
20.033754 6.4481969 -1.1267334
18.513481 6.4558444 -1.0496848
17.174086 6.457633 -0.98229748
12.391645 6.4560838 -0.74804962
11.058037 6.4578609 -0.68557203
9.4231691 6.4600363 -0.61165375
8.8353415 6.3757849 -0.58331931
7.7101607 6.4610667 -0.53854984
6.9959717 6.4620152 -0.5098694
6.3525729 6.4628658 -0.48516294
4.977407 6.4646826 -0.43679908
4.0503659 6.4659057 -0.40847343
3.3819139 6.3829956 -0.38672286
3.2367821 6.4824643 -0.38790748
3.0437646 6.4827185 -0.38341498
2.6703124 6.4832067 -0.37537795
2.4891846 6.4834423 -0.3718054
2.1365869 6.4839039 -0.36548758
1.964541 6.4841285 -0.36272231
1.6276709 6.4845667 -0.35793227
1.2988135 6.4849949 -0.35408005
1.1368408 6.4852047 -0.3524906
0.97622067 6.4854126 -0.35111815
0.81674314 6.48562 -0.34996054
0.18653809 6.486434 -0.34740585
0.02996582 6.4866366 -0.34727669
-0.12657714 6.4868383 -0.34735024
-0.44032225 6.4872422 -0.34810379
-0.59788573 6.4874449 -0.3487882
-0.91535157 6.4878516 -0.35077775
-1.2372119 6.4882641 -0.35361922
-1.5448828 6.4048715 -0.35272917
-1.876206 6.4052939 -0.35732636
-1.994204 6.2453928 -0.35099036
-2.1603124 6.2416673 -0.35360777
-2.3290088 6.2378831 -0.35647398
-2.6752489 6.2301159 -0.36299133
-2.8805323 6.2853894 -0.37015417
-3.2518749 6.2770581 -0.37847176
-3.6218407 6.2349901 -0.3860321
-4.9269137 6.2057114 -0.42421049
-5.198945 6.2333789 -0.43455091
-5.4542675 6.2276487 -0.44320258
-6.2540426 6.17594 -0.47055954
-6.887866 6.1746716 -0.49523535
-7.6012254 6.1794834 -0.52445424
-12.776884 6.0352111 -0.75650662
-13.638301 6.0440369 -0.79864019
