# .PCD v0.7 - Point Cloud Data file format
VERSION 0.7
FIELDS x y z
SIZE 4 4 4
TYPE F F F
COUNT 1 1 1
WIDTH 1515
HEIGHT 1
VIEWPOINT 0 0 0 1 0 0 0
POINTS 1515
DATA ascii
-3.0978515 6.4295216 0.42239639
-3.6940038 6.4312801 0.438954
-3.9036522 6.4318991 0.44529554
-4.1195703 6.4325366 0.45209
-5.581655 6.4368601 0.50424635
-5.8603272 6.4376864 0.51523775
-6.1515675 6.4385486 0.52703279
-6.7769628 6.4404016 0.55332673
-7.1140723 6.4414001 0.56799531
-7.3915329 6.37499 0.57769883
-7.7339306 6.3515158 0.59230924
-8.2350292 6.4367957 0.61861157
-8.659297 6.4380541 0.6386258
-9.1121826 6.4393992 0.66037565
-10.118887 6.4423885 0.7099641
-11.292006 6.4458728 0.76953888
-12.633257 6.4244065 0.83882171
-24.057142 -6.8499942 1.4804147
-24.341064 -7.5701537 1.5086883
-24.530161 -8.2829924 1.532352
-7.8151412 -7.426084 0.6380533
-7.5022802 -7.8512759 0.64271164
-7.3488326 -8.0718355 0.64606583
-6.9141941 -7.9725623 0.62458283
-6.6512742 -8.0539618 0.61820829
0.82791013 -7.7963805 0.46399915
3.4357128 -22.1269 1.3252718
4.4473338 -21.68413 1.3100876
6.1116405 -21.689051 1.3336557
7.2525487 -21.673859 1.3526794
9.0438375 -21.675276 1.3900393
9.6643353 -21.675766 1.4046212
10.95041 -21.683197 1.4376898
13.000478 -21.686733 1.4964871
14.467734 -21.688776 1.5430368
15.237021 -21.689848 1.5688092
16.031075 -21.688437 1.5962186
16.857216 -21.691332 1.6258935
17.715223 -21.694336 1.6576791
20.507891 -21.700884 1.7671472
9.8081055 -8.5531807 0.77021331
9.4473829 -7.8455787 0.72681123
10.017118 -7.9183383 0.75572187
10.234726 -7.6966081 0.75790936
26.835155 -7.8015924 1.6539931
8.7095509 6.400979 0.63971359
8.1671581 6.3113341 0.61088133
6.8084469 6.3990479 0.55299819
6.4884176 6.399972 0.53939205
5.8926072 6.4016929 0.51495683
4.6057811 6.405416 0.46693128
4.3757811 6.4060826 0.45915008
3.7278807 6.4079599 0.43876252
3.3256836 6.4091244 0.42734894
3.0892479 6.3220105 0.41644895
2.9027245 6.3225498 0.41175047
2.5431542 6.3276038 0.40361267
2.3975196 6.4078135 0.40492141
2.2230175 6.40832 0.40144715
1.8823632 6.4093113 0.3953546
1.551123 6.4102769 0.39033964
1.3884569 6.4107504 0.38821501
1.2274414 6.4112206 0.38633788
0.59597653 6.4130626 0.38119093
0.44028318 6.413518 0.38047606
0.1301953 6.4144235 0.37971434
-0.024570312 6.4148765 0.37966475
-0.48987302 6.4162402 0.38084778
-1.1195313 6.4180856 0.38558808
-1.605498 6.4195127 0.39163956
-1.7712109 6.4199986 0.39416167
-2.8242481 6.4287157 0.41557997
-3.0115428 6.4292674 0.42019087
-3.2031641 6.4298325 0.42515516
-3.3994627 6.4304099 0.43049163
-3.6008885 6.4310055 0.436221
-3.8078711 6.4316173 0.4423674
-4.0208788 6.4322457 0.44895187
-4.240449 6.4328928 0.45600554
-4.4671874 6.4335656 0.46355894
-5.1968603 6.4357214 0.48957688
-6.01791 6.4381518 0.52158278
-7.5631394 6.3510108 0.58451581
-7.9560447 6.3601036 0.60284287
-8.4636135 6.4374728 0.62934965
-8.9031057 6.4387779 0.65028942
-9.3731594 6.4401746 0.67307585
-9.8776417 6.4416723 0.69793808
-12.345576 6.4490037 0.8243556
-25.657475 -7.003262 1.5740869
-24.374096 -7.289072 1.5057031
-7.5735788 -7.7543015 0.64151776
-6.7697949 -8.0172491 0.62103653
2.0616405 -29.097967 1.726478
0.93091792 -7.7871189 0.46416092
3.7042284 -21.943588 1.3171005
4.7428317 -21.669086 1.3128427
5.2906737 -21.656963 1.319458
7.5719333 -21.67411 1.3588085
8.1638861 -21.67458 1.3707888
10.012109 -21.682314 1.4134774
10.654287 -21.682919 1.4298587
11.986318 -21.684177 1.4663982
12.679033 -21.684832 1.4867028
13.392724 -21.687281 1.508579
14.127148 -21.688301 1.5319189
14.885127 -21.68936 1.5569077
15.668691 -21.690449 1.5836825
18.19874 -21.69603 1.6760025
19.111279 -21.698637 1.7113284
20.062578 -21.700165 1.7491171
9.7868938 -8.3100224 0.75987488
9.7699995 -7.898129 0.74355054
10.135899 -7.7972698 0.75685972
10.354375 -7.5749044 0.75930494
18.215937 -8.0144558 1.177781
26.078457 -8.5838099 1.6249145
8.9113674 6.4003978 0.64935744
8.4739838 6.401659 0.62855709
7.9490623 6.3119626 0.60075212
7.3038769 6.3976183 0.57465971
6.9589257 6.3986144 0.55950451
6.3199997 6.4004588 0.53236037
6.0229101 6.4013171 0.52019364
5.4668751 6.4029245 0.49829254
5.2057519 6.4036789 0.48843369
4.4790916 6.4057837 0.462612
4.2532029 6.4064379 0.4551152
3.8221092 6.4076867 0.44157943
3.6158104 6.4082847 0.4354814
3.4150097 6.4088669 0.42979568
3.2192676 6.4094348 0.42450118
2.9867578 6.3223071 0.41383988
2.8025 6.3228431 0.40932783
2.4597754 6.3613462 0.40366408
2.3017578 6.408092 0.40298492
1.9586718 6.4090905 0.39663893
1.4619726 6.4105368 0.38914809
1.1400489 6.4114742 0.38541412
0.98122066 6.4119382 0.38390639
0.82351559 6.4123983 0.38263321
0.66677731 6.4128551 0.38158873
-0.57509762 6.4164891 0.38128036
-0.7315625 6.4169483 0.38224593
-1.3681738 6.418817 0.38843003
-1.6958203 6.4197779 0.39298537
-1.8627343 6.4202685 0.39565229
-2.0320313 6.4207664 0.39858872
-2.3477051 6.3379002 0.40001479
-2.5233886 6.338418 0.40377226
-2.7024999 6.3389463 0.4078427
-3.5089257 6.4307346 0.43357405
-3.7133105 6.4313378 0.43952742
-3.9235253 6.4319577 0.44591063
-4.8333983 6.4346471 0.47630522
-5.3389549 6.4361439 0.49492216
-5.6071582 6.4369373 0.50523895
-6.1794286 6.4386315 0.5281775
-6.8076901 6.4404931 0.55464965
-7.1464696 6.4414964 0.56942135
-7.3967676 6.3505149 0.57698941
-9.1560545 6.4395299 0.66250306
-9.6444044 6.440979 0.68639326
-12.021519 6.4480395 0.80737758
-24.113651 -6.9248219 1.4848483
-24.49037 -7.6771173 1.5190051
-23.120541 -8.4926405 1.4577792
-7.4875684 -7.871284 0.64296949
3.9795897 -21.817837 1.3125931
4.496963 -21.678139 1.3103323
5.5980272 -21.671289 1.324717
6.7290134 -21.673447 1.3431418
7.8941894 -21.674364 1.3652319
8.4919729 -21.674839 1.3777664
9.1012011 -21.675322 1.3913506
11.678418 -21.683886 1.4576584
15.310156 -21.689951 1.5713065
16.106943 -21.688704 1.5989059
20.600761 -21.701031 1.770932
9.8044434 -8.5111923 0.76842022
9.558877 -7.9018502 0.73401594
10.037382 -7.8976865 0.75590575
10.255117 -7.6758518 0.75813705
10.474609 -7.4528046 0.76084763
26.483759 -8.3318386 1.6431803
26.455351 -6.9400601 1.6187353
7.4665232 6.3971496 0.58191711
7.1130176 6.3981676 0.56623304
6.7778807 6.3991356 0.55168533
6.4593453 6.4000573 0.53817075
6.1558886 6.4009323 0.52560318
5.8661032 6.4017696 0.51389968
5.3228321 6.4033408 0.49281815
5.0673046 6.4040809 0.48332548
4.8212695 6.4047923 0.47446075
4.3546972 6.4061437 0.45845154
4.1327538 6.406786 0.45122877
3.9175878 6.4074106 0.44448608
3.7086132 6.4080148 0.43819258
3.5053809 6.4086056 0.43232375
3.0716503 6.3220606 0.4159967
2.8855371 6.3225999 0.41132995
2.7034278 6.3231297 0.40700117
2.5266309 6.327651 0.40325239
2.3811035 6.4078612 0.40458494
1.7002343 6.4098411 0.39248443
1.5358593 6.4103222 0.39012998
1.3733495 6.4107947 0.38802949
1.2124902 6.4112644 0.38617536
1.0530664 6.4117284 0.38455978
0.8948828 6.4121909 0.3831816
0.73773438 6.4126487 0.38203382
0.11575195 6.4144664 0.37970001
-0.19382812 6.4153733 0.37986448
-0.34890625 6.4158263 0.38028061
-0.50441402 6.4162817 0.38091782
-0.66052735 6.4167395 0.38177902
-0.8174414 6.4171996 0.38286987
-0.97535151 6.4176636 0.38418913
-1.2949219 6.4185996 0.38753647
-2.1256738 6.4210424 0.40031067
-3.4180467 6.4304662 0.43100998
-3.6199608 6.4310617 0.43677732
-3.8274803 6.4316745 0.44296172
-4.0410938 6.4323044 0.44958922
-4.7239943 6.4343238 0.47242948
-5.2209034 6.4357934 0.4904753
-5.484199 6.4365721 0.50047362
-6.0451951 6.4382334 0.52269101
-6.6597996 6.4400549 0.54830551
-7.3394284 6.4420676 0.57797593
-7.9929881 6.3602133 0.60455871
-8.5033979 6.4375916 0.63122863
-9.4187202 6.4403086 0.67530382
-9.92665 6.4418173 0.70037335
-10.474067 6.4434423 0.72781658
-11.066499 6.4452024 0.75795591
-11.710517 6.4471154 0.791179
-12.632822 6.5628867 0.84254456
-25.627085 -7.0569592 1.5731924
-24.828335 -8.1441793 1.5464981
-7.7154541 -7.5614347 0.63937104
-7.5589256 -7.7742386 0.64175701
-6.962749 -7.5155883 0.60635954
-7.0102291 -7.9428711 0.62700558
-6.7453027 -8.0248327 0.62044585
-18.115532 -23.793461 1.769917
2.0407128 -27.91164 1.6563576
2.773164 -22.762808 1.3571777
4.2618165 -21.737158 1.3110068
5.342988 -21.659401 1.3203405
5.9079394 -21.685738 1.3302448
6.4753222 -21.691191 1.3397878
7.626699 -21.674154 1.3598831
8.823535 -21.675102 1.385061
10.071386 -21.682369 1.414956
10.715 -21.682978 1.4314499
14.196816 -21.6884 1.5341763
16.556328 -21.690277 1.6149786
10.005049 -8.0509615 0.76005799
10.156211 -7.7765837 0.75706786
7.912539 6.3120675 0.5990538
7.6333885 6.3966675 0.5894345
6.9276853 6.3987036 0.55814773
6.2916989 6.4005394 0.53118896
5.9958496 6.4013953 0.51910204
4.9316697 6.4044724 0.47840485
4.690537 6.4051709 0.46986708
4.4576855 6.4058456 0.46189025
4.0143261 6.4071288 0.4474858
3.8026366 6.4077439 0.44099256
3.5968359 6.4083385 0.4349336
3.3965428 6.4089193 0.42928526
3.2012498 6.4094872 0.42402542
2.7855077 6.3228917 0.40892363
2.6071484 6.3274179 0.40502974
2.4599218 6.4045568 0.40605056
1.1251757 6.4115186 0.38526291
0.96643555 6.4119797 0.38377762
0.80885738 6.4124413 0.38252655
0.65217769 6.412899 0.38150284
0.34089842 6.4138074 0.38013473
0.031142578 6.4147143 0.3796576
-0.43384764 6.4160743 0.38060042
-0.74619138 6.4169908 0.38234603
-1.2220019 6.418386 0.38669387
-1.3833008 6.4188609 0.38861999
-1.5463476 6.4193397 0.39079437
-1.711289 6.4198241 0.3932234
-1.8784374 6.4203162 0.39591414
-2.1930859 6.3430624 0.39721924
-2.7193944 6.3389955 0.40823883
-2.9436524 6.4290671 0.41849104
-3.1336424 6.4296274 0.42332566
-3.5277441 6.4307909 0.4341124
-3.9434471 6.4320178 0.44652832
-4.160625 6.4326587 0.45341095
-5.1049609 6.4354501 0.48616561
-5.3635497 6.4362159 0.49585631
-5.9137158 6.4378443 0.51737791
-6.5152731 6.4396253 0.54217237
-6.8385596 6.4405832 0.55598128
-7.1790137 6.4415927 0.5708577
-7.4306445 6.350615 0.57851452
-7.8056102 6.3517294 0.59560347
-8.3121777 6.4370251 0.62222302
-9.200161 6.4396591 0.66464567
-9.6917963 6.4411192 0.68873185
-12.087148 6.4482346 0.81080961
-12.656909 6.3648911 0.83848554
-24.170458 -7.0000415 1.4893121
-23.032227 -8.5191145 1.4534192
-7.9413671 -7.2549095 0.63661361
-7.3509421 -8.1475458 0.64946896
-6.8647165 -7.9878678 0.62335628
-6.6027927 -8.0689907 0.61707485
2.0760741 -24.032671 1.427672
0.85963863 -7.7622442 0.46221787
3.0402246 -22.481005 1.3426477
4.0277829 -21.804062 1.3123044
5.6507516 -21.673748 1.325639
6.782578 -21.673487 1.3440921
7.3613181 -21.673944 1.3547381
7.9495406 -21.674408 1.3663608
9.7844915 -21.682098 1.4078671
11.741465 -21.683945 1.459432
12.42748 -21.684595 1.4792318
13.133652 -21.686918 1.500563
13.860175 -21.687929 1.5233301
14.609355 -21.688974 1.5477115
15.383545 -21.690054 1.5738097
16.182959 -21.688969 1.6016052
10.526045 6.3954978 0.45093659
9.9780664 6.3970861 0.43394744
8.0224705 6.3115478 0.37372375
6.3768454 6.4001145 0.33077696
6.077168 6.4009848 0.32314789
5.7908397 6.4018149 0.31604537
4.5219727 6.4055014 0.28706694
4.0746384 6.4068027 0.2779834
3.8611913 6.407423 0.27388915
3.4520116 6.4086142 0.2665042
2.6554492 6.323132 0.25108871
2.4795604 6.3276525 0.24881867
2.3342872 6.4078598 0.24968566
1.990205 6.4088645 0.2456935
1.8220605 6.4093552 0.24395598
1.656162 6.4098387 0.24238342
1.1698145 6.4112582 0.23860274
1.0107422 6.4117212 0.23764373
0.85286129 6.4121847 0.23682937
0.53985351 6.4130993 0.23562469
-0.23514648 6.4153662 0.23503539
-0.5459668 6.4162755 0.23576064
-0.70226562 6.4167333 0.23633072
-1.3379492 6.4185963 0.2400479
-1.5004785 6.4190731 0.24134949
-1.664873 6.4195542 0.24280715
-2.1501172 6.3575168 0.24571045
-2.3152149 6.3376708 0.24703124
-2.4903026 6.3381858 0.24932235
-3.2732031 6.4298949 0.26415786
-3.8837402 6.4316916 0.27507675
-4.5505662 6.4336534 0.28851303
-4.7880273 6.4343529 0.29364043
-5.0342283 6.4350781 0.29912978
-5.2899609 6.4358325 0.30500975
-5.8336473 6.4374328 0.31806394
-6.123652 6.4382882 0.3253125
-6.4273925 6.4391832 0.33309692
-7.0816402 6.441113 0.35047713
-7.393003 6.4053502 0.35813171
-7.6981492 6.3512096 0.3653836
-8.1965179 6.4364743 0.38155746
-8.6182423 6.4377184 0.39384413
-9.068305 6.4390464 0.40719238
-9.5502291 6.4404688 0.42173156
-10.626977 6.4436483 0.4550105
-11.891425 6.4473825 0.49524215
-12.612256 6.449513 0.51863188
-13.229854 6.3675461 0.53755307
-14.279375 6.4531946 0.57370329
-20.691523 6.4876413 0.79392105
-22.605869 6.4933004 0.86110991
-25.207367 -7.11619 0.95896071
-24.508291 -8.8773403 0.95434779
-7.7322803 -7.3142939 0.38968337
-7.5780711 -7.5229764 0.39094666
-7.2686033 -8.3432055 0.40512329
-6.6065183 -7.9631805 0.37881911
1.960459 -24.633244 0.90472275
2.903789 -22.621241 0.83500153
3.3892088 -22.156313 0.82061887
4.3990917 -21.697016 0.81053036
4.9387989 -21.661852 0.81343335
5.4929099 -21.666672 0.81835389
6.0589161 -21.688877 0.82447368
7.1983299 -21.673794 0.83613831
7.7838082 -21.674259 0.84315598
8.9865818 -21.675209 0.85907453
10.241474 -21.682285 0.87793303
11.552529 -21.683516 0.8995207
12.934248 -21.686821 0.92448759
13.654638 -21.687826 0.93830168
15.164277 -21.689934 0.968943
15.956357 -21.689325 0.98582959
17.634697 -21.695248 1.023605
18.52413 -21.698389 1.0445405
20.416094 -21.701359 1.090866
26.425859 -8.4445429 1.0156997
26.730488 -7.8364925 1.019846
27.87711 -7.4473252 1.0564265
14.473847 6.3670444 0.57892269
12.074941 6.3910093 0.50019026
10.22127 6.3963804 0.44145447
8.7503223 6.4006443 0.39692536
7.8182321 6.3195558 0.3680571
6.5174413 6.3997059 0.33441877
6.2112889 6.4005957 0.32653931
5.6395116 6.4022555 0.31236678
5.3715329 6.4030347 0.30599257
4.3968163 6.4058652 0.2844606
4.1735644 6.4065146 0.279935
3.3438964 6.4089293 0.26466095
2.9198925 6.3223619 0.25496903
2.559629 6.3274207 0.24989517
2.4139061 6.407629 0.25068924
2.2391307 6.4081383 0.24852432
1.8979784 6.409133 0.24472305
1.5663671 6.4101009 0.24159043
1.4035254 6.4105759 0.24026291
1.242373 6.411047 0.23908721
1.082705 6.4115124 0.23806044
0.92429686 6.4119763 0.23718093
0.76697266 6.4124341 0.2364447
0.61053711 6.4128928 0.23584914
0.45478514 6.4133482 0.23539443
0.29955077 6.4138012 0.2350772
0.14464843 6.4142542 0.234897
-0.010126953 6.4147058 0.23485351
-0.1649121 6.4151597 0.23494843
-0.31993163 6.4156137 0.23517913
-0.47532225 6.4160681 0.23554839
-1.2648242 6.4183798 0.23950866
-1.426582 6.4188561 0.24074034
-1.9233496 6.4203124 0.24538116
-2.0935645 6.4208126 0.2472589
-2.238867 6.3430624 0.24627334
-2.5874023 6.338469 0.25065306
-2.7678418 6.3389988 0.25324142
-3.7882128 6.4314098 0.27327698
-4.0006347 6.432035 0.27732438
-4.2195702 6.4326792 0.28165999
-4.9214845 6.4347458 0.29659423
-5.9905567 6.4378953 0.32196319
-6.2879248 6.4387732 0.32949829
-7.5282907 6.350708 0.36060348
-8.4237356 6.4371433 0.38814789
-8.8605413 6.4384327 0.40100113
-9.8286037 6.4412913 0.43023559
-11.585556 6.4464808 0.48541105
-12.277202 6.448524 0.50772202
-13.870459 6.4519873 0.56007475
-15.838901 6.4578037 0.62623948
-18.101645 6.3806992 0.7027055
-19.918457 6.4853549 0.76693463
-21.699413 6.4906211 0.82923704
-23.486176 6.4121127 0.89134461
-24.940233 -7.3972349 0.9524284
-24.355654 -7.8678207 0.93708009
-23.359789 -8.1734648 0.90608531
-7.6480908 -7.4281921 0.39034423
-7.4933543 -7.6376958 0.39173797
-7.310576 -7.8201146 0.39193496
-19.704609 -22.124498 1.0847024
-6.4666648 -8.0071793 0.37682328
-18.144638 -23.610329 1.0901952
0.91062498 -7.7655516 0.28625733
4.165381 -21.763828 0.81127989
6.3689356 -21.690702 0.82766509
9.323554 -21.675476 0.86389649
10.593594 -21.682617 0.88352752
11.249707 -21.683231 0.89434993
11.92249 -21.683865 0.90597808
13.32541 -21.687368 0.93192196
14.057744 -21.688389 0.9462651
15.594541 -21.690536 0.97808224
17.243027 -21.693867 1.0145828
19.025097 -21.699104 1.0565627
9.6983595 -7.876369 0.45742279
10.019062 -7.7433438 0.46360305
18.208984 -8.0603704 0.72906125
26.829414 -8.1851492 1.0269749
26.495693 -7.3896475 1.0070817
14.911318 6.3657775 0.59359819
13.974189 6.3684912 0.56224698
11.701133 6.3920932 0.48815674
7.9855371 6.3116541 0.37266752
6.3482614 6.4001975 0.33004072
5.4916501 6.4026842 0.30882797
4.9775586 6.4041772 0.29696137
4.7347751 6.4048839 0.29161102
4.5004492 6.4055638 0.2866165
4.2738867 6.4062228 0.28194916
4.0544629 6.4068613 0.27759019
3.8415723 6.4074802 0.27352187
3.4334471 6.408668 0.26618376
2.4631543 6.3277011 0.24860199
2.1448145 6.4084129 0.24741577
1.9744042 6.4089098 0.24552414
1.8064843 6.4094005 0.24380217
1.6407909 6.409884 0.24224487
1.1549219 6.4113026 0.23850769
0.36987305 6.4135947 0.23520324
0.21483397 6.4140501 0.2349623
0.060029294 6.4145017 0.23485717
-0.4048242 6.4158616 0.23536345
-0.56052732 6.4163184 0.23580718
-1.0324512 6.4177012 0.23798537
-1.3530371 6.4186401 0.24016266
-1.5157422 6.4191175 0.24147919
-1.6803125 6.4196005 0.24295196
-1.8470215 6.4200888 0.2445848
-2.3314159 6.3377185 0.24723831
-2.5067968 6.3382335 0.24954513
-3.0977831 6.4293799 0.26129028
-3.2914746 6.4299488 0.26446396
-3.9035645 6.4317493 0.2754544
-4.3422165 6.4330406 0.28415847
-4.5723729 6.4337168 0.28897765
-4.8106251 6.4344201 0.29413742
-5.0576854 6.4351463 0.2996617
-5.3143454 6.4359031 0.30557951
-5.5815086 6.4366903 0.31192046
-7.113862 6.4412069 0.35135451
-7.3930907 6.3763366 0.35744017
-8.2347651 6.4365854 0.38266203
-8.6589985 6.4378381 0.39504135
-9.1118698 6.4391747 0.40849671
-9.5969677 6.4406066 0.42315352
-10.118505 6.4421473 0.43916747
-12.635522 6.4255662 0.51899457
-14.366025 6.4534497 0.5765999
-15.352968 6.456367 0.60978043
-17.715776 6.4633508 0.69042784
-19.196215 6.4832201 0.74181348
-20.857431 6.488132 0.7997247
-25.169302 -7.1666665 0.95812559
-24.231581 -7.5361037 0.92907989
-7.7179294 -7.3337088 0.38979188
-7.5636277 -7.5425329 0.39107743
-20.066607 -22.040846 1.0913
-6.5825243 -7.9707108 0.37847075
-18.287079 -23.264618 1.0834019
0.82756835 -7.7932467 0.28690964
3.4353905 -22.124781 0.81973755
5.5454783 -21.669121 0.81891555
7.2525387 -21.673838 0.83676893
7.8389645 -21.674301 0.84384352
9.6643457 -21.675745 0.86889631
10.301279 -21.682341 0.87887114
10.950283 -21.682949 0.88934505
12.297861 -21.684217 0.91268611
14.467852 -21.688965 0.95453244
16.031942 -21.689594 0.98747802
16.858154 -21.692509 1.0058343
17.716211 -21.695538 1.0255023
9.6377831 -8.4046392 0.46818176
9.7691307 -8.1127663 0.46491805
9.9216309 -7.8428597 0.46303526
10.136894 -7.623034 0.4643614
27.929922 -7.3940983 1.0577953
15.371631 6.3644443 0.6091159
11.344775 6.3931251 0.47676605
10.734004 6.3948951 0.45744872
8.7092676 6.400764 0.39571396
8.166894 6.3111277 0.37788206
7.5003028 6.3968539 0.3609094
7.14499 6.3978858 0.35113814
6.8082418 6.3988624 0.3420755
5.8924508 6.4015207 0.31854492
5.6140232 6.4023304 0.31175414
5.3470702 6.4031043 0.30541992
5.0906053 6.4038501 0.29950944
4.84374 6.4045677 0.29399261
4.6056638 6.4052601 0.28883818
4.3756738 6.4059277 0.2840248
2.9026659 6.322412 0.25470549
2.7202148 6.3229432 0.25200987
2.3974707 6.4076767 0.2504805
2.0513475 6.4086862 0.24636139
1.8823242 6.4091797 0.24456283
1.3884277 6.4106197 0.24014664
1.2274023 6.4110899 0.23898453
1.0678613 6.4115548 0.23797195
0.75233394 6.412478 0.23638244
0.44027343 6.4133897 0.23535888
0.28507811 6.4138427 0.2350537
0.13018554 6.4142966 0.23488739
-0.024570312 6.4147482 0.23485778
-0.17937499 6.4152026 0.23496383
-0.33441406 6.4156551 0.23520797
-0.48987302 6.4161119 0.2355893
-0.64591795 6.4165683 0.23610961
-0.96054685 6.4174914 0.23757309
-1.2798535 6.4184241 0.23961654
-1.4417578 6.4189014 0.24086288
-1.7711718 6.4198666 0.24382462
-1.9391406 6.4203601 0.2455484
-2.4268944 6.3379993 0.24847518
-2.6040916 6.3385191 0.25088593
-3.2030859 6.4296885 0.26299697
-3.8077831 6.4314671 0.27364257
-4.4670801 6.4334083 0.28675187
-6.0177488 6.4379773 0.3226445
-6.316401 6.4388571 0.33022934
-7.5629001 6.3508105 0.36157134
-7.9557858 6.3599 0.37290922
-8.4633245 6.4372606 0.38930252
-9.372817 6.4399447 0.41635099
-11.008677 6.4447751 0.46703765
-11.647529 6.4466639 0.48739958
-12.345044 6.4487243 0.50992644
-12.936743 6.3654356 0.5278697
-14.891846 6.4550047 0.59423596
-21.880428 6.4911556 0.83559251
-23.698299 6.4127402 0.89884597
-24.902109 -7.4469757 0.95160705
-24.259745 -7.8972135 0.93407041
-24.504126 -8.6358461 0.95122373
-7.6336961 -7.4476781 0.39046308
-7.4788718 -7.6573267 0.39188185
-7.2884812 -7.8317404 0.39169264
-6.6994967 -7.9340043 0.38018677
2.0566308 -29.027191 1.0654045
2.248662 -23.634499 0.86921203
0.93121094 -7.7895713 0.28722212
5.2907519 -21.657251 0.81623214
7.5719237 -21.674091 0.84055817
8.7667084 -21.675034 0.85601455
11.311757 -21.68329 0.89540315
12.678886 -21.684574 0.91965729
14.885254 -21.689545 0.96311641
17.323114 -21.694149 1.0164191
19.111816 -21.699244 1.0586609
20.063135 -21.700787 1.0820404
9.7581348 -7.8885436 0.45940444
10.255254 -7.502387 0.46521193
18.212334 -8.0128698 0.72838223
14.819472 6.3660421 0.59051251
12.947803 6.3182678 0.52746779
9.3786325 6.3988242 0.41567597
8.9110641 6.4001794 0.40167966
8.4737005 6.4014487 0.38881347
7.9488082 6.3117614 0.37161604
7.6680079 6.3963685 0.36559004
6.3198242 6.4002805 0.3293103
5.73875 6.4019666 0.31477371
5.4667382 6.4027562 0.30823624
5.2056251 6.4035153 0.30213836
4.9545212 6.4042454 0.29644591
4.7125583 6.4049487 0.29113051
4.4789743 6.4056273 0.28616577
4.2531052 6.4062839 0.28152862
4.0343065 6.4069214 0.27719849
3.8220313 6.4075389 0.27315536
3.6157324 6.4081368 0.26938385
3.4149315 6.4087229 0.26586714
2.9866893 6.3221664 0.25599518
2.6234179 6.3264976 0.2507515
2.4586718 6.3584847 0.24959411
1.9586328 6.4089561 0.24535568
1.7909276 6.4094458 0.2436502
1.3002148 6.4108777 0.23949218
1.1400293 6.411345 0.23841308
0.51077145 6.4131846 0.23554198
0.20038086 6.4140916 0.23494674
0.045585938 6.4145432 0.23485443
-0.10917968 6.4149976 0.23489913
-0.26410156 6.4154501 0.23508056
-0.73154294 6.4168186 0.23645355
-0.88887691 6.4172802 0.23719101
-1.0472949 6.4177442 0.23807418
-1.3681445 6.418684 0.24027954
-1.695791 6.4196458 0.24309601
-1.8626952 6.4201355 0.24474594
-2.0319922 6.4206324 0.24656235
-2.1770508 6.3428807 0.24552368
-2.3476562 6.3377662 0.24744521
-2.52333 6.3382812 0.24977019
-2.7024512 6.3388085 0.25228867
-2.9260645 6.4288745 0.25860655
-3.3097949 6.4300022 0.26477173
-3.7132225 6.43119 0.27188566
-3.9234374 6.4318066 0.27583435
-4.1399608 6.432445 0.28006485
-4.363369 6.4331017 0.28459334
-4.8332911 6.4344859 0.29463652
-5.0812058 6.4352169 0.30019653
-5.3388181 6.4359751 0.30615205
-5.8867869 6.4375892 0.3193785
-6.4856982 6.4393554 0.3346135
-6.8074851 6.4403052 0.34309798
-7.7694235 6.3514209 0.3674092
-8.273242 6.4367003 0.38377562
-8.7000093 6.4379587 0.39625198
-10.169213 6.442297 0.44073731
-11.351157 6.4457884 0.47791746
-12.021015 6.4477658 0.49942458
-13.559292 6.4510655 0.54975325
-14.453609 6.4537096 0.57953125
-15.450928 6.4566565 0.61309403
-16.571571 6.4599667 0.65118653
-17.841499 6.4637218 0.69475615
-19.341068 6.4836497 0.7468425
-25.131308 -7.217061 0.95729584
-24.289507 -7.6141543 0.93195313
-7.5491796 -7.5620904 0.39120972
-19.985205 -22.050932 1.0895672
-18.255703 -23.332636 1.0846546
0.84258789 -7.7679949 0.28606871
2.9946191 -22.525398 0.83195204
4.496963 -21.678122 0.81057602
5.0406251 -21.658106 0.81414032
9.1011915 -21.675301 0.86069286
9.7229195 -21.675791 0.86977142
11.01166 -21.683008 0.89036393
13.791543 -21.688017 0.9409889
14.538603 -21.689062 0.95597243
15.310303 -21.690142 0.97201782
16.107792 -21.689863 0.98913783
16.936855 -21.692787 1.0076181
17.798037 -21.695826 1.0274075
18.694218 -21.698988 1.0485951
19.626728 -21.700081 1.0712395
9.7683392 -8.0750046 0.46401337
9.9416695 -7.8223877 0.46314725
27.106834 -7.8144827 1.0328528
13.249003 6.286799 0.53691071
12.666748 6.3892956 0.51941299
10.120146 6.3966746 0.43832564
9.6016111 6.3981771 0.42243239
9.1191015 6.3995762 0.40787855
8.6684961 6.4008822 0.39451462
8.12918 6.3112378 0.37679258
7.7468944 6.3197632 0.3660295
7.4662986 6.3969517 0.35996535
6.7776952 6.3989501 0.34126434
6.4591699 6.3998752 0.33290482
6.1557126 6.4007568 0.32513016
5.8659372 6.401598 0.31789076
5.3226953 6.4031763 0.30485106
5.0671778 6.4039183 0.29897872
4.1326661 6.4066334 0.27912444
3.9175 6.4072604 0.2749539
3.5053027 6.4084592 0.26743057
3.0715821 6.3219199 0.25732985
2.8854687 6.3224621 0.25444472
2.5265722 6.327517 0.249449
2.035459 6.4087329 0.24618545
1.8666601 6.4092245 0.24440277
1.7002051 6.4097095 0.24278671
1.3733203 6.4106641 0.24003127
1.2124707 6.4111338 0.2388832
0.89485347 6.4120626 0.23703262
0.73771483 6.4125195 0.23632187
0.58142579 6.4129772 0.23575409
0.42578125 6.4134312 0.23532455
0.27061522 6.4138842 0.23503311
-0.039003905 6.4147911 0.2348613
-0.34890625 6.4156981 0.23523727
-0.50440431 6.4161534 0.23563109
-0.66051757 6.4166098 0.23616531
-0.81742185 6.4170704 0.23683974
-1.1344239 6.4179993 0.23861724
-1.4569628 6.4189453 0.2409877
-1.6208398 6.419425 0.24240355
-1.7867481 6.4199133 0.24397826
-1.9549316 6.4204049 0.24571747
-2.2710741 6.3431578 0.24667068
-3.0291796 6.4291773 0.26020294
-4.0409961 6.4321532 0.2781111
-4.723877 6.4341636 0.292238
-4.9676657 6.4348826 0.29762954
-5.4840527 6.4364038 0.30958572
-6.3449707 6.4389415 0.33096603
-7.3392038 6.4418726 0.35752684
-7.5976758 6.350914 0.36254638
-8.9452925 6.438684 0.40352094
-9.4183884 6.4400806 0.4177295
-10.473672 6.4431944 0.45021102
-11.066059 6.4449449 0.46885374
-14.036474 6.4524765 0.56560028
-16.046753 6.4584179 0.63330048
-18.367319 6.3814855 0.71189332
-20.23036 6.486279 0.77781063
-24.864092 -7.4965906 0.95079786
-24.505199 -8.6983118 0.95202434
-7.2664013 -7.8433561 0.39145523
-7.2661862 -8.232872 0.40202621
-18.119633 -23.798857 1.0951214
2.0359473 -27.846561 1.0222404
2.2926855 -23.535147 0.8657487
2.772754 -22.759472 0.83942825
3.2569726 -22.248606 0.82324749
4.2616405 -21.736303 0.8109616
4.7936325 -21.6672 0.81246108
5.9080176 -21.686022 0.82290339
6.4753613 -21.69133 0.82879972
7.626699 -21.674135 0.84122646
8.823535 -21.675079 0.8568005
9.4395018 -21.675566 0.86558789
10.714872 -21.68273 0.88548809
11.373936 -21.68335 0.89645827
12.050058 -21.683985 0.90824491
12.744463 -21.684635 0.92089081
13.460449 -21.687555 0.93452591
14.196943 -21.688583 0.94904995
14.957275 -21.689646 0.96461117
16.557226 -21.691448 0.99908173
17.403418 -21.694433 1.0182629
18.283428 -21.697538 1.0388144
19.198809 -21.699385 1.0607736
9.6503315 -8.5642586 0.4723857
9.8444433 -7.9217229 0.46262571
10.059228 -7.7023273 0.46385086
10.275517 -7.4817481 0.46536481
18.256142 -7.983078 0.72950208
26.023438 -8.5008106 1.0023155
26.803358 -8.0454855 1.0245782
27.727011 -7.5986261 1.0525719
14.728544 6.3663058 0.58745909
12.94791 6.3544626 0.52805966
12.264043 6.3904624 0.506311
11.577559 6.3924508 0.48419723
10.948095 6.3942747 0.46418852
10.36834 6.3959556 0.44602019
9.8318844 6.397511 0.42946014
8.8690138 6.4003015 0.40043259
7.6331539 6.3964696 0.36461395
7.2706542 6.3975205 0.35456985
6.6015916 6.3994617 0.33661833
6.291533 6.4003611 0.32858595
5.7129002 6.402041 0.31414428
5.1818066 6.403585 0.30159149
4.6904297 6.4050121 0.29065275
4.2324119 6.4063439 0.2811119
3.3964648 6.4087753 0.2655516
2.7854493 6.3227525 0.25295591
2.285459 6.4080029 0.2490834
2.1128125 6.4085069 0.24704926
1.9428711 6.4090014 0.24519011
1.4467773 6.4104505 0.2406012
1.2851856 6.4109216 0.23938537
1.1251465 6.4113889 0.23832016
0.96642578 6.4118519 0.23740096
0.80884767 6.412313 0.23662673
0.65216798 6.4127707 0.23599441
0.49626952 6.4132261 0.23550124
0.34088868 6.4136791 0.23514755
-0.12361328 6.41504 0.23491028
-0.27856445 6.4154916 0.23510467
-1.3832715 6.4187303 0.24039643
-1.5463085 6.4192066 0.24174255
-2.0479004 6.4206786 0.24674027
-2.3639061 6.3378134 0.24765426
-2.5399022 6.3383298 0.24999633
-2.943584 6.4289255 0.25887451
-3.3281641 6.430057 0.26508194
-3.7325976 6.4312463 0.27224395
-4.3845801 6.4331641 0.28503403
-6.8383594 6.4403954 0.34392104
-7.1787987 6.4414001 0.35312393
-7.4304199 6.35042 0.35785887
-7.8053613 6.3515267 0.36843368
-8.311904 6.4368138 0.38489577
-8.7412691 6.4380808 0.39746886
-9.6914454 6.440886 0.42603621
-10.791548 6.4441357 0.46018308
-11.411181 6.4459653 0.47983259
-15.549951 6.4569483 0.61644375
-16.683231 6.4603 0.65500075
-21.196791 6.4891357 0.81160915
-23.618534 -8.0938015 0.91408539
-7.689209 -7.37256 0.39001343
-7.3739061 -7.7867966 0.39263365
-19.908588 -22.066059 1.0880946
3.0397949 -22.477753 0.83044434
3.5274413 -22.061947 0.81798977
5.0916796 -21.656225 0.81449723
5.6508298 -21.674032 0.82005429
6.2174511 -21.689812 0.82609373
7.9495311 -21.674389 0.84523159
9.1586819 -21.675346 0.86151105
11.741338 -21.683693 0.90279704
12.427334 -21.684338 0.91503876
13.133769 -21.687099 0.92825973
13.860292 -21.688114 0.94234389
14.609482 -21.689159 0.9574272
16.183828 -21.690128 0.99081069
17.015869 -21.693066 1.0094038
17.880087 -21.696117 1.0293217
18.779266 -21.698706 1.0506409
9.9776955 6.3968515 0.16683303
8.9956446 6.399714 0.15539825
8.0222073 6.3113451 0.14368317
7.3699121 6.397037 0.13736862
6.6910152 6.3990183 0.13032074
5.7906737 6.4016452 0.12150711
5.0005469 6.4039502 0.11436844
4.7569432 6.4046607 0.11229873
4.5218654 6.4053464 0.11036605
3.8610938 6.4072752 0.10529938
3.6537108 6.4078808 0.10383041
3.4519336 6.4084692 0.10246078
2.8364747 6.3224669 0.097542875
2.6554003 6.3229957 0.09653274
2.479502 6.327517 0.095661469
1.4922851 6.4101853 0.092643738
1.3302441 6.4106588 0.092160031
1.0107226 6.411593 0.091365047
0.53984374 6.412971 0.090589143
0.2292871 6.4138794 0.090340726
0.074472651 6.414331 0.090295106
-0.080283202 6.414784 0.09030243
-0.23513672 6.4152379 0.090361938
-0.39032227 6.4156909 0.090474702
-0.54595703 6.4161472 0.090641171
-0.85941404 6.4170642 0.091133572
-1.0176075 6.4175267 0.091463007
-1.33792 6.4184656 0.092288814
-1.6648437 6.4194236 0.093350217
-2.316211 6.3403854 0.095016629
-3.0798829 6.4291844 0.10034592
-3.2731347 6.4297509 0.10155807
-3.471211 6.4303317 0.10285995
-3.6745703 6.4309287 0.10425781
-4.7879004 6.4341917 0.11289352
-5.0340915 6.4349146 0.11500274
-5.289824 6.4356651 0.11726471
-5.5559616 6.4364452 0.11968597
-6.1234913 6.4381104 0.12506972
-7.0814304 6.4409227 0.1347435
-7.3945651 6.4067039 0.13772202
-7.6979151 6.3510108 0.14048004
-8.19625 6.4362659 0.14669189
-8.6179543 6.4375024 0.15141617
-9.0679884 6.4388242 0.15654723
-9.5498877 6.440239 0.16213699
-10.067788 6.4417591 0.16824158
-12.611694 6.4492297 0.19938751
-13.229238 6.3672519 0.20666306
-14.278676 6.4528794 0.22056167
-15.255282 6.4557481 0.23317198
-16.35104 6.4589658 0.2474678
-22.604239 6.4928284 0.33104354
-7.4848437 -7.4304256 0.14845687
2.9033594 -22.617954 0.32098693
3.3888867 -22.1542 0.31547347
3.8827832 -21.843706 0.3122949
5.4929686 -21.666958 0.3146356
6.6279688 -21.692366 0.31928009
7.7837987 -21.674238 0.32416701
8.3795605 -21.674707 0.32710478
8.9865723 -21.675188 0.33028564
9.6058693 -21.675678 0.33373335
10.241357 -21.682041 0.33753312
10.888926 -21.682646 0.34153336
11.552402 -21.683266 0.34583282
12.233222 -21.683901 0.35044709
13.654756 -21.688007 0.36075011
15.164404 -21.690125 0.37253174
16.780653 -21.693407 0.38605544
17.635674 -21.696447 0.39356369
20.41667 -21.701982 0.41941452
10.021142 -7.5713644 0.17679413
26.751825 -8.5487137 0.39532256
28.148506 6.336853 0.40613875
25.318407 6.345099 0.36740646
21.036425 6.364758 0.3093695
16.586914 6.3605723 0.25005859
15.468545 6.3638306 0.23544495
13.40291 6.2860594 0.20838073
12.808456 6.3885999 0.20147628
11.403994 6.3926926 0.18402511
10.788515 6.3944874 0.17653199
9.6951656 6.3976755 0.16350509
8.2046089 6.3108115 0.14570542
7.5342574 6.3965597 0.13911895
6.8387499 6.3985863 0.13182877
6.5172558 6.3995237 0.12857024
5.9188867 6.4012704 0.12272018
5.3713865 6.4028673 0.1176416
4.8662791 6.4043407 0.11321991
4.396709 6.4057117 0.10936279
3.9570799 6.4069943 0.10599975
3.7470214 6.4076071 0.10448379
2.9198241 6.3222227 0.098024137
2.5595801 6.3272839 0.096073456
2.2390916 6.4080038 0.095547333
1.8979492 6.4089999 0.094086915
1.2423437 6.4109154 0.091919094
1.0826758 6.4113827 0.091525264
0.92428708 6.4118466 0.091187134
0.76695311 6.4123058 0.090903625
0.61052734 6.4127645 0.090674587
0.45476562 6.413219 0.090499416
0.14463867 6.4141259 0.090308838
-0.010117187 6.4145789 0.090293117
-0.47532225 6.4159398 0.090558924
-0.63130856 6.4163976 0.090754852
-1.1045996 6.4177833 0.091665953
-1.5900781 6.4192028 0.09308853
-1.9233105 6.4201794 0.09433914
-2.0935156 6.4206796 0.095061183
-2.4104686 6.3378148 0.095446162
-2.5873535 6.3383336 0.096367031
-3.1849511 6.4294934 0.10099823
-3.3807909 6.4300656 0.10225921
-3.5816991 6.4306564 0.10361236
-3.7881248 6.4312611 0.10506439
-4.9213572 6.4345837 0.11402863
-5.43396 6.4360876 0.11856781
-5.9904003 6.4377208 0.12378067
-6.927207 6.4404697 0.13314117
-7.5280566 6.3505125 0.13863219
-7.9187694 6.3595886 0.14295837
-9.3272266 6.4395847 0.15954314
-10.367837 6.4426413 0.17182022
-10.951338 6.4443541 0.17886184
-11.585078 6.4462147 0.18661712
-12.276665 6.4482455 0.19519562
-12.862524 6.3649302 0.20201141
-13.869785 6.4516783 0.2153215
-14.799047 6.4544077 0.22726302
-15.838071 6.4574594 0.24075851
-17.008984 6.4608994 0.25610992
-19.917158 6.4849339 0.29484299
-24.661274 -7.314497 0.36208174
-19.705692 -22.1257 0.41705856
-18.148726 -23.615648 0.41923842
3.1675487 -22.339252 0.31759644
4.165205 -21.762974 0.31189728
4.6921387 -21.670918 0.31210983
5.8019629 -21.681362 0.31592894
7.5171776 -21.674028 0.32291701
10.593467 -21.682367 0.33968505
11.249579 -21.682983 0.34384733
14.057871 -21.688574 0.36381239
14.813574 -21.689631 0.36972013
15.594677 -21.690727 0.37603652
18.11747 -21.698162 0.39789793
19.025625 -21.699707 0.40622649
26.894657 -8.2050562 0.39579758
27.327049 -7.6215115 0.39934233
26.531454 6.3415647 0.38398132
21.889013 6.3622742 0.3208673
17.141132 6.3589563 0.25734848
15.958916 6.362401 0.24183425
14.910576 6.3654575 0.22820953
13.973525 6.368187 0.21615738
12.958379 6.2873545 0.20273376
11.061211 6.3936939 0.17983887
10.472705 6.3954086 0.17272918
8.5130568 6.4011207 0.14992553
7.9852829 6.3114524 0.14327972
6.6610155 6.3991051 0.13001755
6.3480954 6.4000182 0.12688674
5.7645898 6.401721 0.12126144
4.5003319 6.4054098 0.1101918
4.2737794 6.4060702 0.10839889
4.0543551 6.4067111 0.10672195
3.6346483 6.4079356 0.10369873
3.2371874 6.4090967 0.10106979
2.6386817 6.3230443 0.096444398
2.3179297 6.4077735 0.095917203
2.1447754 6.4082785 0.095121607
1.9743652 6.4087777 0.0943956
1.8064452 6.4092674 0.093732297
1.6407714 6.4097519 0.093133546
1.4770898 6.4102292 0.092595212
1.3152051 6.4107032 0.092117615
0.99593747 6.4116354 0.091333307
0.83816403 6.4120984 0.091025084
0.52529293 6.4130125 0.090573274
0.21482421 6.4139218 0.090333559
-0.24961914 6.4152794 0.090371244
-0.40480468 6.4157333 0.090488888
-0.71688473 6.4166465 0.090883635
-1.3530273 6.4185095 0.092333831
-1.8469726 6.4199557 0.094033353
-2.0160449 6.4204516 0.09472549
-2.3313768 6.337584 0.095052637
-2.6855175 6.3386216 0.096902162
-2.908535 6.4286814 0.099322051
-3.0977244 6.4292355 0.10045516
-3.2913964 6.4298043 0.10167617
-4.3421092 6.4328856 0.10924713
-4.5722752 6.4335608 0.11110016
-4.8104978 6.4342589 0.11308334
-5.3142042 6.4357371 0.11748291
-5.8599997 6.4373374 0.12253509
-6.1512303 6.4381933 0.12533981
-6.7765675 6.4400268 0.13159209
-7.113657 6.4410167 0.1350801
-7.3946533 6.3776779 0.13745391
-7.7334471 6.3511143 0.14086501
-9.1115627 6.4389524 0.1570494
-10.118125 6.4419065 0.16883987
-10.680996 6.4435596 0.17558654
-11.291099 6.4453516 0.1830069
-11.955434 6.4473019 0.19119781
-13.479854 6.4505343 0.21035065
-14.365322 6.4531345 0.22167328
-15.352153 6.4560328 0.23442993
-19.195024 6.4828134 0.28518784
-22.799599 6.493402 0.33369172
2.9488671 -22.569941 0.32039672
3.4350586 -22.122677 0.31513655
3.9310448 -21.829912 0.31222123
4.4469724 -21.682426 0.31155699
5.5455465 -21.669409 0.31484878
6.6814938 -21.69268 0.31950575
9.6643257 -21.675724 0.33406723
10.301171 -21.682095 0.33789307
10.950147 -21.682703 0.34192276
13.000693 -21.687094 0.35592085
15.237294 -21.690224 0.37312391
19.538477 -21.700546 0.41103315
20.509081 -21.702133 0.4203102
10.041064 -7.5509796 0.17684509
26.747265 -8.4809103 0.39496824
27.080322 -7.8728695 0.39696914
25.0816 6.345787 0.36417845
22.807596 6.3595972 0.33329147
20.868465 6.3652477 0.30710617
19.210907 6.3700767 0.28489485
17.728741 6.3572435 0.26511109
16.476748 6.3608932 0.24861068
15.370839 6.3641148 0.23417343
13.325302 6.2862854 0.20739228
12.736973 6.3888083 0.20057769
11.344316 6.3928685 0.18329361
10.733594 6.3946481 0.17586838
10.170127 6.3962903 0.16911483
8.7089643 6.4005504 0.152135
7.782197 6.3194604 0.14111206
7.1447849 6.3976941 0.1349974
6.8080564 6.3986764 0.13151413
6.1832714 6.4004993 0.12526886
5.3469334 6.4029393 0.11742035
5.0904684 6.4036875 0.11514999
4.8436232 6.404408 0.11302856
3.9372168 6.407053 0.10585403
3.5239649 6.4082603 0.10294204
2.9026074 6.3222742 0.097924501
2.3974218 6.4075413 0.096300043
2.2229297 6.4080505 0.095473632
2.0513086 6.4085507 0.094715729
1.7156054 6.4095325 0.093397215
1.5510644 6.4100132 0.09283264
1.3883984 6.4104896 0.092326812
0.90955079 6.4118896 0.091157988
0.44027343 6.4132614 0.090486601
0.13018554 6.4141684 0.090305328
-0.024570312 6.4146204 0.090293117
-0.17937499 6.4150743 0.090335235
-0.6458984 6.4164405 0.090774991
-0.9605273 6.4173608 0.091337584
-1.1194824 6.4178257 0.091701813
-2.1095409 6.4207249 0.095132142
-2.2549219 6.3429761 0.094758451
-2.4268358 6.3378625 0.095528871
-2.6040332 6.3383822 0.096456297
-3.0114257 6.4289832 0.099930875
-3.8076854 6.4313183 0.10520492
-4.0206833 6.4319434 0.10677093
-4.2402539 6.4325867 0.10844833
-4.4669628 6.4332519 0.11024414
-4.9444041 6.4346519 0.11422791
-5.1966014 6.4353905 0.11643188
-6.3162255 6.4386768 0.12695938
-7.305654 6.4415793 0.13710052
-7.9555221 6.3596959 0.14336334
-8.4630518 6.437048 0.14967132
-10.420366 6.4427953 0.17245056
-11.647056 6.4463949 0.18738174
-14.891103 6.4546776 0.22845581
-15.941421 6.4577637 0.24210693
-21.878901 6.4906969 0.32123673
-23.696493 6.4122448 0.34554839
-7.2867088 -7.8298326 0.15055725
-18.95459 -22.447348 0.41357648
2.0516601 -28.956982 0.40862563
0.93150389 -7.7920032 0.1104628
3.2121093 -22.292261 0.31703216
3.7035058 -21.939434 0.31318924
4.2133398 -21.749214 0.31183654
4.7428222 -21.669052 0.31223586
5.2908106 -21.657532 0.31381759
6.4221482 -21.691153 0.31843445
6.9898143 -21.673611 0.32055449
8.163867 -21.674538 0.32601562
9.3814449 -21.675503 0.33246109
10.011894 -21.681826 0.33616638
10.654043 -21.682426 0.34005997
11.31163 -21.683041 0.34425139
11.986045 -21.683672 0.34875351
12.67874 -21.684319 0.3535614
14.127392 -21.688671 0.36434692
15.668945 -21.69083 0.37668639
17.324072 -21.695339 0.39080137
18.200781 -21.698456 0.3986522
26.894316 -8.1388044 0.3955217
27.378281 -7.569387 0.39983672
28.936806 6.2507653 0.41671431
26.272919 6.3423166 0.38044569
23.463291 6.2667112 0.34184843
21.708399 6.3628016 0.31842682
19.931601 6.3679771 0.29453278
18.189844 6.2989573 0.27095717
15.85583 6.3627024 0.24048889
12.945478 6.3171396 0.20275801
11.638633 6.3920102 0.18690872
11.004257 6.3938599 0.1791455
10.420156 6.3955612 0.17209992
9.8799019 6.3971348 0.16567871
9.3783007 6.3985996 0.15980774
7.6677732 6.3961706 0.14055404
6.9585156 6.3982382 0.13306031
6.6311522 6.3991928 0.12971543
6.0225778 6.4009681 0.12371307
5.2054882 6.4033508 0.11615982
4.7124314 6.4047909 0.11192855
4.2530079 6.4061303 0.10823684
4.0342188 6.4067688 0.10657135
3.8219335 6.4073901 0.10501739
3.6156445 6.4079905 0.10356765
3.4148533 6.4085779 0.10221604
3.219121 6.4091501 0.10095627
2.9866307 6.3220277 0.098420411
2.8023827 6.322567 0.097347103
2.3016601 6.4078207 0.095839992
1.9585937 6.4088244 0.094330445
1.6254101 6.4097972 0.093081661
1.4619141 6.4102745 0.092548825
1.3001758 6.4107471 0.092075653
0.66675782 6.4125986 0.090751342
0.35537109 6.4135094 0.090416104
0.045585938 6.4144154 0.090291895
-0.26409179 6.4153223 0.090379179
-1.2069628 6.4180808 0.091925353
-1.368125 6.4185543 0.092377931
-1.6957519 6.4195142 0.093461454
-2.0319433 6.4204979 0.094794005
-2.3476074 6.3376317 0.095132597
-2.5232811 6.3381457 0.096027829
-2.7023926 6.3386707 0.09699554
-3.1155956 6.4292908 0.1005661
-3.5087597 6.4304404 0.1031134
-3.9233496 6.4316564 0.10604721
-4.139873 6.4322925 0.10767395
-4.3632617 6.4329467 0.10941528
-4.5941501 6.4336252 0.11127914
-4.8331738 6.4343262 0.11327652
-5.081079 6.4350524 0.11541305
-5.3386717 6.4358082 0.11770355
-5.6068602 6.436594 0.12015716
-6.1790867 6.4382749 0.12561187
-6.8072901 6.4401169 0.13190627
-7.7691746 6.3512206 0.14125411
-8.2729731 6.4364905 0.14754592
-8.6997118 6.4377418 0.15234177
-10.735849 6.4437203 0.17625046
-11.350693 6.4455261 0.18373825
-12.020508 6.4474926 0.19200531
-14.452881 6.4533911 0.22280104
-16.570644 6.4596119 0.25034684
-17.840454 6.4633408 0.26709762
-21.024405 6.4881873 0.30971497
-22.998026 6.4939842 0.33637986
-19.221216 -22.264494 0.4140332
2.0360155 -24.203943 0.34189695
2.9941895 -22.522139 0.31981185
5.0406055 -21.658085 0.31301132
5.5981836 -21.67186 0.31506941
6.1645312 -21.689636 0.3174037
7.3068357 -21.673862 0.32195526
8.4919529 -21.674799 0.32767943
9.101181 -21.675278 0.33090836
11.678164 -21.683384 0.34667113
12.362344 -21.684023 0.35135451
13.067236 -21.687187 0.35640335
13.79167 -21.688198 0.3617813
14.538711 -21.689247 0.36754668
15.310439 -21.690327 0.37372938
16.108652 -21.691021 0.3803134
16.937782 -21.693966 0.38741851
18.695282 -21.700214 0.40317947
20.601942 -21.702284 0.42121232
22.612705 6.3601661 0.33064926
20.702871 6.3657298 0.3048825
18.76878 6.2704225 0.27853668
16.367764 6.3612108 0.24718292
15.274111 6.364397 0.23291884
14.299267 6.3672385 0.22032958
13.248379 6.2865086 0.20641571
11.285185 6.3930407 0.1825708
10.679151 6.3948059 0.17521179
9.6012592 6.3979478 0.162406
9.1187792 6.3993554 0.15681076
8.6681929 6.4006686 0.1516742
8.1289158 6.3110352 0.14486404
7.7466502 6.3195653 0.14071761
7.466074 6.3967576 0.13839142
6.7774901 6.3987656 0.13120133
5.8657813 6.4014244 0.12221619
5.5884862 6.4022336 0.11962234
5.3225584 6.4030089 0.11720291
4.8210349 6.4044738 0.11283706
4.5837598 6.4051647 0.11086853
4.3544822 6.4058347 0.10902954
4.1325684 6.4064832 0.10731262
3.9174023 6.4071102 0.10570846
3.7084472 6.4077206 0.10421188
2.5265331 6.3273802 0.095903315
2.0354199 6.4085975 0.09464889
1.7001758 6.4095774 0.093341522
0.73771483 6.4123912 0.090857543
0.58140624 6.4128489 0.090638272
0.27061522 6.4137559 0.090360865
-0.19381836 6.4151173 0.090341642
-0.50439453 6.4160266 0.090591431
-0.8174023 6.4169407 0.091056056
-0.97532225 6.4174047 0.091369323
-1.1343945 6.4178686 0.091739193
-1.294873 6.4183383 0.092165217
-1.6208105 6.4192929 0.093195185
-1.7867187 6.4197803 0.093800202
-1.9548925 6.4202709 0.094468988
-2.2710254 6.3430238 0.094837189
-2.6207519 6.3384314 0.09654709
-2.8414354 6.4284863 0.098933563
-3.0291209 6.4290357 0.10003845
-3.4178905 6.4301758 0.10250473
-3.8273046 6.4313755 0.10534683
-4.2611132 6.4326477 0.10861129
-4.4885154 6.4333138 0.11041885
-4.7237597 6.4340038 0.11235382
-5.7582955 6.4370384 0.12157272
-6.3447948 6.4387608 0.12724319
-6.659409 6.4396839 0.13039871
-7.338984 6.4416771 0.13745362
-7.5974364 6.3507166 0.13938904
-8.5028315 6.4371653 0.15011764
-9.4180613 6.4398522 0.16059799
-9.9259224 6.4413428 0.1665602
-10.473271 6.4429502 0.17308593
-11.065635 6.4446898 0.18025269
-11.709531 6.4465795 0.1881517
-12.41293 6.4486461 0.19689819
-13.010483 6.365365 0.20388535
-14.035815 6.452168 0.21744445
-14.984101 6.4549522 0.22965728
-16.045918 6.4580712 0.24347274
-20.229023 6.4858508 0.29902634
-22.062817 6.4912376 0.32372236
-24.587524 -7.4132133 0.36148712
-7.5256348 -7.3754039 0.1483223
-7.1851416 -8.54811 0.15718627
-18.410479 -23.007498 0.41477934
-18.12373 -23.804234 0.42113373
3.2565234 -22.245415 0.31646773
4.793613 -21.667183 0.31236404
5.3431249 -21.659969 0.31402832
7.043818 -21.673653 0.32078612
7.626699 -21.674114 0.32342574
8.2196579 -21.674582 0.32629424
9.4394817 -21.675547 0.33278519
11.373818 -21.683098 0.3446582
12.049911 -21.683729 0.34918791
14.197061 -21.688766 0.36488509
14.957402 -21.689833 0.37086624
15.742549 -21.689716 0.37724867
16.558125 -21.692617 0.38413635
17.404366 -21.695625 0.3915129
20.154667 -21.701555 0.4168936
18.253124 -7.9817562 0.28042328
26.76494 -8.7430258 0.39633957
28.678104 6.2625108 0.41318861
23.434013 6.3154602 0.34163451
19.779228 6.3684225 0.29248977
16.909071 6.3596325 0.25429139
12.263525 6.3901892 0.19465224
11.577089 6.3921885 0.18615143
10.947666 6.3940244 0.17845978
10.367949 6.3957129 0.17147475
9.8315334 6.3972778 0.16510773
8.868701 6.400084 0.15395004
8.3143549 6.310493 0.14692733
7.6329198 6.3962717 0.14017792
7.2704492 6.3973289 0.13631652
6.9272752 6.3983288 0.13273849
5.9955273 6.4010472 0.12345215
5.4417677 6.4026632 0.11827911
5.1816697 6.4034204 0.1159494
4.2323046 6.4061913 0.10807724
4.0141406 6.4068284 0.10642227
3.8024511 6.4074459 0.10487793
3.5966797 6.4080467 0.10343689
2.6070311 6.3271446 0.096325532
2.457705 6.3987794 0.096486814
2.2854102 6.4078684 0.095763244
2.1127734 6.4083714 0.09498062
1.9428222 6.4088693 0.094266661
1.7753515 6.4093575 0.093615569
1.6100488 6.4098425 0.0930278
1.446748 6.4103184 0.092501983
1.125127 6.4112597 0.091624752
0.80881834 6.4121838 0.090973817
0.6521582 6.4126401 0.090730891
0.34088868 6.4135523 0.090405576
-0.12361328 6.4149117 0.090314329
-0.27855468 6.4153638 0.090388335
-0.43382812 6.4158192 0.090516202
-0.74616212 6.4167333 0.090931699
-1.5462793 6.419076 0.092940062
-1.8783593 6.4200487 0.094157867
-2.1930077 6.3427939 0.094468534
-2.7192774 6.3387208 0.097089536
-2.9435155 6.4287839 0.099526823
-3.3280859 6.4299121 0.1019136
-3.9432518 6.431715 0.10619415
-4.6161036 6.4336886 0.11146042
-5.104702 6.4351206 0.11562011
-5.3632712 6.4358802 0.11792556
-5.6324754 6.4366698 0.12039505
-5.9133935 6.4374938 0.1230429
-6.2070847 6.4383569 0.12588623
-6.5149069 6.4392591 0.12893982
-8.7409811 6.4378638 0.15280899
-9.1995163 6.4392099 0.15806426
-9.6910934 6.4406543 0.16379166
-10.219863 6.4422045 0.17005172
-10.791133 6.4438829 0.17691711
-11.410728 6.4457016 0.18447478
-12.086123 6.4476852 0.19282119
-15.54915 6.4566126 0.23699249
-19.486469 6.4836693 0.28907987
-21.195322 6.4886899 0.31201524
-23.199585 6.4945765 0.33911711
-16.004642 -7.7462993 0.25022414
-7.4419284 -7.4883103 0.14860611
-19.909678 -22.067265 0.41836011
-19.160645 -22.295542 0.41380554
2.0748241 -24.018261 0.3393454
0.85943359 -7.7603521 0.10990402
3.5270898 -22.059853 0.31446791
4.5475097 -21.676245 0.3117575
5.09167 -21.656208 0.3131488
7.3612986 -21.673906 0.32220274
7.9495215 -21.67437 0.32496247
9.1586618 -21.675323 0.33122498
9.7842674 -21.681614 0.3348349
12.427177 -21.684082 0.35179976
14.609619 -21.689344 0.36810151
16.184687 -21.691288 0.38095167
17.016787 -21.694248 0.38810545
17.881063 -21.697319 0.39576551
20.695204 -21.702438 0.42211807
10.525244 6.3950095 -0.10400978
9.977334 6.396616 -0.10009109
8.0219526 6.3111424 -0.08619751
7.7001171 6.3645577 -0.084366456
7.3696876 6.3968444 -0.082415238
7.0213184 6.3978662 -0.080222473
5.7905078 6.401473 -0.072898939
5.2533102 6.4030466 -0.069946438
4.7568259 6.4045019 -0.067374341
4.2945118 6.4058566 -0.06513115
4.0744529 6.4065013 -0.064119264
3.4518456 6.4083252 -0.061471939
3.0214062 6.3217869 -0.059171751
2.6553416 6.3228598 -0.057916947
2.4794531 6.3273826 -0.05739006
2.1607714 6.4080968 -0.057111435
1.8219824 6.4090891 -0.056270599
1.4922558 6.4100537 -0.055581663
1.1697656 6.4109983 -0.055036392
1.0107031 6.4114633 -0.054815214
0.85283202 6.4119263 -0.054627225
0.69592774 6.412385 -0.054472275
0.38434568 6.4132972 -0.054257888
0.2292871 6.4137521 -0.054199979
0.074472651 6.4142041 -0.054172974
-0.23514648 6.4151096 -0.054212797
-1.0175879 6.4173985 -0.054873504
-1.1770215 6.4178638 -0.055104293
-1.3379004 6.418335 -0.055369414
-2.0001171 6.4202709 -0.056790695
-2.3171778 6.3430238 -0.057030104
-2.8910155 6.4284911 -0.059527434
-3.0798144 6.4290428 -0.060203627
-3.2730565 6.4296079 -0.060929563
-4.0988574 6.4320202 -0.064410858
-4.7877831 6.4340329 -0.067730099
-5.2896872 6.4354992 -0.070352554
-5.5558105 6.4362755 -0.071805574
-6.1233153 6.437933 -0.075036697
-6.7458105 6.4397507 -0.078761287
-7.6976657 6.3508105 -0.084278412
-8.1959763 6.4360557 -0.08800827
-8.6176605 6.4372888 -0.09084221
-9.5495453 6.4400082 -0.097274624
-10.067411 6.4415197 -0.10093567
